288.006	-18.661	0.718	12.289
287.877	-18.557	0.370	11.803
287.748	-18.453	0.028	11.458
287.618	-18.349	0.076	11.214
287.489	-18.244	0.656	11.074
287.360	-18.140	0.260	10.985
287.231	-18.036	0.065	10.942
287.101	-17.932	0.146	10.926
286.972	-17.828	0.697	10.955
286.843	-17.724	2.413	11.018
286.714	-17.620	2.279	11.115
286.584	-17.516	1.419	11.236
286.455	-17.412	1.067	11.392
286.326	-17.308	1.442	11.565
286.196	-17.203	1.385	11.748
286.067	-17.099	1.266	11.919
285.938	-16.995	1.066	12.072
285.808	-16.891	0.855	12.188
285.679	-16.787	0.393	12.286
285.550	-16.683	0.303	12.359
285.421	-16.579	0.457	12.409
285.291	-16.475	0.613	12.427
288.098	-18.556	1.312	14.869
287.969	-18.452	0.306	14.314
287.840	-18.348	0.067	13.925
287.710	-18.243	0.747	13.663
287.581	-18.139	1.319	13.497
287.452	-18.035	0.665	13.401
287.322	-17.931	0.018	13.345
287.193	-17.827	0.320	13.345
287.064	-17.723	1.384	13.386
286.935	-17.619	3.048	13.470
286.805	-17.515	3.403	13.588
286.676	-17.411	2.517	13.762
286.547	-17.306	1.942	13.990
286.418	-17.202	2.422	14.227
286.288	-17.098	1.240	14.461
286.159	-16.994	0.829	14.701
286.030	-16.890	0.287	14.916
285.900	-16.786	0.757	15.084
285.771	-16.682	0.061	15.230
285.642	-16.578	0.307	15.346
285.513	-16.474	0.895	15.438
285.383	-16.370	0.797	15.495
288.190	-18.451	0.874	18.016
288.061	-18.346	0.571	17.428
287.932	-18.242	0.740	17.011
287.802	-18.138	0.772	16.719
287.673	-18.034	1.168	16.549
287.544	-17.930	0.648	16.454
287.414	-17.826	0.222	16.399
287.285	-17.722	0.705	16.407
287.156	-17.618	1.289	16.464
287.027	-17.514	2.684	16.576
286.897	-17.410	3.397	16.731
286.768	-17.305	2.703	16.980
286.639	-17.201	2.594	17.260
286.510	-17.097	3.078	17.577
286.380	-16.993	1.696	17.895
286.251	-16.889	0.177	18.220
286.122	-16.785	0.017	18.515
285.992	-16.681	0.746	18.749
285.863	-16.577	0.209	18.955
285.734	-16.473	0.082	19.124
285.605	-16.369	1.071	19.268
285.475	-16.264	0.576	19.398
288.282	-18.345	0.598	21.830
288.153	-18.241	0.480	21.200
288.023	-18.137	0.430	20.757
287.894	-18.033	0.235	20.488
287.765	-17.929	0.482	20.329
287.636	-17.825	0.531	20.244
287.506	-17.721	1.015	20.195
287.377	-17.617	1.635	20.214
287.248	-17.512	2.069	20.314
287.118	-17.408	2.851	20.437
286.989	-17.304	3.741	20.654
286.860	-17.200	3.684	20.946
286.731	-17.096	3.045	21.307
286.601	-16.992	2.058	21.700
286.472	-16.888	1.151	22.135
286.343	-16.784	0.545	22.561
286.214	-16.680	0.622	22.950
286.084	-16.576	0.779	23.263
285.955	-16.471	0.559	23.569
285.826	-16.367	0.435	23.800
285.696	-16.263	0.632	23.980
285.567	-16.159	0.112	24.164
288.374	-18.240	0.256	26.343
288.245	-18.136	0.185	25.717
288.115	-18.032	0.001	25.291
287.986	-17.928	0.008	25.051
287.857	-17.824	0.123	24.918
287.728	-17.720	0.195	24.854
287.598	-17.616	1.114	24.815
287.469	-17.511	2.506	24.875
287.340	-17.407	3.241	24.969
287.210	-17.303	3.687	25.118
287.081	-17.199	4.149	25.381
286.952	-17.095	3.304	25.739
286.823	-16.991	2.332	26.184
286.693	-16.887	1.514	26.673
286.564	-16.783	1.086	27.216
286.435	-16.679	0.014	27.751
286.305	-16.575	0.105	28.218
286.176	-16.470	0.424	28.674
286.047	-16.366	0.523	29.028
285.918	-16.262	0.093	29.327
285.788	-16.158	0.172	29.566
285.659	-16.054	0.096	29.814
288.466	-18.135	0.158	31.610
288.337	-18.031	0.016	31.018
288.207	-17.927	0.028	30.638
288.078	-17.823	0.026	30.450
287.949	-17.718	0.159	30.393
287.819	-17.614	0.722	30.332
287.690	-17.510	1.750	30.334
287.561	-17.406	3.221	30.377
287.432	-17.302	4.251	30.483
287.302	-17.198	4.761	30.650
287.173	-17.094	4.501	30.949
287.044	-16.990	3.369	31.361
286.914	-16.886	1.319	31.853
286.785	-16.782	0.508	32.452
286.656	-16.677	0.742	33.131
286.527	-16.573	0.086	33.767
286.397	-16.469	0.857	34.328
286.268	-16.365	0.126	34.838
286.139	-16.261	0.270	35.269
286.010	-16.157	0.004	35.637
285.880	-16.053	0.029	35.937
285.751	-15.949	0.034	36.246
288.558	-18.030	0.978	37.613
288.428	-17.926	0.063	37.058
288.299	-17.822	0.176	36.780
288.170	-17.717	0.337	36.699
288.041	-17.613	0.081	36.668
287.911	-17.509	0.591	36.641
287.782	-17.405	1.286	36.663
287.653	-17.301	3.473	36.712
287.524	-17.197	4.478	36.819
287.394	-17.093	4.807	36.985
287.265	-16.989	4.556	37.295
287.136	-16.885	3.554	37.731
287.006	-16.780	1.974	38.299
286.877	-16.676	1.014	38.953
286.748	-16.572	0.808	39.661
286.619	-16.468	0.182	40.371
286.489	-16.364	1.211	41.006
286.360	-16.260	0.376	41.590
286.231	-16.156	1.012	42.090
286.101	-16.052	0.041	42.492
285.972	-15.948	0.022	42.881
285.843	-15.844	0.046	43.247
288.650	-17.924	0.906	44.299
288.520	-17.820	0.073	43.840
288.391	-17.716	0.219	43.662
288.262	-17.612	0.789	43.634
288.132	-17.508	0.067	43.638
288.003	-17.404	0.468	43.684
287.874	-17.300	1.600	43.723
287.745	-17.196	3.727	43.770
287.615	-17.092	4.981	43.826
287.486	-16.988	5.695	43.994
287.357	-16.884	4.638	44.272
287.228	-16.779	4.444	44.722
287.098	-16.675	2.843	45.230
286.969	-16.571	1.548	45.879
286.840	-16.467	0.394	46.598
286.711	-16.363	0.000	47.333
286.581	-16.259	1.039	48.006
286.452	-16.155	1.446	48.639
286.323	-16.051	0.874	49.192
286.193	-15.947	0.021	49.649
286.064	-15.842	0.060	50.134
285.935	-15.738	0.038	50.548
288.742	-17.819	0.033	51.438
288.612	-17.715	0.060	51.105
288.483	-17.611	0.506	51.045
288.354	-17.507	1.201	51.117
288.224	-17.403	0.274	51.194
288.095	-17.299	0.885	51.286
287.966	-17.195	1.977	51.339
287.837	-17.091	3.196	51.369
287.707	-16.986	4.108	51.420
287.578	-16.882	3.636	51.518
287.449	-16.778	3.452	51.707
287.320	-16.674	3.771	52.015
287.190	-16.570	2.736	52.424
287.061	-16.466	1.443	52.987
286.932	-16.362	0.735	53.641
286.802	-16.258	0.026	54.308
286.673	-16.154	0.066	54.997
286.544	-16.050	0.301	55.640
286.415	-15.945	0.028	56.265
286.285	-15.841	0.005	56.766
286.156	-15.737	0.023	57.252
286.027	-15.633	0.061	57.703
288.834	-17.714	0.103	58.857
288.704	-17.610	0.039	58.679
288.575	-17.506	0.044	58.755
288.446	-17.402	0.387	58.940
288.316	-17.298	0.023	59.096
288.187	-17.194	0.342	59.232
288.058	-17.090	0.507	59.292
287.928	-16.985	0.964	59.295
287.799	-16.881	1.879	59.259
287.670	-16.777	1.484	59.234
287.541	-16.673	1.523	59.264
287.411	-16.569	1.939	59.355
287.282	-16.465	1.319	59.604
287.153	-16.361	1.011	59.985
287.024	-16.257	0.683	60.484
286.894	-16.153	0.161	61.036
286.765	-16.049	0.171	61.650
286.636	-15.944	0.057	62.299
286.507	-15.840	0.031	62.886
286.377	-15.736	0.018	63.414
286.248	-15.632	0.000	63.933
286.119	-15.528	0.037	64.407
288.925	-17.609	0.054	66.312
288.796	-17.505	0.145	66.349
288.667	-17.401	0.021	66.582
288.538	-17.297	0.039	66.890
288.408	-17.192	0.075	67.179
288.279	-17.088	0.167	67.360
288.150	-16.984	0.528	67.416
288.020	-16.880	0.183	67.318
287.891	-16.776	0.519	67.165
287.762	-16.672	0.051	66.961
287.633	-16.568	0.027	66.755
287.503	-16.464	0.211	66.570
287.374	-16.360	0.061	66.526
287.245	-16.256	0.138	66.624
287.115	-16.151	0.281	66.882
286.986	-16.047	0.181	67.262
286.857	-15.943	0.111	67.737
286.728	-15.839	0.082	68.268
286.598	-15.735	0.018	68.803
286.469	-15.631	0.053	69.362
286.340	-15.527	0.086	69.899
286.211	-15.423	0.294	70.383
289.017	-17.504	0.005	73.698
288.888	-17.400	0.232	73.941
288.759	-17.296	0.043	74.351
288.630	-17.192	0.162	74.798
288.500	-17.087	0.050	75.184
288.371	-16.983	0.111	75.411
288.242	-16.879	0.193	75.455
288.112	-16.775	0.360	75.278
287.983	-16.671	0.638	74.969
287.854	-16.567	0.051	74.527
287.725	-16.463	0.075	74.009
287.595	-16.359	0.030	73.457
287.466	-16.255	0.787	73.022
287.337	-16.150	0.503	72.769
287.207	-16.046	0.020	72.650
287.078	-15.942	0.172	72.751
286.949	-15.838	0.045	73.022
286.820	-15.734	0.189	73.424
286.690	-15.630	0.144	73.898
286.561	-15.526	0.035	74.438
286.432	-15.422	0.416	74.978
286.303	-15.318	0.542	75.459
289.109	-17.399	1.282	80.881
288.980	-17.294	0.536	81.395
288.851	-17.190	0.011	82.003
288.721	-17.086	0.036	82.576
288.592	-16.982	0.032	83.057
288.463	-16.878	0.593	83.332
288.334	-16.774	0.704	83.356
288.204	-16.670	0.441	83.077
288.075	-16.566	0.442	82.572
287.946	-16.462	0.123	81.837
287.816	-16.358	0.130	80.900
287.687	-16.253	0.536	79.964
287.558	-16.149	0.936	79.043
287.429	-16.045	1.111	78.283
287.299	-15.941	0.740	77.736
287.170	-15.837	0.801	77.483
287.041	-15.733	0.146	77.487
286.911	-15.629	0.091	77.693
286.782	-15.525	0.092	78.084
286.653	-15.421	0.046	78.581
286.524	-15.316	0.314	79.129
286.394	-15.212	0.384	79.581
289.201	-17.293	1.130	87.887
289.072	-17.189	0.137	88.601
288.943	-17.085	0.483	89.423
288.813	-16.981	0.456	90.170
288.684	-16.877	0.034	90.768
288.555	-16.773	1.027	91.093
288.425	-16.669	1.074	91.052
288.296	-16.565	1.044	90.683
288.167	-16.461	1.035	89.945
288.038	-16.357	0.757	88.866
287.908	-16.252	1.032	87.512
287.779	-16.148	0.109	86.017
287.650	-16.044	0.068	84.536
287.520	-15.940	0.802	83.196
287.391	-15.836	0.225	82.171
287.262	-15.732	0.196	81.494
287.133	-15.628	0.138	81.167
287.003	-15.524	0.110	81.145
286.874	-15.419	0.046	81.411
286.745	-15.315	0.098	81.833
286.616	-15.211	0.347	82.327
286.486	-15.107	0.598	82.764
289.293	-17.188	0.875	94.701
289.164	-17.084	0.515	95.659
289.034	-16.980	1.189	96.675
288.905	-16.876	0.077	97.631
288.776	-16.772	0.039	98.350
288.647	-16.668	0.795	98.721
288.517	-16.564	0.749	98.636
288.388	-16.459	0.813	98.156
288.259	-16.355	0.625	97.148
288.130	-16.251	0.190	95.676
288.000	-16.147	1.079	93.788
287.871	-16.043	0.117	91.710
287.742	-15.939	0.006	89.603
287.612	-15.835	0.066	87.643
287.483	-15.731	0.055	86.048
287.354	-15.627	0.048	84.881
287.225	-15.523	0.056	84.165
287.095	-15.418	0.022	83.872
286.966	-15.314	0.095	83.932
286.837	-15.210	0.029	84.247
286.707	-15.106	0.268	84.686
286.578	-15.002	0.012	85.112
