274.829	9.098	0.018	6.331
274.789	9.120	0.034	6.413
274.751	9.144	0.049	6.529
274.712	9.163	0.063	6.586
274.670	9.172	0.075	6.513
274.626	9.169	0.087	6.304
274.581	9.168	0.098	6.100
274.537	9.173	0.108	5.960
274.494	9.181	0.116	5.919
274.453	9.198	0.123	5.967
274.413	9.220	0.127	5.967
274.375	9.243	0.131	6.108
274.336	9.267	0.132	6.186
274.298	9.291	0.133	6.314
274.260	9.316	0.133	6.631
274.223	9.341	0.131	6.428
274.185	9.366	0.128	6.464
274.148	9.392	0.124	6.549
274.112	9.419	0.122	6.709
274.077	9.447	0.122	6.721
274.043	9.477	0.127	7.310
274.011	9.508	0.135	6.940
273.979	9.540	0.146	6.830
273.947	9.572	0.156	6.823
273.916	9.605	0.165	6.854
273.885	9.637	0.171	6.930
273.854	9.670	0.175	6.904
273.824	9.704	0.176	6.932
273.794	9.738	0.174	6.987
273.764	9.772	0.171	6.940
273.735	9.806	0.167	6.976
273.706	9.841	0.160	7.001
273.678	9.876	0.151	6.986
273.650	9.912	0.140	7.046
273.624	9.948	0.126	7.078
273.597	9.985	0.110	7.108
273.571	10.021	0.093	7.110
273.544	10.057	0.076	7.153
273.516	10.093	0.060	7.157
273.487	10.128	0.045	7.136
273.458	10.162	0.032	7.142
273.428	10.196	0.021	7.106
273.397	10.229	0.010	7.063
274.863	9.133	0.034	6.928
274.824	9.155	0.066	7.018
274.785	9.177	0.095	7.113
274.746	9.194	0.122	7.145
274.705	9.205	0.147	7.090
274.662	9.208	0.171	6.923
274.618	9.209	0.194	6.735
274.575	9.216	0.214	6.633
274.533	9.226	0.231	6.573
274.492	9.241	0.245	6.567
274.453	9.263	0.254	6.652
274.414	9.286	0.261	6.742
274.377	9.311	0.265	6.857
274.339	9.335	0.268	6.931
274.302	9.360	0.268	7.034
274.265	9.385	0.265	7.091
274.227	9.410	0.261	7.175
274.190	9.436	0.255	7.222
274.154	9.463	0.251	7.294
274.119	9.491	0.253	7.336
274.086	9.521	0.263	7.405
274.053	9.552	0.280	7.511
274.022	9.584	0.301	7.576
273.991	9.616	0.320	7.663
273.960	9.649	0.335	7.721
273.929	9.682	0.345	7.767
273.899	9.715	0.350	7.802
273.869	9.749	0.349	7.835
273.839	9.783	0.345	7.856
273.810	9.817	0.338	7.876
273.781	9.852	0.328	7.897
273.752	9.887	0.314	7.911
273.724	9.922	0.296	7.930
273.697	9.958	0.273	7.967
273.670	9.994	0.245	7.999
273.643	10.031	0.213	8.038
273.617	10.067	0.179	8.076
273.590	10.103	0.146	8.099
273.562	10.139	0.114	8.108
273.534	10.174	0.086	8.104
273.504	10.208	0.061	8.066
273.474	10.242	0.039	8.028
273.444	10.275	0.019	7.984
274.896	9.167	0.048	7.600
274.858	9.190	0.093	7.714
274.819	9.212	0.135	7.816
274.780	9.228	0.176	7.830
274.740	9.239	0.214	7.766
274.699	9.246	0.252	7.641
274.655	9.249	0.287	7.448
274.613	9.257	0.319	7.343
274.571	9.269	0.345	7.295
274.530	9.284	0.366	7.290
274.491	9.304	0.381	7.358
274.453	9.328	0.392	7.480
274.416	9.353	0.399	7.612
274.379	9.378	0.403	7.733
274.342	9.404	0.405	7.854
274.306	9.429	0.403	7.954
274.270	9.455	0.398	8.049
274.233	9.482	0.393	8.132
274.198	9.509	0.389	8.211
274.164	9.537	0.394	8.291
274.131	9.567	0.411	8.386
274.099	9.598	0.437	8.482
274.067	9.629	0.465	8.558
274.036	9.662	0.491	8.649
274.006	9.694	0.509	8.718
273.975	9.728	0.518	8.782
273.945	9.761	0.520	8.828
273.915	9.795	0.516	8.869
273.885	9.829	0.508	8.897
273.856	9.863	0.496	8.925
273.827	9.898	0.481	8.955
273.798	9.933	0.461	8.976
273.770	9.968	0.435	9.003
273.743	10.004	0.400	9.050
273.716	10.040	0.357	9.091
273.689	10.077	0.308	9.139
273.663	10.113	0.257	9.185
273.636	10.149	0.207	9.212
273.608	10.184	0.161	9.209
273.579	10.219	0.120	9.188
273.550	10.254	0.085	9.165
273.520	10.288	0.054	9.117
273.490	10.321	0.026	9.061
274.929	9.201	0.058	8.375
274.891	9.224	0.114	8.494
274.853	9.247	0.168	8.623
274.815	9.263	0.222	8.639
274.775	9.275	0.274	8.576
274.734	9.283	0.325	8.444
274.692	9.288	0.374	8.262
274.650	9.298	0.419	8.170
274.609	9.310	0.456	8.116
274.569	9.325	0.485	8.114
274.529	9.345	0.506	8.184
274.492	9.369	0.519	8.330
274.455	9.395	0.528	8.497
274.418	9.420	0.535	8.636
274.381	9.447	0.540	8.792
274.346	9.473	0.541	8.929
274.310	9.499	0.537	9.038
274.274	9.526	0.529	9.141
274.240	9.553	0.524	9.239
274.206	9.582	0.530	9.346
274.173	9.611	0.552	9.438
274.142	9.642	0.585	9.559
274.111	9.674	0.620	9.672
274.081	9.706	0.648	9.775
274.050	9.739	0.665	9.857
274.020	9.772	0.672	9.932
273.990	9.805	0.670	9.987
273.960	9.839	0.661	10.039
273.930	9.873	0.649	10.075
273.901	9.908	0.634	10.127
273.871	9.942	0.616	10.137
273.843	9.977	0.593	10.182
273.815	10.013	0.559	10.232
273.787	10.049	0.513	10.274
273.760	10.085	0.456	10.325
273.734	10.122	0.389	10.399
273.708	10.158	0.319	10.453
273.681	10.194	0.253	10.484
273.653	10.230	0.194	10.492
273.625	10.265	0.144	10.482
273.596	10.300	0.101	10.452
273.566	10.334	0.064	10.393
273.536	10.367	0.031	10.323
274.962	9.235	0.064	9.264
274.925	9.259	0.127	9.414
274.888	9.282	0.191	9.557
274.849	9.298	0.256	9.555
274.810	9.311	0.323	9.503
274.770	9.320	0.388	9.373
274.728	9.327	0.453	9.197
274.688	9.338	0.512	9.118
274.647	9.351	0.561	9.070
274.607	9.367	0.599	9.082
274.568	9.386	0.624	9.149
274.530	9.410	0.639	9.307
274.493	9.437	0.648	9.516
274.457	9.463	0.657	9.700
274.421	9.490	0.666	9.885
274.386	9.516	0.672	10.041
274.351	9.542	0.669	10.173
274.315	9.569	0.658	10.289
274.281	9.597	0.646	10.417
274.248	9.626	0.646	10.548
274.216	9.656	0.668	10.681
274.185	9.686	0.704	10.801
274.155	9.718	0.740	10.943
274.125	9.750	0.764	11.060
274.095	9.783	0.773	11.171
274.064	9.816	0.772	11.243
274.034	9.850	0.766	11.325
274.004	9.884	0.754	11.388
273.975	9.918	0.739	11.451
273.945	9.952	0.725	11.482
273.916	9.987	0.711	11.533
273.888	10.022	0.690	11.590
273.860	10.058	0.655	11.653
273.832	10.094	0.600	11.705
273.805	10.130	0.527	11.767
273.779	10.167	0.443	11.854
273.753	10.203	0.356	11.917
273.726	10.239	0.277	11.952
273.699	10.275	0.210	11.979
273.670	10.311	0.154	11.961
273.642	10.346	0.108	11.944
273.613	10.380	0.067	11.891
273.583	10.413	0.032	11.807
274.995	9.270	0.063	10.304
274.959	9.293	0.128	10.446
274.922	9.317	0.198	10.616
274.884	9.335	0.274	10.654
274.845	9.349	0.353	10.605
274.805	9.358	0.434	10.447
274.765	9.366	0.515	10.278
274.724	9.378	0.591	10.194
274.685	9.392	0.655	10.170
274.645	9.409	0.702	10.200
274.607	9.430	0.730	10.323
274.570	9.454	0.742	10.509
274.533	9.482	0.746	10.767
274.498	9.509	0.754	11.006
274.462	9.535	0.769	11.193
274.427	9.560	0.784	11.346
274.392	9.586	0.785	11.494
274.357	9.614	0.763	11.655
274.323	9.642	0.730	11.797
274.291	9.671	0.708	11.957
274.260	9.701	0.717	12.120
274.230	9.731	0.746	12.270
274.200	9.763	0.773	12.431
274.170	9.795	0.779	12.565
274.139	9.828	0.769	12.674
274.109	9.861	0.756	12.776
274.079	9.895	0.749	12.873
274.050	9.928	0.740	12.949
274.020	9.963	0.727	13.026
273.991	9.997	0.722	13.086
273.962	10.032	0.726	13.151
273.933	10.067	0.725	13.202
273.905	10.103	0.698	13.278
273.878	10.139	0.638	13.364
273.851	10.176	0.552	13.455
273.825	10.213	0.453	13.557
273.799	10.249	0.357	13.630
273.772	10.286	0.273	13.688
273.745	10.322	0.205	13.719
273.717	10.358	0.150	13.719
273.688	10.392	0.103	13.658
273.659	10.426	0.062	13.597
273.629	10.459	0.028	13.500
275.027	9.305	0.055	11.479
274.992	9.329	0.117	11.658
274.956	9.353	0.187	11.843
274.919	9.373	0.267	11.932
274.881	9.388	0.357	11.897
274.842	9.397	0.454	11.715
274.801	9.406	0.552	11.526
274.762	9.419	0.647	11.465
274.722	9.434	0.728	11.445
274.684	9.452	0.786	11.514
274.646	9.474	0.816	11.672
274.610	9.499	0.818	11.913
274.573	9.526	0.807	12.177
274.538	9.553	0.806	12.443
274.504	9.579	0.828	12.675
274.469	9.604	0.861	12.844
274.434	9.632	0.868	13.055
274.399	9.660	0.822	13.233
274.366	9.689	0.736	13.427
274.334	9.717	0.658	13.580
274.304	9.745	0.620	13.733
274.274	9.776	0.621	13.923
274.244	9.807	0.632	14.082
274.214	9.839	0.607	14.232
274.184	9.872	0.565	14.376
274.154	9.906	0.539	14.514
274.124	9.939	0.548	14.606
274.095	9.973	0.554	14.718
274.065	10.007	0.546	14.790
274.036	10.042	0.560	14.885
274.007	10.077	0.608	14.964
273.978	10.113	0.654	15.048
273.951	10.149	0.653	15.163
273.923	10.186	0.597	15.262
273.897	10.223	0.506	15.393
273.871	10.260	0.404	15.511
273.846	10.296	0.312	15.621
273.819	10.333	0.236	15.689
273.792	10.368	0.177	15.705
273.764	10.402	0.128	15.668
273.735	10.438	0.083	15.640
273.706	10.472	0.048	15.573
273.676	10.506	0.021	15.484
275.060	9.341	0.040	12.855
275.026	9.366	0.091	13.076
274.991	9.391	0.154	13.303
274.954	9.410	0.232	13.354
274.917	9.426	0.327	13.337
274.878	9.439	0.436	13.227
274.839	9.448	0.553	13.021
274.799	9.460	0.668	12.899
274.760	9.475	0.769	12.877
274.722	9.493	0.842	12.945
274.685	9.518	0.871	13.208
274.650	9.544	0.854	13.510
274.615	9.569	0.810	13.771
274.579	9.595	0.783	14.025
274.544	9.621	0.812	14.266
274.509	9.648	0.876	14.504
274.474	9.677	0.899	14.761
274.441	9.706	0.805	15.011
274.409	9.733	0.608	15.189
274.378	9.761	0.416	15.375
274.347	9.790	0.288	15.551
274.318	9.820	0.254	15.755
274.288	9.851	0.323	15.932
274.259	9.884	0.323	16.146
274.229	9.917	0.211	16.308
274.199	9.950	0.139	16.442
274.169	9.984	0.185	16.573
274.140	10.018	0.217	16.704
274.111	10.053	0.189	16.837
274.082	10.087	0.213	16.928
274.052	10.123	0.318	17.022
274.023	10.158	0.431	17.100
273.995	10.194	0.470	17.209
273.968	10.232	0.438	17.374
273.942	10.269	0.368	17.526
273.917	10.305	0.290	17.668
273.891	10.341	0.220	17.768
273.865	10.377	0.164	17.855
273.839	10.413	0.122	17.930
273.812	10.449	0.087	17.968
273.782	10.485	0.053	17.915
273.752	10.518	0.033	17.794
273.722	10.551	0.016	17.680
275.092	9.377	0.020	14.395
275.059	9.402	0.054	14.634
275.024	9.426	0.104	14.830
274.988	9.447	0.172	14.939
274.952	9.464	0.262	14.944
274.915	9.478	0.377	14.859
274.877	9.489	0.509	14.684
274.837	9.501	0.646	14.530
274.798	9.516	0.769	14.490
274.761	9.536	0.858	14.626
274.725	9.561	0.883	14.920
274.690	9.586	0.833	15.218
274.656	9.612	0.732	15.543
274.621	9.638	0.655	15.833
274.586	9.665	0.673	16.124
274.550	9.693	0.769	16.397
274.515	9.722	0.828	16.675
274.482	9.750	0.683	16.917
274.451	9.777	0.337	17.128
274.421	9.805	0.042	17.349
274.391	9.834	0.074	17.562
274.362	9.864	0.108	17.787
274.333	9.896	0.110	18.033
274.303	9.928	0.013	18.222
274.273	9.961	0.170	18.404
274.243	9.994	0.243	18.556
274.214	10.028	0.160	18.732
274.184	10.062	0.138	18.857
274.154	10.096	0.221	18.959
274.125	10.131	0.232	19.093
274.096	10.166	0.120	19.206
274.067	10.202	0.022	19.326
274.039	10.238	0.115	19.456
274.010	10.276	0.159	19.588
273.984	10.313	0.161	19.764
273.961	10.350	0.138	20.012
273.936	10.386	0.106	20.163
273.909	10.421	0.078	20.212
273.881	10.456	0.062	20.217
273.852	10.492	0.050	20.206
273.824	10.527	0.036	20.198
273.796	10.562	0.028	20.192
273.767	10.597	0.017	20.161
275.123	9.410	0.002	16.004
275.090	9.436	0.010	16.274
275.056	9.461	0.041	16.516
275.021	9.482	0.093	16.626
274.986	9.500	0.170	16.654
274.950	9.514	0.281	16.552
274.913	9.527	0.427	16.420
274.874	9.540	0.583	16.276
274.837	9.554	0.720	16.206
274.800	9.576	0.816	16.406
274.763	9.600	0.827	16.668
274.727	9.625	0.738	16.967
274.693	9.652	0.572	17.346
274.660	9.680	0.417	17.750
274.625	9.707	0.373	18.061
274.591	9.736	0.449	18.418
274.556	9.765	0.531	18.716
274.523	9.794	0.392	19.008
274.493	9.822	0.005	19.286
274.463	9.849	0.262	19.494
274.434	9.879	0.289	19.778
274.406	9.909	0.155	20.047
274.377	9.941	0.250	20.317
274.348	9.973	0.464	20.552
274.318	10.005	0.604	20.728
274.288	10.038	0.588	20.901
274.258	10.071	0.453	21.045
274.227	10.105	0.402	21.163
274.197	10.139	0.496	21.284
274.167	10.174	0.589	21.410
274.138	10.210	0.560	21.572
274.110	10.245	0.425	21.715
274.082	10.281	0.250	21.868
274.054	10.318	0.097	22.028
274.027	10.355	0.001	22.200
274.002	10.391	0.035	22.391
273.976	10.425	0.033	22.479
273.948	10.459	0.029	22.484
273.918	10.493	0.034	22.408
273.888	10.531	0.040	22.433
273.861	10.567	0.040	22.503
273.833	10.604	0.037	22.571
273.810	10.641	0.026	22.828
275.153	9.441	0.022	17.691
275.120	9.468	0.030	17.994
275.088	9.495	0.020	18.342
275.055	9.516	0.010	18.470
275.020	9.535	0.065	18.508
274.985	9.550	0.160	18.421
274.947	9.563	0.311	18.232
274.908	9.579	0.486	18.158
274.871	9.595	0.625	18.132
274.836	9.614	0.706	18.252
274.799	9.636	0.686	18.447
274.763	9.662	0.564	18.791
274.728	9.692	0.369	19.276
274.696	9.722	0.159	19.788
274.664	9.750	0.039	20.202
274.630	9.780	0.020	20.614
274.597	9.809	0.050	20.968
274.565	9.838	0.029	21.299
274.534	9.866	0.597	21.574
274.505	9.894	1.290	21.854
274.477	9.923	1.808	22.151
274.449	9.954	1.922	22.476
274.421	9.986	1.599	22.796
274.391	10.019	1.269	23.061
274.362	10.050	1.191	23.253
274.332	10.082	1.093	23.418
274.302	10.114	1.027	23.553
274.271	10.147	0.989	23.662
274.240	10.182	0.942	23.807
274.211	10.218	0.883	24.018
274.182	10.253	0.782	24.178
274.153	10.288	0.588	24.316
274.124	10.323	0.337	24.433
274.096	10.359	0.132	24.592
274.069	10.394	0.012	24.734
274.041	10.427	0.033	24.762
274.012	10.460	0.043	24.736
273.983	10.495	0.042	24.753
273.953	10.531	0.049	24.749
273.925	10.570	0.057	24.902
273.897	10.608	0.058	25.026
273.872	10.645	0.057	25.241
273.853	10.683	0.038	25.740
275.183	9.472	0.034	19.538
275.150	9.499	0.055	19.835
275.119	9.527	0.063	20.243
275.088	9.550	0.054	20.472
275.056	9.570	0.024	20.582
275.022	9.586	0.041	20.514
274.984	9.602	0.170	20.390
274.943	9.619	0.364	20.275
274.905	9.635	0.499	20.200
274.869	9.654	0.578	20.287
274.834	9.675	0.578	20.470
274.798	9.701	0.492	20.818
274.763	9.731	0.370	21.320
274.731	9.762	0.248	21.890
274.700	9.791	0.248	22.376
274.669	9.821	0.363	22.865
274.636	9.851	0.570	23.273
274.604	9.879	1.039	23.585
274.573	9.907	1.871	23.876
274.544	9.936	2.770	24.208
274.517	9.967	3.408	24.620
274.491	9.998	3.632	25.022
274.462	10.032	3.472	25.411
274.433	10.064	3.158	25.694
274.403	10.095	2.803	25.880
274.374	10.126	2.497	26.064
274.344	10.157	2.281	26.189
274.313	10.190	2.056	26.321
274.282	10.223	1.739	26.426
274.252	10.257	1.355	26.571
274.222	10.291	0.939	26.693
274.192	10.325	0.539	26.792
274.162	10.360	0.219	26.901
274.134	10.394	0.054	27.024
274.105	10.427	0.097	27.058
274.076	10.460	0.111	27.070
274.047	10.495	0.101	27.127
274.017	10.531	0.091	27.161
273.989	10.570	0.087	27.360
273.962	10.608	0.082	27.562
273.936	10.646	0.076	27.808
273.913	10.683	0.066	28.157
273.891	10.720	0.037	28.571
275.214	9.503	0.032	21.574
275.181	9.531	0.056	21.903
275.149	9.559	0.070	22.280
275.120	9.584	0.073	22.628
275.090	9.605	0.064	22.800
275.059	9.624	0.034	22.885
275.022	9.642	0.078	22.814
274.979	9.660	0.289	22.644
274.939	9.677	0.472	22.525
274.902	9.695	0.637	22.526
274.868	9.716	0.759	22.712
274.834	9.741	0.807	23.056
274.798	9.769	0.807	23.467
274.766	9.799	0.796	24.014
274.735	9.829	0.821	24.553
274.704	9.859	0.992	25.057
274.672	9.889	1.376	25.501
274.640	9.918	1.947	25.862
274.610	9.946	2.635	26.191
274.584	9.977	3.310	26.692
274.558	10.009	3.808	27.195
274.530	10.042	4.017	27.644
274.501	10.076	3.882	28.063
274.471	10.109	3.487	28.379
274.441	10.140	3.045	28.587
274.411	10.169	2.717	28.691
274.382	10.199	2.442	28.835
274.351	10.229	2.104	28.886
274.320	10.261	1.660	28.982
274.289	10.293	1.158	29.052
274.257	10.326	0.677	29.096
274.227	10.360	0.303	29.221
274.198	10.394	0.141	29.359
274.169	10.428	0.180	29.475
274.140	10.462	0.197	29.568
274.112	10.497	0.179	29.715
274.083	10.531	0.150	29.768
274.054	10.567	0.130	29.876
274.026	10.606	0.111	30.123
273.999	10.641	0.094	30.264
273.971	10.678	0.080	30.439
273.946	10.715	0.062	30.758
273.922	10.752	0.033	31.142
275.245	9.536	0.019	23.868
275.212	9.563	0.033	24.138
275.180	9.591	0.040	24.504
275.149	9.615	0.038	24.738
275.120	9.638	0.037	25.004
275.089	9.658	0.062	25.102
275.055	9.676	0.158	25.059
275.015	9.696	0.349	24.989
274.975	9.715	0.601	24.904
274.937	9.735	0.873	24.930
274.902	9.756	1.101	25.073
274.868	9.781	1.226	25.406
274.834	9.808	1.243	25.811
274.801	9.836	1.208	26.261
274.769	9.866	1.196	26.787
274.738	9.897	1.271	27.343
274.707	9.927	1.498	27.820
274.676	9.957	1.856	28.256
274.649	9.987	2.260	28.754
274.627	10.020	2.609	29.468
274.602	10.054	2.826	30.111
274.575	10.089	2.889	30.702
274.545	10.125	2.705	31.208
274.512	10.156	2.258	31.389
274.481	10.184	1.898	31.480
274.451	10.213	1.693	31.610
274.420	10.242	1.543	31.677
274.389	10.270	1.308	31.679
274.359	10.300	0.979	31.764
274.328	10.332	0.622	31.864
274.297	10.365	0.315	31.976
274.267	10.399	0.168	32.139
274.237	10.433	0.184	32.277
274.208	10.466	0.206	32.393
274.179	10.501	0.201	32.564
274.150	10.535	0.177	32.674
274.122	10.569	0.148	32.809
274.092	10.604	0.127	32.881
274.063	10.640	0.106	33.023
274.034	10.676	0.089	33.162
274.006	10.714	0.075	33.432
273.982	10.751	0.057	33.861
273.958	10.788	0.031	34.315
275.276	9.569	0.002	26.337
275.244	9.596	0.002	26.618
275.212	9.624	0.006	26.965
275.180	9.648	0.019	27.144
275.150	9.671	0.042	27.357
275.120	9.691	0.082	27.449
275.087	9.709	0.174	27.387
275.050	9.731	0.341	27.433
275.012	9.753	0.602	27.480
274.974	9.775	0.921	27.549
274.938	9.799	1.187	27.768
274.903	9.823	1.320	28.012
274.871	9.850	1.319	28.451
274.838	9.879	1.233	28.936
274.807	9.908	1.143	29.445
274.777	9.939	1.085	30.033
274.745	9.969	1.093	30.494
274.713	9.998	1.204	30.874
274.688	10.029	1.352	31.486
274.667	10.062	1.463	32.264
274.642	10.097	1.548	32.986
274.617	10.134	1.598	33.762
274.589	10.170	1.492	34.377
274.556	10.200	1.111	34.551
274.522	10.226	0.789	34.491
274.491	10.254	0.599	34.580
274.461	10.283	0.534	34.715
274.429	10.311	0.481	34.711
274.398	10.340	0.345	34.754
274.367	10.372	0.190	34.893
274.337	10.405	0.100	35.086
274.306	10.437	0.088	35.173
274.276	10.470	0.098	35.316
274.246	10.504	0.110	35.475
274.217	10.538	0.114	35.654
274.189	10.572	0.109	35.856
274.160	10.608	0.101	36.081
274.132	10.644	0.095	36.339
274.104	10.680	0.085	36.591
274.074	10.716	0.076	36.744
274.047	10.753	0.066	37.092
274.022	10.790	0.049	37.555
273.997	10.826	0.026	37.993
275.306	9.602	0.011	28.943
275.274	9.629	0.024	29.203
275.243	9.657	0.042	29.562
275.212	9.684	0.064	29.889
275.183	9.707	0.083	30.101
275.152	9.726	0.092	30.072
275.119	9.746	0.108	30.058
275.084	9.768	0.196	30.108
275.050	9.793	0.399	30.356
275.012	9.819	0.697	30.559
274.975	9.845	0.939	30.802
274.939	9.870	1.029	31.029
274.908	9.896	0.990	31.428
274.877	9.923	0.877	31.859
274.846	9.952	0.743	32.361
274.816	9.983	0.605	32.954
274.783	10.013	0.504	33.390
274.750	10.040	0.552	33.660
274.723	10.069	0.659	34.153
274.699	10.100	0.754	34.791
274.675	10.132	0.825	35.448
274.652	10.168	0.854	36.289
274.626	10.204	0.793	37.015
274.595	10.236	0.585	37.377
274.562	10.265	0.331	37.509
274.529	10.291	0.126	37.474
274.499	10.319	0.062	37.606
274.467	10.348	0.089	37.679
274.436	10.378	0.055	37.804
274.405	10.410	0.001	37.991
274.375	10.443	0.045	38.235
274.345	10.476	0.063	38.455
274.315	10.510	0.054	38.695
274.286	10.544	0.032	38.955
274.257	10.578	0.007	39.193
274.229	10.613	0.016	39.504
274.201	10.649	0.035	39.847
274.174	10.686	0.047	40.278
274.146	10.721	0.051	40.560
274.117	10.755	0.052	40.737
274.088	10.791	0.047	41.014
274.061	10.826	0.035	41.355
274.034	10.862	0.018	41.761
275.336	9.636	0.016	31.766
275.306	9.664	0.031	32.125
275.275	9.692	0.051	32.460
275.245	9.719	0.070	32.793
275.215	9.742	0.081	32.935
275.183	9.762	0.072	32.875
275.150	9.782	0.031	32.809
275.116	9.805	0.085	32.889
275.083	9.830	0.264	33.123
275.049	9.859	0.492	33.542
275.011	9.886	0.662	33.757
274.975	9.909	0.719	33.844
274.942	9.934	0.681	34.115
274.911	9.962	0.582	34.576
274.879	9.990	0.462	34.993
274.848	10.020	0.336	35.511
274.816	10.049	0.223	35.929
274.784	10.077	0.219	36.273
274.756	10.106	0.287	36.753
274.731	10.136	0.347	37.342
274.708	10.167	0.376	38.021
274.684	10.200	0.363	38.742
274.658	10.234	0.303	39.427
274.631	10.266	0.203	39.969
274.599	10.297	0.108	40.265
274.567	10.325	0.032	40.392
274.536	10.355	0.008	40.622
274.505	10.385	0.004	40.824
274.474	10.416	0.055	41.046
274.444	10.448	0.116	41.330
274.414	10.482	0.167	41.686
274.384	10.516	0.191	42.018
274.355	10.550	0.184	42.370
274.325	10.584	0.154	42.653
274.297	10.618	0.112	43.009
274.269	10.654	0.067	43.448
274.242	10.690	0.026	43.926
274.214	10.725	0.002	44.293
274.184	10.758	0.019	44.438
274.155	10.792	0.029	44.681
274.125	10.826	0.031	44.867
274.095	10.859	0.026	44.997
274.067	10.894	0.015	45.356
275.366	9.669	0.010	34.697
275.336	9.697	0.019	35.038
275.306	9.725	0.032	35.386
275.277	9.753	0.042	35.784
275.247	9.777	0.040	35.939
275.214	9.799	0.015	35.895
275.180	9.819	0.043	35.736
275.147	9.841	0.136	35.746
275.114	9.865	0.278	35.883
275.081	9.894	0.443	36.296
275.044	9.920	0.554	36.440
275.009	9.945	0.581	36.612
274.977	9.971	0.531	36.928
274.945	10.000	0.429	37.388
274.913	10.029	0.310	37.838
274.881	10.057	0.190	38.224
274.848	10.086	0.081	38.608
274.817	10.114	0.086	38.985
274.789	10.142	0.157	39.432
274.764	10.172	0.194	40.052
274.741	10.203	0.196	40.769
274.718	10.235	0.168	41.526
274.692	10.267	0.121	42.169
274.664	10.298	0.082	42.677
274.633	10.329	0.084	43.055
274.603	10.359	0.078	43.400
274.572	10.390	0.048	43.731
274.542	10.421	0.008	44.079
274.511	10.453	0.079	44.412
274.482	10.486	0.150	44.858
274.452	10.520	0.207	45.290
274.423	10.554	0.258	45.744
274.394	10.588	0.262	46.175
274.365	10.623	0.229	46.637
274.338	10.658	0.174	47.182
274.311	10.695	0.113	47.825
274.281	10.731	0.061	48.239
274.251	10.764	0.022	48.464
274.221	10.796	0.003	48.615
274.192	10.829	0.019	48.871
274.162	10.863	0.027	49.122
274.131	10.895	0.026	49.188
274.101	10.928	0.016	49.370
275.393	9.699	0.000	37.492
275.363	9.726	0.002	37.758
275.334	9.755	0.007	38.183
275.304	9.782	0.007	38.461
275.275	9.808	0.006	38.734
275.244	9.832	0.038	38.830
275.211	9.854	0.095	38.758
275.176	9.875	0.178	38.583
275.142	9.898	0.288	38.582
275.110	9.926	0.405	38.941
275.075	9.953	0.485	39.157
275.042	9.980	0.500	39.453
275.010	10.008	0.446	39.842
274.978	10.038	0.330	40.330
274.946	10.067	0.178	40.764
274.915	10.095	0.060	41.170
274.882	10.124	0.025	41.549
274.850	10.151	0.121	41.846
274.822	10.179	0.194	42.309
274.797	10.208	0.238	42.913
274.775	10.239	0.258	43.712
274.751	10.270	0.260	44.438
274.725	10.302	0.248	45.136
274.697	10.333	0.229	45.698
274.668	10.364	0.199	46.210
274.638	10.394	0.157	46.609
274.608	10.426	0.098	47.099
274.578	10.458	0.025	47.569
274.548	10.490	0.149	48.017
274.518	10.522	0.222	48.442
274.489	10.556	0.267	49.002
274.460	10.590	0.303	49.540
274.432	10.625	0.298	50.165
274.405	10.660	0.261	50.824
274.378	10.697	0.200	51.588
274.350	10.735	0.130	52.346
274.317	10.770	0.071	52.613
274.286	10.800	0.033	52.659
274.257	10.831	0.015	52.867
274.229	10.865	0.019	53.316
274.201	10.901	0.027	53.891
274.168	10.933	0.027	53.880
274.135	10.962	0.018	53.658
275.419	9.726	0.007	40.200
275.389	9.754	0.010	40.507
275.360	9.784	0.011	40.976
275.330	9.812	0.017	41.286
275.301	9.838	0.032	41.531
275.271	9.862	0.061	41.630
275.239	9.885	0.107	41.604
275.204	9.907	0.171	41.425
275.170	9.930	0.250	41.371
275.138	9.956	0.329	41.583
275.106	9.985	0.386	41.976
275.073	10.014	0.398	42.343
275.041	10.043	0.350	42.755
275.009	10.073	0.228	43.227
274.976	10.102	0.008	43.609
274.946	10.130	0.015	44.041
274.914	10.159	0.073	44.452
274.883	10.187	0.145	44.835
274.855	10.215	0.206	45.320
274.830	10.245	0.247	46.012
274.808	10.275	0.272	46.816
274.784	10.306	0.280	47.600
274.760	10.338	0.272	48.442
274.732	10.368	0.252	49.011
274.702	10.399	0.217	49.545
274.672	10.430	0.171	50.064
274.643	10.461	0.115	50.613
274.613	10.494	0.127	51.219
274.584	10.526	0.201	51.792
274.554	10.558	0.248	52.296
274.525	10.592	0.270	52.947
274.496	10.625	0.277	53.513
274.469	10.659	0.264	54.225
274.443	10.696	0.229	55.169
274.415	10.735	0.172	56.120
274.382	10.771	0.108	56.553
274.349	10.802	0.059	56.617
274.318	10.831	0.031	56.639
274.288	10.862	0.019	56.837
274.260	10.896	0.020	57.354
274.230	10.931	0.026	57.800
274.197	10.962	0.027	57.753
274.165	10.991	0.018	57.614
275.445	9.752	0.008	42.974
275.415	9.782	0.012	43.389
275.385	9.812	0.015	43.799
275.355	9.841	0.020	44.148
275.326	9.867	0.030	44.367
275.296	9.891	0.047	44.430
275.265	9.914	0.075	44.404
275.231	9.937	0.111	44.267
275.197	9.960	0.154	44.159
275.165	9.987	0.197	44.389
275.134	10.017	0.230	44.849
275.102	10.048	0.239	45.338
275.070	10.077	0.211	45.726
275.038	10.107	0.138	46.180
275.006	10.136	0.023	46.584
274.974	10.164	0.034	46.937
274.943	10.191	0.064	47.271
274.914	10.220	0.103	47.796
274.887	10.249	0.138	48.396
274.862	10.280	0.165	49.191
274.839	10.311	0.180	50.073
274.816	10.342	0.185	50.965
274.792	10.372	0.181	51.763
274.766	10.403	0.168	52.542
274.737	10.435	0.148	53.249
274.707	10.467	0.118	53.907
274.676	10.498	0.083	54.437
274.648	10.529	0.105	55.097
274.619	10.561	0.144	55.756
274.589	10.594	0.165	56.408
274.558	10.627	0.168	56.979
274.529	10.658	0.166	57.491
274.503	10.692	0.156	58.353
274.477	10.730	0.132	59.482
274.447	10.769	0.094	60.424
274.412	10.802	0.056	60.586
274.379	10.832	0.030	60.618
274.346	10.861	0.016	60.545
274.315	10.891	0.014	60.649
274.286	10.923	0.016	61.013
274.254	10.955	0.019	61.154
274.222	10.986	0.019	61.199
274.191	11.018	0.013	61.369
