199.549	53.907	0.087	14.099
203.832	54.359	0.293	7.741
201.810	53.964	0.207	8.399
201.645	54.061	0.171	9.186
201.315	54.378	0.330	14.129
199.820	53.945	0.076	13.908
199.709	53.875	0.080	13.048
199.746	53.784	0.112	11.507
203.335	54.252	0.221	8.263
202.826	54.147	0.122	8.377
202.803	54.302	0.235	9.214
202.319	54.054	0.190	8.467
202.574	54.102	0.213	8.459
202.438	54.117	0.201	8.343
202.693	54.163	0.241	8.309
202.683	54.244	0.325	8.963
201.585	54.246	0.436	11.390
202.500	54.740	0.146	14.422
202.624	54.580	0.466	12.201
202.660	54.746	0.205	13.827
202.660	54.424	0.103	10.563
202.786	54.380	0.072	9.893
202.694	54.511	0.295	11.308
202.267	54.653	0.178	14.430
202.379	54.509	0.173	12.241
202.040	54.569	0.299	14.320
202.178	54.444	0.098	12.168
201.050	54.307	0.273	14.072
203.466	54.324	0.310	8.181
201.507	54.078	0.203	9.621
201.475	54.183	0.235	10.880
202.407	54.658	0.101	13.864
202.467	54.576	0.239	12.684
203.468	54.411	0.285	8.783
202.724	54.667	0.413	12.778
202.181	54.572	0.139	13.759
202.233	54.510	0.012	12.772
202.887	54.436	0.118	10.168
202.841	54.514	0.136	10.968
202.749	54.830	0.191	14.378
201.421	53.929	0.069	8.372
201.311	53.866	0.072	8.401
201.544	54.442	0.282	14.331
201.582	54.319	0.225	12.374
201.477	54.375	0.190	13.516
203.593	54.307	0.356	7.910
203.711	54.380	0.294	8.063
201.234	54.304	0.349	13.273
201.314	54.206	0.326	11.616
200.812	54.231	0.165	14.058
201.049	54.140	0.232	11.644
200.975	54.228	0.306	13.192
201.560	53.913	0.090	8.361
201.670	53.976	0.206	8.350
201.932	54.024	0.195	8.365
201.831	54.283	0.434	11.229
202.063	54.332	0.395	11.197
203.204	54.265	0.211	8.252
203.331	54.416	0.164	9.104
203.030	54.424	0.218	9.774
202.535	54.373	0.202	10.381
202.405	54.417	0.446	11.160
203.059	54.349	0.272	9.126
203.197	54.343	0.164	8.831
202.072	54.009	0.243	8.450
201.980	54.267	0.468	10.672
201.738	54.206	0.281	10.537
201.766	54.126	0.084	9.610
201.914	54.102	0.108	9.112
203.079	54.198	0.156	8.346
202.946	54.210	0.186	8.280
202.932	54.284	0.221	8.857
201.808	54.487	0.487	14.066
201.716	54.422	0.262	13.431
202.049	54.419	0.120	12.288
201.964	54.482	0.205	13.413
201.737	54.347	0.207	12.309
203.580	54.486	0.232	9.068
203.697	54.472	0.331	8.702
202.273	54.381	0.342	11.154
202.225	54.304	0.240	10.465
202.542	54.272	0.241	9.450
202.416	54.205	0.218	9.120
202.277	54.220	0.186	9.524
201.394	54.009	0.287	9.169
201.253	54.029	0.180	9.696
201.205	54.121	0.385	10.869
203.553	54.577	0.244	9.819
202.189	54.068	0.178	8.345
202.169	54.147	0.090	9.074
202.035	54.166	0.051	9.499
202.873	54.657	0.242	12.237
202.920	54.573	0.107	11.321
202.986	54.713	0.307	12.460
202.997	54.793	0.300	13.188
203.151	54.508	0.278	10.215
203.314	54.506	0.310	9.833
203.232	54.810	0.112	12.683
203.120	54.840	0.232	13.276
202.967	54.929	0.225	14.599
203.098	54.921	0.232	14.102
202.896	54.846	0.274	14.018
203.133	54.666	0.108	11.639
203.087	54.580	0.112	10.983
203.423	54.592	0.314	10.269
203.255	54.716	0.164	11.771
203.388	54.689	0.310	11.180
199.929	53.657	0.116	9.409
200.071	53.633	0.074	9.025
199.908	53.741	0.166	10.497
200.694	53.778	0.041	8.844
200.455	53.730	0.040	9.041
200.575	53.723	0.047	9.016
200.816	53.770	0.074	8.787
200.326	53.679	0.055	9.009
200.680	53.843	0.031	9.555
201.141	53.963	0.101	9.327
200.928	53.829	0.058	8.646
201.172	53.881	0.053	8.483
201.060	53.817	0.061	8.550
200.343	54.077	0.171	14.120
200.273	53.997	0.056	13.115
200.031	53.768	0.046	10.545
200.460	53.792	0.037	9.690
200.519	53.922	0.018	11.035
200.566	53.849	0.018	9.992
200.982	54.069	0.093	10.997
201.025	53.984	0.102	9.879
200.895	53.887	0.041	9.308
200.769	53.893	0.041	9.778
200.939	53.946	0.068	9.758
200.845	54.071	0.062	11.578
200.334	53.834	0.069	10.558
200.370	53.922	0.018	11.602
200.734	53.965	0.086	10.716
200.828	53.999	0.064	10.749
200.001	53.923	0.052	12.919
200.098	54.004	0.023	13.943
200.226	53.810	0.048	10.571
200.075	53.843	0.057	11.452
200.587	54.144	0.145	13.929
200.750	54.144	0.086	13.049
200.598	53.988	0.094	11.575
200.519	54.068	0.172	13.095
200.201	53.684	0.058	9.287
200.182	53.735	0.049	9.755
199.046	54.260	0.122	23.774
202.920	55.007	0.270	15.548
199.223	54.146	0.094	20.249
200.011	54.103	0.041	16.161
199.860	54.126	0.016	17.296
202.581	55.257	0.246	20.473
199.309	54.301	0.127	23.781
199.195	54.236	0.097	22.573
199.520	54.001	0.053	16.001
199.381	54.027	0.073	17.009
200.474	54.227	0.106	16.030
199.555	54.348	0.180	23.904
199.445	54.281	0.130	22.694
199.765	54.048	0.044	16.070
199.626	54.073	0.054	17.116
200.951	54.391	0.312	15.988
200.315	54.226	0.102	17.003
200.531	54.299	0.069	16.993
200.253	54.152	0.145	15.932
200.096	54.171	0.099	17.128
200.706	54.303	0.153	15.897
202.723	55.151	0.278	18.080
202.579	55.195	0.229	19.617
199.472	54.191	0.082	20.377
199.364	54.121	0.068	19.150
199.596	54.170	0.072	19.383
200.757	54.555	0.565	20.483
202.413	55.287	0.225	22.482
202.394	55.349	0.392	23.728
200.770	54.385	0.106	16.972
200.673	54.463	0.126	19.182
199.675	54.321	0.153	22.650
199.689	54.233	0.069	20.452
199.814	54.214	0.064	19.437
200.063	54.263	0.106	19.261
199.932	54.283	0.142	20.431
200.057	54.455	0.429	23.773
200.201	54.294	0.093	19.111
200.780	54.710	0.529	23.873
199.794	54.390	0.210	23.764
199.927	54.371	0.357	22.546
201.520	54.917	1.110	23.912
200.263	54.372	0.218	20.391
200.201	54.452	0.440	22.667
202.047	54.955	0.315	20.438
200.311	54.541	0.257	23.890
200.512	54.459	0.082	20.359
200.433	54.376	0.033	19.226
202.028	54.854	0.417	18.817
201.877	54.804	0.051	18.976
201.445	54.857	0.766	23.006
201.603	54.764	0.046	19.927
202.457	54.814	0.161	15.516
202.326	54.930	0.106	17.845
202.330	54.835	0.244	16.504
201.479	54.787	0.387	21.174
201.361	54.747	0.290	20.983
202.012	54.655	0.429	15.708
202.170	54.709	0.328	15.674
202.195	54.791	0.555	16.711
201.288	54.858	0.688	24.081
200.543	54.625	0.143	23.835
200.452	54.544	0.299	22.746
200.688	54.631	0.239	22.731
201.733	54.836	0.102	20.571
201.685	54.920	0.643	22.719
201.766	54.998	0.273	23.781
201.923	55.018	0.107	22.757
200.918	54.707	0.702	22.778
201.981	55.106	0.044	23.964
201.623	54.689	0.182	18.321
202.182	55.220	0.118	23.894
202.323	55.237	0.161	22.605
201.251	54.474	0.612	16.019
201.724	54.565	0.371	15.628
201.133	54.757	0.541	22.577
201.012	54.776	0.613	23.827
201.244	54.794	0.524	22.784
202.210	54.986	0.215	19.585
202.135	55.135	0.120	22.861
202.399	55.106	0.123	19.814
202.239	55.079	0.180	20.836
202.435	55.180	0.141	20.596
201.174	54.671	0.578	20.345
201.315	54.674	0.343	19.639
202.674	54.909	0.278	15.545
200.992	54.476	0.712	17.333
201.100	54.619	0.540	19.629
201.127	54.515	0.675	17.366
202.542	54.898	0.149	16.081
202.463	54.962	0.149	17.347
200.965	54.635	0.584	20.794
200.896	54.561	0.581	19.633
202.774	55.003	0.333	16.117
202.507	55.046	0.133	18.147
202.687	55.076	0.474	17.389
201.886	54.686	0.481	16.859
201.762	54.643	0.345	16.769
201.367	54.537	0.463	16.664
201.396	54.624	0.549	18.196
201.498	54.508	0.365	15.598
201.587	54.566	0.237	16.236
201.531	54.633	0.240	17.716
198.576	54.662	0.197	38.516
199.016	54.363	0.174	26.681
198.896	54.385	0.127	27.820
202.257	55.384	0.186	26.019
202.259	55.462	0.335	27.503
199.091	54.749	0.178	38.259
200.521	55.146	1.511	38.504
201.894	55.694	0.476	38.178
198.827	54.453	0.174	30.130
199.125	54.546	0.244	31.481
199.853	54.781	0.675	33.984
198.836	54.706	0.143	38.424
198.977	54.684	0.164	36.743
199.287	54.598	0.361	32.189
199.925	54.710	0.824	31.410
200.038	54.547	0.563	26.211
200.798	55.237	0.494	38.830
199.572	54.863	0.439	38.660
199.689	54.854	0.480	37.460
199.710	54.775	0.529	34.868
200.980	54.865	0.920	26.362
200.842	54.899	1.703	28.325
200.701	54.772	0.707	26.078
200.726	54.853	1.585	28.008
199.536	54.426	0.269	26.036
199.399	54.454	0.222	27.469
199.417	54.545	0.366	29.932
198.712	54.645	0.174	37.020
199.282	54.396	0.218	26.427
199.138	54.435	0.189	28.167
200.565	54.978	1.870	32.974
200.585	54.899	2.007	30.532
202.095	55.564	0.364	32.033
202.078	55.280	0.120	26.335
199.231	54.744	0.182	37.151
199.473	54.726	0.351	34.988
199.321	54.683	0.330	34.604
199.827	54.628	0.717	29.838
199.885	54.553	0.553	27.429
200.913	55.132	0.343	34.586
201.820	55.335	0.078	30.979
199.773	54.480	0.330	26.196
199.634	54.489	0.247	27.215
201.225	54.928	0.918	26.335
201.087	54.944	1.097	27.758
200.655	55.125	1.493	36.566
200.775	55.169	0.756	36.878
199.339	54.817	0.249	38.871
199.465	54.804	0.272	37.523
202.116	55.359	0.142	27.420
202.124	55.487	0.202	29.940
201.062	55.032	0.779	30.446
200.681	55.034	1.602	33.563
200.817	55.000	1.264	31.408
200.930	55.055	0.954	32.135
199.602	54.706	0.402	33.543
199.647	54.630	0.384	31.047
199.567	54.563	0.320	29.622
198.846	54.532	0.227	32.475
198.709	54.567	0.229	34.343
198.989	54.588	0.205	33.500
201.869	55.167	0.020	26.516
201.918	55.256	0.063	27.899
201.013	55.298	0.333	38.839
200.946	55.242	0.210	37.697
201.005	55.182	0.263	35.359
200.446	54.688	0.300	26.261
200.512	54.757	0.686	27.397
200.313	54.862	1.386	32.161
200.450	54.829	1.395	29.901
200.292	54.633	0.555	26.305
200.166	54.822	0.989	32.474
200.107	54.724	1.080	30.316
200.162	54.637	0.664	27.545
202.041	55.423	0.078	29.811
201.905	55.423	0.101	31.797
201.461	54.992	0.820	26.244
201.323	55.002	0.799	27.605
201.689	55.063	0.227	26.004
201.549	55.059	0.424	27.214
201.733	55.144	0.065	27.503
200.329	54.959	1.286	34.762
200.446	55.005	1.371	34.927
200.234	55.011	1.166	37.282
201.116	55.169	0.367	34.051
201.156	55.096	0.607	31.577
201.280	55.082	0.652	30.168
200.301	55.085	1.417	38.858
200.428	55.082	1.161	37.436
201.671	55.338	0.118	32.992
200.043	54.909	0.781	36.127
199.912	54.882	0.782	36.498
200.095	55.000	0.874	38.375
199.807	54.926	0.791	38.775
201.238	55.366	0.254	38.684
201.381	55.364	0.217	37.095
201.152	55.296	0.297	37.499
201.197	55.227	0.366	35.060
201.506	55.130	0.391	29.470
201.374	55.142	0.534	31.034
201.583	55.264	0.163	32.180
201.615	55.184	0.167	29.769
201.431	55.282	0.259	34.328
201.332	55.215	0.429	33.469
201.463	55.451	0.296	38.438
201.602	55.443	0.180	36.472
201.701	55.512	0.193	36.791
201.855	55.496	0.132	34.182
201.693	55.591	0.190	38.784
201.870	55.627	0.296	36.966
201.962	55.574	0.308	34.318
201.394	56.024	0.376	57.154
198.185	54.975	0.206	57.359
198.319	54.962	0.179	54.836
199.732	55.377	0.049	58.273
199.828	55.277	0.032	51.737
199.232	55.233	0.211	58.043
199.487	55.305	0.054	58.243
199.612	55.213	0.123	51.771
199.970	55.452	0.052	58.237
200.066	55.359	0.000	51.961
199.388	55.243	0.179	56.345
199.464	55.198	0.085	53.014
199.637	55.317	0.052	56.568
199.686	55.270	0.083	53.450
199.871	55.389	0.018	56.564
199.918	55.336	0.011	53.149
198.328	54.878	0.244	50.166
200.386	55.353	0.458	47.260
199.713	55.165	0.117	48.377
199.669	55.100	0.377	46.254
201.193	55.448	0.318	41.534
199.316	54.888	0.295	41.564
198.765	54.954	0.062	49.387
199.980	55.063	0.423	41.584
200.061	55.136	0.644	43.182
199.850	55.205	0.069	48.322
199.998	55.205	0.043	46.451
201.577	55.641	0.313	41.693
200.690	55.300	1.106	41.917
200.781	55.375	0.897	43.577
200.243	55.148	1.292	41.527
200.306	55.216	0.856	43.131
200.124	55.299	0.053	48.530
200.251	55.297	0.225	46.776
200.955	55.368	0.457	41.586
201.050	55.449	0.457	43.169
201.010	55.533	0.480	46.395
200.421	55.429	0.322	49.945
198.816	54.788	0.120	41.679
200.457	55.217	1.334	41.487
200.519	55.295	1.028	43.522
199.741	54.986	0.605	41.351
199.792	55.047	0.512	42.978
199.580	54.944	0.319	41.345
199.449	54.956	0.421	42.934
198.441	55.032	0.048	57.341
198.460	54.859	0.167	47.863
198.697	54.810	0.134	43.523
199.189	54.904	0.091	43.233
198.905	54.941	0.103	47.374
199.019	55.003	0.101	49.049
199.168	54.982	0.065	46.601
198.564	54.915	0.065	49.560
198.679	54.889	0.070	47.172
199.073	54.837	0.097	41.602
198.938	54.854	0.139	43.356
198.582	54.746	0.166	41.775
198.459	54.769	0.251	43.730
200.101	55.438	0.084	55.216
198.902	55.110	0.059	55.798
199.007	55.074	0.045	52.605
198.977	55.175	0.067	58.415
199.405	55.138	0.158	50.918
199.269	55.034	0.159	47.807
199.265	55.103	0.141	50.960
199.510	55.088	0.227	47.514
199.423	55.025	0.316	45.849
199.132	55.179	0.124	56.485
199.152	55.121	0.119	53.200
200.447	55.593	0.140	57.475
198.688	55.032	0.050	54.237
198.747	55.100	0.017	57.273
198.555	55.004	0.015	54.313
200.572	55.583	0.094	54.832
200.577	55.486	0.411	50.280
200.858	55.545	0.518	48.863
200.724	55.467	0.487	47.589
200.208	55.503	0.117	56.783
200.335	55.499	0.191	54.463
200.686	55.671	0.003	57.274
200.825	55.651	0.035	53.776
200.941	55.710	0.143	54.248
200.953	55.794	0.067	57.814
201.173	55.898	0.110	57.252
201.116	55.818	0.276	55.193
201.079	55.680	0.245	50.538
201.115	55.610	0.387	47.524
201.327	55.746	0.234	48.480
201.181	55.754	0.320	51.383
201.353	55.937	0.262	54.605
201.465	55.891	0.067	50.646
201.441	55.802	0.194	48.235
201.612	55.904	0.168	48.399
201.766	55.735	0.284	41.189
201.768	55.810	0.131	43.108
201.626	55.718	0.253	42.913
201.653	55.835	0.042	45.645
201.571	55.781	0.100	45.457
201.454	55.618	0.285	42.874
201.238	55.599	0.243	45.400
201.347	55.661	0.266	45.615
201.402	55.528	0.292	41.216
201.276	55.523	0.308	42.692
