143.0057 41.9154 1.3300 5.5800
143.1023 41.7509 2.1300 5.5800
143.1989 41.5865 0.5700 5.5800
143.2955 41.4221 0.8400 5.5800
143.3921 41.2577 1.2700 5.5800
143.4887 41.0932 1.3300 5.5800
143.5853 40.9288 2.0400 5.5800
143.6819 40.7644 0.6600 5.5800
143.7786 40.6000 1.2900 5.5800
143.8752 40.4355 1.2400 5.5800
143.9718 40.2711 0.7400 5.5800
144.0684 40.1067 1.1000 5.5800
142.8018 41.8466 0.5200 12.4204
142.8984 41.6822 1.2700 12.4204
142.9950 41.5177 0.9100 12.4204
143.0916 41.3533 1.8000 12.4204
143.1882 41.1889 1.3300 12.4204
143.2848 41.0245 0.9000 12.4204
143.3814 40.8600 1.0100 12.4204
143.4781 40.6956 0.4900 12.4204
143.5747 40.5312 1.5800 12.4204
143.6713 40.3668 1.9400 12.4204
143.7679 40.2023 1.2700 12.4204
143.8645 40.0379 0.9000 12.4204
142.5979 41.7778 1.2700 19.2608
142.6945 41.6134 1.3900 19.2608
142.7911 41.4489 1.3400 19.2608
142.8877 41.2845 1.7900 19.2608
142.9843 41.1201 4.3000 19.2608
143.0809 40.9557 2.4400 19.2608
143.1776 40.7912 0.7400 19.2608
143.2742 40.6268 1.1700 19.2608
143.3708 40.4624 3.3200 19.2608
143.4674 40.2980 3.9500 19.2608
143.5640 40.1335 3.2700 19.2608
143.6606 39.9691 1.6900 19.2608
142.3940 41.7090 0.4000 26.1012
142.4906 41.5446 1.0200 26.1012
142.5872 41.3801 2.5200 26.1012
142.6838 41.2157 2.5400 26.1012
142.7805 41.0513 3.5000 26.1012
142.8771 40.8869 4.8400 26.1012
142.9737 40.7224 1.6300 26.1012
143.0703 40.5580 3.1500 26.1012
143.1669 40.3936 6.4900 26.1012
143.2635 40.2292 4.9200 26.1012
143.3601 40.0647 3.9300 26.1012
143.4567 39.9003 2.1300 26.1012
142.1901 41.6402 0.5300 32.9416
142.2867 41.4758 1.2400 32.9416
142.3833 41.3114 4.1700 32.9416
142.4800 41.1469 8.5600 32.9416
142.5766 40.9825 9.2900 32.9416
142.6732 40.8181 6.9000 32.9416
142.7698 40.6537 1.0700 32.9416
142.8664 40.4892 2.7500 32.9416
142.9630 40.3248 3.2100 32.9416
143.0596 40.1604 2.8400 32.9416
143.1562 39.9960 2.2700 32.9416
143.2528 39.8315 3.2000 32.9416
141.9862 41.5714 2.1200 39.7820
142.0828 41.4070 1.5800 39.7820
142.1795 41.2426 2.3700 39.7820
142.2761 41.0781 4.9200 39.7820
142.3727 40.9137 4.7700 39.7820
142.4693 40.7493 6.2900 39.7820
142.5659 40.5849 2.2200 39.7820
142.6625 40.4204 2.1400 39.7820
142.7591 40.2560 3.3000 39.7820
142.8557 40.0916 1.4200 39.7820
142.9523 39.9272 3.0100 39.7820
143.0489 39.7627 1.4200 39.7820
