-101.1597 16.8290 0.0000 2.0000
-101.2465 16.8642 0.1116 2.0000
-101.3334 16.8993 0.0000 2.0000
-101.4202 16.9345 0.0900 2.0000
-101.5070 16.9696 0.1627 2.0000
-101.5939 17.0048 0.2564 2.0000
-101.6807 17.0400 0.2260 2.0000
-101.7676 17.0751 0.1465 2.0000
-101.8544 17.1103 0.2450 2.0000
-101.9412 17.1455 0.0946 2.0000
-102.0281 17.1806 0.0727 2.0000
-102.1149 17.2158 0.0555 2.0000
-101.1239 16.9094 0.0573 4.4192
-101.2108 16.9445 0.0544 4.4192
-101.2976 16.9797 0.1520 4.4192
-101.3844 17.0149 0.3394 4.4192
-101.4713 17.0500 0.6576 4.4192
-101.5581 17.0852 0.6648 4.4192
-101.6450 17.1204 0.6376 4.4192
-101.7318 17.1555 0.5484 4.4192
-101.8186 17.1907 0.3055 4.4192
-101.9055 17.2258 0.2378 4.4192
-101.9923 17.2610 0.1388 4.4192
-102.0792 17.2962 0.1333 4.4192
-101.0882 16.9898 0.1158 6.8384
-101.1750 17.0249 0.1979 6.8384
-101.2618 17.0601 0.4128 6.8384
-101.3487 17.0952 0.8310 6.8384
-101.4355 17.1304 1.0372 6.8384
-101.5224 17.1656 0.8307 6.8384
-101.6092 17.2007 0.6469 6.8384
-101.6960 17.2359 0.5550 6.8384
-101.7829 17.2711 0.4332 6.8384
-101.8697 17.3062 0.2915 6.8384
-101.9565 17.3414 0.2175 6.8384
-102.0434 17.3765 0.0764 6.8384
-101.0524 17.0701 0.1683 9.2577
-101.1392 17.1053 0.2767 9.2577
-101.2261 17.1405 0.7633 9.2577
-101.3129 17.1756 1.1089 9.2577
-101.3997 17.2108 0.9939 9.2577
-101.4866 17.2459 0.7241 9.2577
-101.5734 17.2811 0.4807 9.2577
-101.6603 17.3163 0.3582 9.2577
-101.7471 17.3514 0.1344 9.2577
-101.8339 17.3866 0.1514 9.2577
-101.9208 17.4218 0.1754 9.2577
-102.0076 17.4569 0.1224 9.2577
-101.0166 17.1505 0.2618 11.6769
-101.1035 17.1857 0.3374 11.6769
-101.1903 17.2208 0.7780 11.6769
-101.2771 17.2560 1.1703 11.6769
-101.3640 17.2912 0.9379 11.6769
-101.4508 17.3263 0.3892 11.6769
-101.5377 17.3615 0.3317 11.6769
-101.6245 17.3966 0.3866 11.6769
-101.7113 17.4318 0.3451 11.6769
-101.7982 17.4670 0.0025 11.6769
-101.8850 17.5021 0.0973 11.6769
-101.9719 17.5373 0.1933 11.6769
-100.9809 17.2309 0.2955 14.0961
-101.0677 17.2660 0.4194 14.0961
-101.1545 17.3012 0.8357 14.0961
-101.2414 17.3364 1.2248 14.0961
-101.3282 17.3715 0.6629 14.0961
-101.4151 17.4067 0.3094 14.0961
-101.5019 17.4419 0.7315 14.0961
-101.5887 17.4770 0.5494 14.0961
-101.6756 17.5122 0.5130 14.0961
-101.7624 17.5474 0.0001 14.0961
-101.8492 17.5825 0.0353 14.0961
-101.9361 17.6177 0.2227 14.0961
-100.9451 17.3113 0.2160 16.5153
-101.0319 17.3464 0.2982 16.5153
-101.1188 17.3816 0.7556 16.5153
-101.2056 17.4168 1.1139 16.5153
-101.2924 17.4519 0.5405 16.5153
-101.3793 17.4871 0.3727 16.5153
-101.4661 17.5222 0.5824 16.5153
-101.5530 17.5574 0.5006 16.5153
-101.6398 17.5926 0.4591 16.5153
-101.7266 17.6277 0.0000 16.5153
-101.8135 17.6629 0.0000 16.5153
-101.9003 17.6981 0.2467 16.5153
-100.9093 17.3916 0.0145 18.9345
-100.9962 17.4268 0.1359 18.9345
-101.0830 17.4620 0.4955 18.9345
-101.1698 17.4971 0.8370 18.9345
-101.2567 17.5323 0.4411 18.9345
-101.3435 17.5675 0.2000 18.9345
-101.4304 17.6026 0.2158 18.9345
-101.5172 17.6378 0.3358 18.9345
-101.6040 17.6729 0.0878 18.9345
-101.6909 17.7081 0.0251 18.9345
-101.7777 17.7433 0.0913 18.9345
-101.8646 17.7784 0.3590 18.9345
-100.8736 17.4720 0.0000 21.3538
-100.9604 17.5072 0.0202 21.3538
-101.0472 17.5423 0.1086 21.3538
-101.1341 17.5775 0.5589 21.3538
-101.2209 17.6127 0.4738 21.3538
-101.3078 17.6478 0.1136 21.3538
-101.3946 17.6830 0.0129 21.3538
-101.4814 17.7182 0.0000 21.3538
-101.5683 17.7533 0.0000 21.3538
-101.6551 17.7885 0.0000 21.3538
-101.7420 17.8237 0.2063 21.3538
-101.8288 17.8588 0.4278 21.3538
-100.8378 17.5524 0.0000 23.7730
-100.9246 17.5876 0.0000 23.7730
-101.0115 17.6227 0.0000 23.7730
-101.0983 17.6579 0.1840 23.7730
-101.1851 17.6931 0.2465 23.7730
-101.2720 17.7282 0.1565 23.7730
-101.3588 17.7634 0.0690 23.7730
-101.4457 17.7985 0.0128 23.7730
-101.5325 17.8337 0.0172 23.7730
-101.6193 17.8689 0.0247 23.7730
-101.7062 17.9040 0.1848 23.7730
-101.7930 17.9392 0.4381 23.7730
-100.8020 17.6328 0.0000 26.1922
-100.8889 17.6679 0.0000 26.1922
-100.9757 17.7031 0.0374 26.1922
-101.0625 17.7383 0.0000 26.1922
-101.1494 17.7734 0.0058 26.1922
-101.2362 17.8086 0.0009 26.1922
-101.3231 17.8438 0.0607 26.1922
-101.4099 17.8789 0.0114 26.1922
-101.4967 17.9141 0.0030 26.1922
-101.5836 17.9492 0.1314 26.1922
-101.6704 17.9844 0.2121 26.1922
-101.7573 18.0196 0.5277 26.1922
-100.7663 17.7132 0.0073 28.6114
-100.8531 17.7483 0.0000 28.6114
-100.9399 17.7835 0.0000 28.6114
-101.0268 17.8186 0.0000 28.6114
-101.1136 17.8538 0.0000 28.6114
-101.2005 17.8890 0.0000 28.6114
-101.2873 17.9241 0.0000 28.6114
-101.3741 17.9593 0.0000 28.6114
-101.4610 17.9945 0.0322 28.6114
-101.5478 18.0296 0.1477 28.6114
-101.6347 18.0648 0.6012 28.6114
-101.7215 18.0999 0.5981 28.6114
