-115.3128 32.6275 0.0000 0.0100
-115.3289 32.6455 0.0000 0.0100
-115.3450 32.6634 0.0000 0.0100
-115.3611 32.6814 0.2642 0.0100
-115.3771 32.6994 0.2642 0.0100
-115.3932 32.7173 0.2312 0.0100
-115.4093 32.7353 0.1778 0.0100
-115.4254 32.7533 0.1651 0.0100
-115.4415 32.7712 0.1101 0.0100
-115.4575 32.7892 0.1186 0.0100
-115.4736 32.8072 0.1392 0.0100
-115.4897 32.8251 0.1815 0.0100
-115.5058 32.8431 0.2213 0.0100
-115.5219 32.8611 0.1146 0.0100
-115.5379 32.8790 0.0276 0.0100
-115.3113 32.6284 0.0000 0.9948
-115.3274 32.6464 0.0000 0.9948
-115.3435 32.6644 0.0000 0.9948
-115.3596 32.6823 0.1981 0.9948
-115.3757 32.7003 0.1981 0.9948
-115.3917 32.7183 0.1321 0.9948
-115.4078 32.7362 0.1477 0.9948
-115.4239 32.7542 0.1401 0.9948
-115.4400 32.7722 0.0985 0.9948
-115.4561 32.7901 0.1132 0.9948
-115.4721 32.8081 0.1333 0.9948
-115.4882 32.8261 0.1544 0.9948
-115.5043 32.8440 0.1983 0.9948
-115.5204 32.8620 0.0861 0.9948
-115.5365 32.8800 0.0276 0.9948
-115.3099 32.6294 0.0000 1.9796
-115.3259 32.6473 0.0000 1.9796
-115.3420 32.6653 0.0000 1.9796
-115.3581 32.6833 0.1101 1.9796
-115.3742 32.7012 0.1101 1.9796
-115.3903 32.7192 0.1101 1.9796
-115.4063 32.7372 0.1231 1.9796
-115.4224 32.7551 0.1101 1.9796
-115.4385 32.7731 0.1246 1.9796
-115.4546 32.7911 0.1186 1.9796
-115.4707 32.8091 0.1339 1.9796
-115.4867 32.8270 0.1544 1.9796
-115.5028 32.8450 0.1983 1.9796
-115.5189 32.8630 0.1004 1.9796
-115.5350 32.8809 0.0221 1.9796
-115.3084 32.6303 0.1321 2.9644
-115.3245 32.6483 0.1321 2.9644
-115.3405 32.6662 0.1651 2.9644
-115.3566 32.6842 0.1321 2.9644
-115.3727 32.7022 0.1321 2.9644
-115.3888 32.7202 0.1321 2.9644
-115.4048 32.7381 0.1362 2.9644
-115.4209 32.7561 0.1477 2.9644
-115.4370 32.7741 0.1101 2.9644
-115.4531 32.7920 0.1101 2.9644
-115.4692 32.8100 0.1186 2.9644
-115.4852 32.8280 0.1339 2.9644
-115.5013 32.8459 0.1544 2.9644
-115.5174 32.8639 0.0861 2.9644
-115.5335 32.8819 0.0221 2.9644
-115.3069 32.6313 0.3853 3.9492
-115.3230 32.6492 0.4238 3.9492
-115.3390 32.6672 0.2312 3.9492
-115.3551 32.6852 0.1541 3.9492
-115.3712 32.7031 0.1541 3.9492
-115.3873 32.7211 0.1926 3.9492
-115.4034 32.7391 0.1926 3.9492
-115.4194 32.7570 0.1926 3.9492
-115.4355 32.7750 0.1778 3.9492
-115.4516 32.7930 0.1101 3.9492
-115.4677 32.8109 0.1101 3.9492
-115.4838 32.8289 0.1186 3.9492
-115.4998 32.8469 0.1339 3.9492
-115.5159 32.8648 0.0575 3.9492
-115.5320 32.8828 0.0112 3.9492
-115.3054 32.6322 0.7486 4.9340
-115.3215 32.6502 0.4403 4.9340
-115.3376 32.6681 0.2642 4.9340
-115.3536 32.6861 0.1981 4.9340
-115.3697 32.7041 0.3302 4.9340
-115.3858 32.7220 0.3302 4.9340
-115.4019 32.7400 0.3302 4.9340
-115.4180 32.7580 0.3082 4.9340
-115.4340 32.7759 0.3082 4.9340
-115.4501 32.7939 0.3205 4.9340
-115.4662 32.8119 0.3939 4.9340
-115.4823 32.8298 0.4534 4.9340
-115.4984 32.8478 0.2663 4.9340
-115.5144 32.8658 0.0738 4.9340
-115.5305 32.8837 0.0123 4.9340
-115.3039 32.6331 1.1228 5.9188
-115.3200 32.6511 0.6605 5.9188
-115.3361 32.6691 0.3963 5.9188
-115.3522 32.6870 0.2642 5.9188
-115.3682 32.7050 0.4293 5.9188
-115.3843 32.7230 0.4293 5.9188
-115.4004 32.7409 0.4293 5.9188
-115.4165 32.7589 0.4844 5.9188
-115.4326 32.7769 0.4403 5.9188
-115.4486 32.7948 0.4403 5.9188
-115.4647 32.8128 0.4403 5.9188
-115.4808 32.8308 0.5944 5.9188
-115.4969 32.8487 0.6935 5.9188
-115.5130 32.8667 0.1101 5.9188
-115.5290 32.8847 0.0055 5.9188
-115.3024 32.6341 1.0788 6.9037
-115.3185 32.6520 1.1559 6.9037
-115.3346 32.6700 0.6165 6.9037
-115.3507 32.6880 0.6165 6.9037
-115.3668 32.7059 0.6165 6.9037
-115.3828 32.7239 0.7926 6.9037
-115.3989 32.7419 0.7926 6.9037
-115.4150 32.7599 0.8807 6.9037
-115.4311 32.7778 0.9687 6.9037
-115.4472 32.7958 0.7045 6.9037
-115.4632 32.8138 0.7045 6.9037
-115.4793 32.8317 1.0018 6.9037
-115.4954 32.8497 0.8421 6.9037
-115.5115 32.8677 0.1376 6.9037
-115.5276 32.8856 0.0055 6.9037
-115.3010 32.6350 1.1559 7.8885
-115.3170 32.6530 1.2384 7.8885
-115.3331 32.6710 0.8256 7.8885
-115.3492 32.6889 0.7486 7.8885
-115.3653 32.7069 0.9357 7.8885
-115.3814 32.7249 0.9357 7.8885
-115.3974 32.7428 1.0293 7.8885
-115.4135 32.7608 1.1228 7.8885
-115.4296 32.7788 1.2164 7.8885
-115.4457 32.7967 0.7486 7.8885
-115.4618 32.8147 0.7045 7.8885
-115.4778 32.8327 1.1449 7.8885
-115.4939 32.8506 0.8917 7.8885
-115.5100 32.8686 0.1376 7.8885
-115.5261 32.8866 0.0055 7.8885
-115.2995 32.6360 1.2384 8.8733
-115.3156 32.6539 0.9907 8.8733
-115.3316 32.6719 0.9907 8.8733
-115.3477 32.6899 0.8256 8.8733
-115.3638 32.7078 1.0898 8.8733
-115.3799 32.7258 1.1889 8.8733
-115.3960 32.7438 1.1889 8.8733
-115.4120 32.7617 1.2880 8.8733
-115.4281 32.7797 1.4861 8.8733
-115.4442 32.7977 0.8917 8.8733
-115.4603 32.8156 0.8807 8.8733
-115.4764 32.8336 1.2164 8.8733
-115.4924 32.8516 0.9412 8.8733
-115.5085 32.8695 0.1651 8.8733
-115.5246 32.8875 0.0055 8.8733
-115.2980 32.6369 0.9082 9.8581
-115.3141 32.6549 0.9082 9.8581
-115.3302 32.6728 0.9082 9.8581
-115.3462 32.6908 0.9082 9.8581
-115.3623 32.7088 0.9907 9.8581
-115.3784 32.7267 1.2549 9.8581
-115.3945 32.7447 1.3595 9.8581
-115.4106 32.7627 1.5687 9.8581
-115.4266 32.7806 1.7778 9.8581
-115.4427 32.7986 1.0458 9.8581
-115.4588 32.8166 0.8807 9.8581
-115.4749 32.8345 1.2880 9.8581
-115.4910 32.8525 0.9412 9.8581
-115.5070 32.8705 0.1651 9.8581
-115.5231 32.8884 0.0055 9.8581
-115.2965 32.6378 0.3963 10.8429
-115.3126 32.6558 0.4623 10.8429
-115.3287 32.6738 0.8586 10.8429
-115.3448 32.6917 0.6605 10.8429
-115.3608 32.7097 0.6605 10.8429
-115.3769 32.7277 0.7926 10.8429
-115.3930 32.7456 0.9907 10.8429
-115.4091 32.7636 1.2880 10.8429
-115.4252 32.7816 1.6843 10.8429
-115.4412 32.7995 0.7926 10.8429
-115.4573 32.8175 0.7045 10.8429
-115.4734 32.8355 0.8586 10.8429
-115.4895 32.8535 0.8421 10.8429
-115.5056 32.8714 0.1651 10.8429
-115.5216 32.8894 0.0055 10.8429
-115.2950 32.6388 0.2752 11.8277
-115.3111 32.6567 0.2752 11.8277
-115.3272 32.6747 0.2202 11.8277
-115.3433 32.6927 0.2202 11.8277
-115.3594 32.7106 0.2202 11.8277
-115.3754 32.7286 0.4679 11.8277
-115.3915 32.7466 0.5614 11.8277
-115.4076 32.7646 0.8421 11.8277
-115.4237 32.7825 1.2164 11.8277
-115.4397 32.8005 0.6550 11.8277
-115.4558 32.8185 0.3523 11.8277
-115.4719 32.8364 1.0733 11.8277
-115.4880 32.8544 0.7926 11.8277
-115.5041 32.8724 0.1651 11.8277
-115.5201 32.8903 0.0055 11.8277
-115.2935 32.6397 0.1321 12.8125
-115.3096 32.6577 0.1321 12.8125
-115.3257 32.6757 0.1321 12.8125
-115.3418 32.6936 0.1321 12.8125
-115.3579 32.7116 0.1321 12.8125
-115.3739 32.7296 0.3302 12.8125
-115.3900 32.7475 0.3302 12.8125
-115.4061 32.7655 0.4128 12.8125
-115.4222 32.7835 0.6605 12.8125
-115.4383 32.8014 0.4954 12.8125
-115.4543 32.8194 0.2312 12.8125
-115.4704 32.8374 0.8586 12.8125
-115.4865 32.8553 0.7431 12.8125
-115.5026 32.8733 0.1651 12.8125
-115.5187 32.8913 0.0055 12.8125
