-102.1507 17.3461 0.0000 6.0000
-102.1916 17.3686 0.0000 6.0000
-102.2325 17.3911 0.3395 6.0000
-102.2734 17.4136 0.5493 6.0000
-102.3143 17.4361 0.3513 6.0000
-102.3552 17.4586 0.1522 6.0000
-102.3961 17.4811 0.2602 6.0000
-102.4371 17.5036 0.3955 6.0000
-102.4780 17.5261 0.4879 6.0000
-102.5189 17.5486 0.3415 6.0000
-102.5598 17.5711 0.0306 6.0000
-102.6007 17.5936 0.0000 6.0000
-102.1277 17.3839 0.0000 7.2096
-102.1687 17.4064 0.0000 7.2096
-102.2096 17.4289 0.2767 7.2096
-102.2505 17.4514 0.0670 7.2096
-102.2914 17.4739 0.3105 7.2096
-102.3323 17.4964 0.7630 7.2096
-102.3732 17.5189 0.9503 7.2096
-102.4141 17.5414 0.8482 7.2096
-102.4551 17.5639 0.5599 7.2096
-102.4960 17.5864 0.2822 7.2096
-102.5369 17.6089 0.1676 7.2096
-102.5778 17.6314 0.0000 7.2096
-102.1048 17.4217 0.0000 8.4192
-102.1457 17.4442 0.1801 8.4192
-102.1867 17.4667 0.0000 8.4192
-102.2276 17.4892 0.2904 8.4192
-102.2685 17.5117 0.4096 8.4192
-102.3094 17.5342 0.7544 8.4192
-102.3503 17.5567 1.0558 8.4192
-102.3912 17.5792 1.1939 8.4192
-102.4321 17.6017 1.1742 8.4192
-102.4730 17.6242 0.8231 8.4192
-102.5140 17.6467 0.2975 8.4192
-102.5549 17.6692 0.0041 8.4192
-102.0819 17.4595 0.0425 9.6288
-102.1228 17.4820 0.0000 9.6288
-102.1637 17.5045 0.0000 9.6288
-102.2046 17.5270 0.2434 9.6288
-102.2456 17.5495 0.9713 9.6288
-102.2865 17.5720 1.0746 9.6288
-102.3274 17.5945 0.9853 9.6288
-102.3683 17.6170 0.9850 9.6288
-102.4092 17.6395 1.1540 9.6288
-102.4501 17.6620 1.3305 9.6288
-102.4910 17.6845 0.6116 9.6288
-102.5320 17.7070 0.0090 9.6288
-102.0590 17.4974 0.2843 10.8384
-102.0999 17.5199 0.0000 10.8384
-102.1408 17.5424 0.1213 10.8384
-102.1817 17.5649 0.7281 10.8384
-102.2226 17.5874 0.5803 10.8384
-102.2636 17.6099 0.1544 10.8384
-102.3045 17.6323 0.0000 10.8384
-102.3454 17.6548 0.0000 10.8384
-102.3863 17.6773 0.4236 10.8384
-102.4272 17.6998 1.0117 10.8384
-102.4681 17.7223 0.8823 10.8384
-102.5090 17.7448 0.0000 10.8384
-102.0361 17.5352 0.1076 12.0480
-102.0770 17.5577 0.0000 12.0480
-102.1179 17.5802 0.4197 12.0480
-102.1588 17.6027 0.6305 12.0480
-102.1997 17.6252 0.0000 12.0480
-102.2406 17.6477 0.0000 12.0480
-102.2815 17.6702 0.0000 12.0480
-102.3225 17.6927 0.0000 12.0480
-102.3634 17.7152 0.0000 12.0480
-102.4043 17.7377 0.0550 12.0480
-102.4452 17.7602 1.0830 12.0480
-102.4861 17.7827 0.0000 12.0480
-102.0131 17.5730 0.0000 13.2577
-102.0541 17.5955 0.0000 13.2577
-102.0950 17.6180 0.5094 13.2577
-102.1359 17.6405 0.1989 13.2577
-102.1768 17.6630 0.0000 13.2577
-102.2177 17.6855 1.4521 13.2577
-102.2586 17.7080 3.3370 13.2577
-102.2995 17.7305 1.9386 13.2577
-102.3405 17.7530 0.8353 13.2577
-102.3814 17.7755 0.2791 13.2577
-102.4223 17.7980 0.5524 13.2577
-102.4632 17.8205 0.0000 13.2577
-101.9902 17.6108 0.0000 14.4673
-102.0311 17.6333 0.0000 14.4673
-102.0721 17.6558 0.4020 14.4673
-102.1130 17.6783 0.1688 14.4673
-102.1539 17.7008 0.3802 14.4673
-102.1948 17.7233 2.2838 14.4673
-102.2357 17.7458 3.5313 14.4673
-102.2766 17.7683 2.9958 14.4673
-102.3175 17.7908 1.6452 14.4673
-102.3584 17.8133 0.8556 14.4673
-102.3994 17.8358 0.2200 14.4673
-102.4403 17.8583 0.0000 14.4673
-101.9673 17.6486 0.0000 15.6769
-102.0082 17.6711 0.0000 15.6769
-102.0491 17.6936 0.6062 15.6769
-102.0900 17.7161 0.4434 15.6769
-102.1310 17.7386 0.6926 15.6769
-102.1719 17.7611 2.4966 15.6769
-102.2128 17.7836 4.0440 15.6769
-102.2537 17.8061 3.6439 15.6769
-102.2946 17.8286 2.2473 15.6769
-102.3355 17.8511 0.7157 15.6769
-102.3764 17.8736 0.5120 15.6769
-102.4174 17.8961 0.0000 15.6769
-101.9444 17.6864 0.0000 16.8865
-101.9853 17.7089 0.0000 16.8865
-102.0262 17.7314 0.5832 16.8865
-102.0671 17.7539 0.5176 16.8865
-102.1080 17.7764 0.6712 16.8865
-102.1490 17.7989 1.4486 16.8865
-102.1899 17.8214 2.2968 16.8865
-102.2308 17.8439 2.2314 16.8865
-102.2717 17.8664 1.5691 16.8865
-102.3126 17.8889 0.0000 16.8865
-102.3535 17.9114 0.5706 16.8865
-102.3944 17.9339 0.0000 16.8865
-101.9215 17.7242 0.0000 18.0961
-101.9624 17.7467 0.0097 18.0961
-102.0033 17.7692 0.2168 18.0961
-102.0442 17.7917 0.5456 18.0961
-102.0851 17.8142 0.6879 18.0961
-102.1260 17.8367 0.7918 18.0961
-102.1669 17.8592 1.0874 18.0961
-102.2079 17.8817 0.8128 18.0961
-102.2488 17.9042 0.0000 18.0961
-102.2897 17.9267 0.1317 18.0961
-102.3306 17.9492 0.0000 18.0961
-102.3715 17.9717 0.0000 18.0961
-101.8985 17.7620 0.0000 19.3057
-101.9395 17.7845 0.0000 19.3057
-101.9804 17.8070 0.1714 19.3057
-102.0213 17.8295 0.3618 19.3057
-102.0622 17.8520 0.3811 19.3057
-102.1031 17.8745 0.6125 19.3057
-102.1440 17.8970 0.5422 19.3057
-102.1849 17.9195 0.4914 19.3057
-102.2259 17.9420 0.2627 19.3057
-102.2668 17.9645 0.0000 19.3057
-102.3077 17.9870 0.0000 19.3057
-102.3486 18.0095 0.0000 19.3057
-101.8756 17.7998 0.0000 20.5153
-101.9165 17.8223 0.0000 20.5153
-101.9575 17.8448 0.0000 20.5153
-101.9984 17.8673 0.0036 20.5153
-102.0393 17.8898 0.4082 20.5153
-102.0802 17.9123 0.3550 20.5153
-102.1211 17.9348 0.0905 20.5153
-102.1620 17.9573 0.0000 20.5153
-102.2029 17.9798 0.0000 20.5153
-102.2438 18.0023 0.0000 20.5153
-102.2848 18.0248 0.0000 20.5153
-102.3257 18.0473 0.0000 20.5153
-101.8527 17.8377 0.0000 21.7249
-101.8936 17.8602 0.0000 21.7249
-101.9345 17.8827 0.0000 21.7249
-101.9754 17.9051 0.0000 21.7249
-102.0164 17.9276 0.0000 21.7249
-102.0573 17.9501 0.0000 21.7249
-102.0982 17.9726 0.0000 21.7249
-102.1391 17.9951 0.0000 21.7249
-102.1800 18.0176 0.0000 21.7249
-102.2209 18.0401 0.0000 21.7249
-102.2618 18.0626 0.0000 21.7249
-102.3028 18.0851 0.0000 21.7249
