-101.5566 17.1133 0.3889 12.0000
-101.6179 17.1470 0.0000 12.0000
-101.6792 17.1808 0.0000 12.0000
-101.7406 17.2145 0.0000 12.0000
-101.8019 17.2483 0.1931 12.0000
-101.8632 17.2820 0.4366 12.0000
-101.9245 17.3158 0.3896 12.0000
-101.9859 17.3495 0.7865 12.0000
-102.0472 17.3833 0.4322 12.0000
-102.1085 17.4170 0.0811 12.0000
-102.1698 17.4508 0.1675 12.0000
-102.2311 17.4845 0.0000 12.0000
-101.5222 17.1700 0.0000 13.8144
-101.5836 17.2038 0.0000 13.8144
-101.6449 17.2375 0.0000 13.8144
-101.7062 17.2713 0.1095 13.8144
-101.7675 17.3050 0.3697 13.8144
-101.8289 17.3387 1.4006 13.8144
-101.8902 17.3725 1.7820 13.8144
-101.9515 17.4062 1.3700 13.8144
-102.0128 17.4400 0.6364 13.8144
-102.0741 17.4737 0.3677 13.8144
-102.1355 17.5075 0.1046 13.8144
-102.1968 17.5412 0.2214 13.8144
-101.4879 17.2267 0.0000 15.6288
-101.5492 17.2605 0.0000 15.6288
-101.6105 17.2942 0.0000 15.6288
-101.6719 17.3280 0.5149 15.6288
-101.7332 17.3617 1.6668 15.6288
-101.7945 17.3955 1.9441 15.6288
-101.8558 17.4292 1.4153 15.6288
-101.9171 17.4630 1.1521 15.6288
-101.9785 17.4967 1.1976 15.6288
-102.0398 17.5305 0.6848 15.6288
-102.1011 17.5642 0.0000 15.6288
-102.1624 17.5979 0.0875 15.6288
-101.4535 17.2834 0.0000 17.4432
-101.5149 17.3172 0.0000 17.4432
-101.5762 17.3509 0.1531 17.4432
-101.6375 17.3847 0.9084 17.4432
-101.6988 17.4184 1.7663 17.4432
-101.7601 17.4522 1.4411 17.4432
-101.8215 17.4859 1.5380 17.4432
-101.8828 17.5197 1.9248 17.4432
-101.9441 17.5534 1.5013 17.4432
-102.0054 17.5872 1.0176 17.4432
-102.0668 17.6209 0.4119 17.4432
-102.1281 17.6547 0.0000 17.4432
-101.4192 17.3402 0.0000 19.2577
-101.4805 17.3739 0.0000 19.2577
-101.5418 17.4077 0.3763 19.2577
-101.6032 17.4414 1.1284 19.2577
-101.6645 17.4751 1.3180 19.2577
-101.7258 17.5089 1.4313 19.2577
-101.7871 17.5426 1.8299 19.2577
-101.8484 17.5764 1.8854 19.2577
-101.9098 17.6101 1.9312 19.2577
-101.9711 17.6439 0.9490 19.2577
-102.0324 17.6776 0.4950 19.2577
-102.0937 17.7114 0.0000 19.2577
-101.3848 17.3969 0.0000 21.0721
-101.4462 17.4306 0.0000 21.0721
-101.5075 17.4644 0.3029 21.0721
-101.5688 17.4981 1.0149 21.0721
-101.6301 17.5319 1.1622 21.0721
-101.6914 17.5656 1.8285 21.0721
-101.7528 17.5994 1.6722 21.0721
-101.8141 17.6331 1.9516 21.0721
-101.8754 17.6669 1.5780 21.0721
-101.9367 17.7006 0.5953 21.0721
-101.9981 17.7343 0.1291 21.0721
-102.0594 17.7681 0.0000 21.0721
-101.3505 17.4536 0.0000 22.8865
-101.4118 17.4873 0.0000 22.8865
-101.4731 17.5211 0.0000 22.8865
-101.5344 17.5548 0.4891 22.8865
-101.5958 17.5886 0.4051 22.8865
-101.6571 17.6223 2.0904 22.8865
-101.7184 17.6561 1.5595 22.8865
-101.7797 17.6898 1.1627 22.8865
-101.8411 17.7236 0.8024 22.8865
-101.9024 17.7573 0.0137 22.8865
-101.9637 17.7911 0.0000 22.8865
-102.0250 17.8248 0.0000 22.8865
-101.3161 17.5103 0.0000 24.7009
-101.3775 17.5441 0.0000 24.7009
-101.4388 17.5778 0.0000 24.7009
-101.5001 17.6115 0.1693 24.7009
-101.5614 17.6453 0.0000 24.7009
-101.6227 17.6790 1.0828 24.7009
-101.6841 17.7128 1.3000 24.7009
-101.7454 17.7465 0.9739 24.7009
-101.8067 17.7803 0.1971 24.7009
-101.8680 17.8140 0.0000 24.7009
-101.9293 17.8478 0.0000 24.7009
-101.9907 17.8815 0.0000 24.7009
-101.2818 17.5670 0.0000 26.5153
-101.3431 17.6008 0.0000 26.5153
-101.4044 17.6345 0.0000 26.5153
-101.4657 17.6683 0.0000 26.5153
-101.5271 17.7020 0.0000 26.5153
-101.5884 17.7358 0.0000 26.5153
-101.6497 17.7695 0.1655 26.5153
-101.7110 17.8033 0.3637 26.5153
-101.7724 17.8370 0.2974 26.5153
-101.8337 17.8707 0.1878 26.5153
-101.8950 17.9045 0.0000 26.5153
-101.9563 17.9382 0.0000 26.5153
-101.2474 17.6237 0.0000 28.3297
-101.3087 17.6575 0.0017 28.3297
-101.3701 17.6912 0.0000 28.3297
-101.4314 17.7250 0.0000 28.3297
-101.4927 17.7587 0.1126 28.3297
-101.5540 17.7925 0.0000 28.3297
-101.6154 17.8262 0.0000 28.3297
-101.6767 17.8600 0.0000 28.3297
-101.7380 17.8937 0.0000 28.3297
-101.7993 17.9275 0.0000 28.3297
-101.8606 17.9612 0.0000 28.3297
-101.9220 17.9950 0.0000 28.3297
-101.2131 17.6805 0.0305 30.1441
-101.2744 17.7142 0.0000 30.1441
-101.3357 17.7479 0.0000 30.1441
-101.3970 17.7817 0.0000 30.1441
-101.4584 17.8154 0.0000 30.1441
-101.5197 17.8492 0.0000 30.1441
-101.5810 17.8829 0.0678 30.1441
-101.6423 17.9167 0.0000 30.1441
-101.7036 17.9504 0.0000 30.1441
-101.7650 17.9842 0.0000 30.1441
-101.8263 18.0179 0.0000 30.1441
-101.8876 18.0517 0.0706 30.1441
-101.1787 17.7372 0.0000 31.9586
-101.2400 17.7709 0.0000 31.9586
-101.3014 17.8047 0.0000 31.9586
-101.3627 17.8384 0.0684 31.9586
-101.4240 17.8722 0.0000 31.9586
-101.4853 17.9059 0.0000 31.9586
-101.5467 17.9397 0.0000 31.9586
-101.6080 17.9734 0.0000 31.9586
-101.6693 18.0071 0.0000 31.9586
-101.7306 18.0409 0.0000 31.9586
-101.7919 18.0746 0.0000 31.9586
-101.8533 18.1084 0.0000 31.9586
