-71.1598 48.0716 0.1087 22.0000
-71.1685 48.0785 0.0000 22.0000
-71.1772 48.0854 0.1038 22.0000
-71.1858 48.0922 0.0000 22.0000
-71.1945 48.0991 0.0000 22.0000
-71.2032 48.1060 0.0000 22.0000
-71.2118 48.1129 0.0000 22.0000
-71.2205 48.1198 0.0000 22.0000
-71.2292 48.1267 0.1050 22.0000
-71.2378 48.1336 0.0000 22.0000
-71.1550 48.0743 0.0000 22.9969
-71.1637 48.0811 0.0000 22.9969
-71.1724 48.0880 0.0000 22.9969
-71.1810 48.0949 0.0612 22.9969
-71.1897 48.1018 0.0000 22.9969
-71.1984 48.1087 0.3262 22.9969
-71.2070 48.1156 0.0000 22.9969
-71.2157 48.1225 0.0000 22.9969
-71.2244 48.1294 0.0000 22.9969
-71.2330 48.1363 0.0000 22.9969
-71.1502 48.0769 0.0000 23.9939
-71.1589 48.0838 0.0000 23.9939
-71.1676 48.0907 0.0000 23.9939
-71.1762 48.0976 0.4166 23.9939
-71.1849 48.1045 0.4778 23.9939
-71.1936 48.1114 0.7453 23.9939
-71.2022 48.1183 0.0706 23.9939
-71.2109 48.1252 0.0000 23.9939
-71.2196 48.1321 0.1006 23.9939
-71.2282 48.1390 0.0000 23.9939
-71.1454 48.0796 0.0000 24.9908
-71.1541 48.0865 0.0000 24.9908
-71.1628 48.0934 0.0000 24.9908
-71.1714 48.1003 0.1103 24.9908
-71.1801 48.1072 0.8291 24.9908
-71.1888 48.1141 3.0198 24.9908
-71.1974 48.1210 0.0930 24.9908
-71.2061 48.1279 0.0000 24.9908
-71.2148 48.1348 0.0000 24.9908
-71.2234 48.1417 0.0000 24.9908
-71.1406 48.0823 0.0000 25.9878
-71.1493 48.0892 0.0000 25.9878
-71.1580 48.0961 0.0000 25.9878
-71.1666 48.1030 0.0911 25.9878
-71.1753 48.1099 0.6798 25.9878
-71.1840 48.1168 0.7623 25.9878
-71.1926 48.1237 0.0710 25.9878
-71.2013 48.1306 0.0000 25.9878
-71.2100 48.1375 0.0000 25.9878
-71.2186 48.1444 0.1328 25.9878
-71.1358 48.0850 0.2046 26.9847
-71.1445 48.0919 0.0000 26.9847
-71.1532 48.0988 0.0000 26.9847
-71.1618 48.1057 0.2116 26.9847
-71.1705 48.1126 0.2853 26.9847
-71.1792 48.1195 0.6439 26.9847
-71.1878 48.1264 0.6064 26.9847
-71.1965 48.1333 0.2150 26.9847
-71.2052 48.1402 0.0124 26.9847
-71.2138 48.1471 0.0000 26.9847
-71.1310 48.0877 0.0000 27.9816
-71.1397 48.0946 0.0000 27.9816
-71.1484 48.1015 0.0000 27.9816
-71.1570 48.1084 0.0000 27.9816
-71.1657 48.1153 0.0173 27.9816
-71.1744 48.1222 0.4207 27.9816
-71.1830 48.1291 0.9250 27.9816
-71.1917 48.1360 0.4602 27.9816
-71.2004 48.1428 0.0546 27.9816
-71.2090 48.1497 0.0340 27.9816
-71.1262 48.0904 0.1921 28.9786
-71.1349 48.0973 0.1526 28.9786
-71.1436 48.1042 0.2218 28.9786
-71.1522 48.1111 0.0000 28.9786
-71.1609 48.1180 0.0000 28.9786
-71.1696 48.1249 0.0202 28.9786
-71.1782 48.1318 0.4751 28.9786
-71.1869 48.1386 0.1432 28.9786
-71.1956 48.1455 0.0000 28.9786
-71.2042 48.1524 0.0000 28.9786
-71.1214 48.0931 0.0972 29.9755
-71.1301 48.1000 0.1706 29.9755
-71.1388 48.1069 0.0749 29.9755
-71.1474 48.1138 0.0000 29.9755
-71.1561 48.1207 0.0000 29.9755
-71.1648 48.1275 0.0000 29.9755
-71.1734 48.1344 0.0000 29.9755
-71.1821 48.1413 0.0000 29.9755
-71.1907 48.1482 0.0000 29.9755
-71.1994 48.1551 0.0000 29.9755
