-101.7991 17.3337 1.2450 6.0000
-101.9222 17.4012 0.6475 6.0000
-102.0452 17.4687 2.3569 6.0000
-102.1683 17.5362 1.3252 6.0000
-102.2913 17.6037 2.9264 6.0000
-102.4144 17.6712 2.7152 6.0000
-102.5374 17.7387 1.7825 6.0000
-102.6605 17.8061 0.5425 6.0000
-102.7835 17.8736 0.4593 6.0000
-102.9066 17.9411 0.8459 6.0000
-103.0296 18.0086 0.1398 6.0000
-103.1527 18.0761 0.7088 6.0000
-101.7353 17.4388 1.2955 9.3627
-101.8583 17.5063 0.4719 9.3627
-101.9814 17.5738 2.4170 9.3627
-102.1044 17.6413 1.4748 9.3627
-102.2275 17.7088 1.3824 9.3627
-102.3505 17.7763 2.2534 9.3627
-102.4735 17.8438 1.1035 9.3627
-102.5966 17.9113 0.8935 9.3627
-102.7196 17.9788 3.4023 9.3627
-102.8427 18.0462 1.9022 9.3627
-102.9657 18.1137 0.3933 9.3627
-103.0888 18.1812 0.0000 9.3627
-101.6714 17.5439 2.6466 12.7254
-101.7944 17.6114 2.0866 12.7254
-101.9175 17.6789 3.6744 12.7254
-102.0405 17.7464 2.4008 12.7254
-102.1636 17.8139 0.7867 12.7254
-102.2866 17.8814 3.2049 12.7254
-102.4097 17.9489 4.9719 12.7254
-102.5327 18.0164 7.4901 12.7254
-102.6558 18.0839 1.8849 12.7254
-102.7788 18.1514 3.1040 12.7254
-102.9019 18.2189 0.3129 12.7254
-103.0249 18.2864 0.0270 12.7254
-101.6075 17.6490 0.9827 16.0881
-101.7306 17.7165 3.6719 16.0881
-101.8536 17.7840 2.8588 16.0881
-101.9767 17.8515 1.7549 16.0881
-102.0997 17.9190 2.1884 16.0881
-102.2227 17.9865 1.6821 16.0881
-102.3458 18.0540 1.4074 16.0881
-102.4688 18.1215 4.1631 16.0881
-102.5919 18.1890 3.0428 16.0881
-102.7149 18.2565 3.3833 16.0881
-102.8380 18.3240 0.7246 16.0881
-102.9610 18.3915 0.6569 16.0881
-101.5436 17.7541 0.5621 19.4509
-101.6667 17.8216 2.2590 19.4509
-101.7897 17.8891 5.6075 19.4509
-101.9128 17.9566 2.4409 19.4509
-102.0358 18.0241 0.7862 19.4509
-102.1589 18.0916 1.2883 19.4509
-102.2819 18.1591 0.2170 19.4509
-102.4050 18.2266 0.4046 19.4509
-102.5280 18.2941 2.6305 19.4509
-102.6511 18.3616 2.1230 19.4509
-102.7741 18.4291 0.4249 19.4509
-102.8971 18.4966 0.1339 19.4509
-101.4798 17.8593 0.2993 22.8136
-101.6028 17.9267 1.6084 22.8136
-101.7259 17.9942 1.8888 22.8136
-101.8489 18.0617 1.2583 22.8136
-101.9719 18.1292 0.3298 22.8136
-102.0950 18.1967 0.7381 22.8136
-102.2180 18.2642 1.2268 22.8136
-102.3411 18.3317 0.7809 22.8136
-102.4641 18.3992 0.9717 22.8136
-102.5872 18.4667 0.7351 22.8136
-102.7102 18.5342 0.1206 22.8136
-102.8333 18.6017 0.5369 22.8136
-101.4159 17.9644 0.1303 26.1763
-101.5389 18.0319 0.4501 26.1763
-101.6620 18.0994 1.1227 26.1763
-101.7850 18.1668 0.8537 26.1763
-101.9081 18.2343 0.1726 26.1763
-102.0311 18.3018 0.5064 26.1763
-102.1542 18.3693 0.4484 26.1763
-102.2772 18.4368 0.0063 26.1763
-102.4003 18.5043 1.6057 26.1763
-102.5233 18.5718 0.5732 26.1763
-102.6464 18.6393 0.1318 26.1763
-102.7694 18.7068 0.0000 26.1763
-101.3520 18.0695 0.5562 29.5390
-101.4751 18.1370 1.1300 29.5390
-101.5981 18.2045 1.5793 29.5390
-101.7212 18.2720 3.9023 29.5390
-101.8442 18.3395 1.4174 29.5390
-101.9672 18.4069 0.5729 29.5390
-102.0903 18.4744 0.8061 29.5390
-102.2133 18.5419 0.4308 29.5390
-102.3364 18.6094 0.0000 29.5390
-102.4594 18.6769 0.0000 29.5390
-102.5825 18.7444 0.1964 29.5390
-102.7055 18.8119 0.0084 29.5390
-101.2881 18.1746 1.9201 32.9017
-101.4112 18.2421 0.5151 32.9017
-101.5342 18.3096 0.1680 32.9017
-101.6573 18.3771 1.7736 32.9017
-101.7803 18.4446 2.9122 32.9017
-101.9034 18.5121 1.5331 32.9017
-102.0264 18.5796 1.6997 32.9017
-102.1495 18.6471 0.8809 32.9017
-102.2725 18.7145 0.8297 32.9017
-102.3956 18.7820 0.3984 32.9017
-102.5186 18.8495 0.3649 32.9017
-102.6416 18.9170 0.7521 32.9017
-101.2243 18.2797 2.4843 36.2644
-101.3473 18.3472 2.7344 36.2644
-101.4704 18.4147 0.2791 36.2644
-101.5934 18.4822 1.5651 36.2644
-101.7164 18.5497 2.0565 36.2644
-101.8395 18.6172 1.3368 36.2644
-101.9625 18.6847 1.1456 36.2644
-102.0856 18.7522 0.6579 36.2644
-102.2086 18.8197 0.7244 36.2644
-102.3317 18.8872 0.7306 36.2644
-102.4547 18.9546 0.5145 36.2644
-102.5778 19.0221 1.6374 36.2644
