134.8689 34.4943 0.2245 1.0000
134.8847 34.5073 0.3294 1.0000
134.9006 34.5204 0.5964 1.0000
134.9164 34.5334 1.5731 1.0000
134.9323 34.5465 1.4037 1.0000
134.9481 34.5595 0.9601 1.0000
134.9640 34.5726 0.8007 1.0000
134.9798 34.5856 0.9610 1.0000
134.9956 34.5987 0.6572 1.0000
135.0115 34.6117 0.4296 1.0000
134.8722 34.4916 0.8760 3.0052
134.8880 34.5046 0.7643 3.0052
134.9039 34.5177 1.2365 3.0052
134.9197 34.5307 1.5690 3.0052
134.9356 34.5438 2.1010 3.0052
134.9514 34.5568 1.4389 3.0052
134.9672 34.5699 0.6766 3.0052
134.9831 34.5829 0.2663 3.0052
134.9989 34.5959 0.7264 3.0052
135.0148 34.6090 1.0008 3.0052
134.8755 34.4889 0.6466 5.0104
134.8913 34.5019 0.5786 5.0104
134.9072 34.5150 0.9210 5.0104
134.9230 34.5280 1.3964 5.0104
134.9388 34.5411 1.2816 5.0104
134.9547 34.5541 1.2987 5.0104
134.9705 34.5671 1.0520 5.0104
134.9864 34.5802 0.6141 5.0104
135.0022 34.5932 0.2988 5.0104
135.0181 34.6063 0.3430 5.0104
134.8788 34.4862 0.5451 7.0156
134.8946 34.4992 0.6221 7.0156
134.9104 34.5123 0.8809 7.0156
134.9263 34.5253 0.8515 7.0156
134.9421 34.5383 1.0181 7.0156
134.9580 34.5514 1.1320 7.0156
134.9738 34.5644 1.2759 7.0156
134.9897 34.5775 0.8759 7.0156
135.0055 34.5905 0.3853 7.0156
135.0214 34.6036 0.4786 7.0156
134.8820 34.4834 0.3288 9.0208
134.8979 34.4965 0.8141 9.0208
134.9137 34.5095 1.2089 9.0208
134.9296 34.5226 0.9613 9.0208
134.9454 34.5356 0.4912 9.0208
134.9613 34.5487 0.8796 9.0208
134.9771 34.5617 1.2412 9.0208
134.9930 34.5748 0.7359 9.0208
135.0088 34.5878 0.6151 9.0208
135.0247 34.6009 0.7964 9.0208
134.8853 34.4807 0.4199 11.0260
134.9012 34.4938 0.5862 11.0260
134.9170 34.5068 0.7508 11.0260
134.9329 34.5199 0.7392 11.0260
134.9487 34.5329 0.4791 11.0260
134.9646 34.5460 0.4621 11.0260
134.9804 34.5590 0.5350 11.0260
134.9963 34.5721 0.7049 11.0260
135.0121 34.5851 0.3594 11.0260
135.0280 34.5981 0.3242 11.0260
134.8886 34.4780 0.5178 13.0312
134.9045 34.4911 0.5743 13.0312
134.9203 34.5041 0.6057 13.0312
134.9362 34.5172 0.3718 13.0312
134.9520 34.5302 0.3034 13.0312
134.9679 34.5433 0.7551 13.0312
134.9837 34.5563 0.5313 13.0312
134.9996 34.5693 0.4833 13.0312
135.0154 34.5824 0.3656 13.0312
135.0313 34.5954 0.1635 13.0312
134.8919 34.4753 0.2971 15.0364
134.9078 34.4884 0.4561 15.0364
134.9236 34.5014 0.3414 15.0364
134.9395 34.5144 0.1816 15.0364
134.9553 34.5275 0.4192 15.0364
134.9712 34.5405 0.6911 15.0364
134.9870 34.5536 0.3573 15.0364
135.0029 34.5666 0.2663 15.0364
135.0187 34.5797 0.2654 15.0364
135.0346 34.5927 0.5885 15.0364
134.8952 34.4726 0.2145 17.0416
134.9111 34.4856 0.3255 17.0416
134.9269 34.4987 0.3523 17.0416
134.9428 34.5117 0.3188 17.0416
134.9586 34.5248 0.4019 17.0416
134.9745 34.5378 0.3300 17.0416
134.9903 34.5509 0.2620 17.0416
135.0062 34.5639 0.1631 17.0416
135.0220 34.5770 0.2705 17.0416
135.0379 34.5900 0.2557 17.0416
134.8985 34.4699 0.4285 19.0468
134.9144 34.4829 0.1843 19.0468
134.9302 34.4960 0.2437 19.0468
134.9461 34.5090 0.2798 19.0468
134.9619 34.5221 0.3543 19.0468
134.9778 34.5351 0.5309 19.0468
134.9936 34.5482 0.5331 19.0468
135.0095 34.5612 0.2483 19.0468
135.0253 34.5742 0.1456 19.0468
135.0412 34.5873 0.3444 19.0468
135.0526 34.6039 0.8913 1.0000
135.0698 34.6158 0.5712 1.0000
135.0869 34.6276 0.1802 1.0000
135.1041 34.6395 0.1967 1.0000
135.1213 34.6514 0.3711 1.0000
135.1384 34.6632 0.3298 1.0000
135.1556 34.6751 0.3173 1.0000
135.0526 34.6039 0.5060 3.0500
135.0698 34.6158 0.6677 3.0500
135.0869 34.6276 0.4950 3.0500
135.1041 34.6395 0.3910 3.0500
135.1213 34.6514 0.3899 3.0500
135.1384 34.6632 0.1814 3.0500
135.1556 34.6751 0.4917 3.0500
135.0526 34.6039 1.2801 5.1000
135.0698 34.6158 0.3610 5.1000
135.0869 34.6276 0.2933 5.1000
135.1041 34.6395 0.3357 5.1000
135.1213 34.6514 0.2790 5.1000
135.1384 34.6632 0.2973 5.1000
135.1556 34.6751 0.3085 5.1000
135.0526 34.6039 0.3229 7.1500
135.0698 34.6158 0.1342 7.1500
135.0869 34.6276 0.1352 7.1500
135.1041 34.6395 0.3456 7.1500
135.1213 34.6514 0.1871 7.1500
135.1384 34.6632 0.0508 7.1500
135.1556 34.6751 0.1292 7.1500
135.0526 34.6039 0.4411 9.2000
135.0698 34.6158 0.4719 9.2000
135.0869 34.6276 0.4206 9.2000
135.1041 34.6395 0.6361 9.2000
135.1213 34.6514 0.5952 9.2000
135.1384 34.6632 0.3360 9.2000
135.1556 34.6751 0.5664 9.2000
135.0526 34.6039 0.2424 11.2500
135.0698 34.6158 0.4804 11.2500
135.0869 34.6276 0.7167 11.2500
135.1041 34.6395 0.6080 11.2500
135.1213 34.6514 0.5576 11.2500
135.1384 34.6632 0.7228 11.2500
135.1556 34.6751 0.6900 11.2500
135.0526 34.6039 0.4903 13.3000
135.0698 34.6158 0.6251 13.3000
135.0869 34.6276 0.5266 13.3000
135.1041 34.6395 0.5374 13.3000
135.1213 34.6514 0.5079 13.3000
135.1384 34.6632 0.4759 13.3000
135.1556 34.6751 0.6912 13.3000
135.0526 34.6039 1.1576 15.3500
135.0698 34.6158 0.7095 15.3500
135.0869 34.6276 0.3193 15.3500
135.1041 34.6395 0.5914 15.3500
135.1213 34.6514 0.5172 15.3500
135.1384 34.6632 0.4366 15.3500
135.1556 34.6751 0.6779 15.3500
135.0526 34.6039 0.2980 17.4000
135.0698 34.6158 0.3705 17.4000
135.0869 34.6276 0.3824 17.4000
135.1041 34.6395 0.4782 17.4000
135.1213 34.6514 0.2927 17.4000
135.1384 34.6632 0.1503 17.4000
135.1556 34.6751 0.3884 17.4000
135.0526 34.6039 0.2161 19.4500
135.0698 34.6158 0.2480 19.4500
135.0869 34.6276 0.3196 19.4500
135.1041 34.6395 0.1649 19.4500
135.1213 34.6514 0.1304 19.4500
135.1384 34.6632 0.2179 19.4500
135.1556 34.6751 0.2708 19.4500
135.2608 34.7129 0.4891 1.0000
135.2429 34.7018 0.1499 1.0000
135.2250 34.6907 0.3796 1.0000
135.2071 34.6796 0.3699 1.0000
135.1892 34.6685 0.3936 1.0000
135.2589 34.7150 0.3707 3.0300
135.2410 34.7039 0.2857 3.0300
135.2231 34.6928 0.2184 3.0300
135.2052 34.6817 0.3786 3.0300
135.1873 34.6706 0.4158 3.0300
135.2571 34.7170 0.1886 5.0601
135.2392 34.7059 0.4718 5.0601
135.2213 34.6948 0.1538 5.0601
135.2034 34.6837 0.1764 5.0601
135.1855 34.6726 0.4771 5.0601
135.2552 34.7191 0.4246 7.0901
135.2373 34.7080 0.3723 7.0901
135.2194 34.6969 0.2314 7.0901
135.2015 34.6858 0.1947 7.0901
135.1836 34.6747 0.3650 7.0901
135.2533 34.7211 0.3149 9.1202
135.2354 34.7100 0.4982 9.1202
135.2175 34.6989 0.5664 9.1202
135.1996 34.6878 0.4869 9.1202
135.1817 34.6767 0.4211 9.1202
135.2514 34.7232 0.6984 11.1502
135.2335 34.7121 0.4639 11.1502
135.2156 34.7010 0.8088 11.1502
135.1977 34.6899 0.6557 11.1502
135.1798 34.6788 0.6230 11.1502
135.2496 34.7252 0.7641 13.1803
135.2317 34.7141 0.3266 13.1803
135.2138 34.7030 0.5322 13.1803
135.1959 34.6919 0.3228 13.1803
135.1780 34.6808 0.5619 13.1803
135.2477 34.7273 0.6811 15.2103
135.2298 34.7162 0.7047 15.2103
135.2119 34.7051 0.6050 15.2103
135.1940 34.6940 0.5832 15.2103
135.1761 34.6829 0.4424 15.2103
135.2458 34.7293 0.4806 17.2404
135.2279 34.7182 0.7596 17.2404
135.2100 34.7071 0.9019 17.2404
135.1921 34.6960 0.4371 17.2404
135.1742 34.6849 0.1684 17.2404
135.2439 34.7314 0.7268 19.2704
135.2260 34.7203 1.1187 19.2704
135.2081 34.7092 1.0212 19.2704
135.1902 34.6981 0.2732 19.2704
135.1723 34.6870 0.1728 19.2704
135.3457 34.7984 0.7844 1.0000
135.3319 34.7838 0.3713 1.0000
135.3181 34.7693 0.4540 1.0000
135.3043 34.7547 0.5139 1.0000
135.2905 34.7402 0.2812 1.0000
135.2767 34.7257 0.3798 1.0000
135.3432 34.7999 0.6250 3.0300
135.3294 34.7854 0.3579 3.0300
135.3156 34.7709 0.3505 3.0300
135.3018 34.7563 0.1763 3.0300
135.2880 34.7418 0.2561 3.0300
135.2742 34.7272 0.1605 3.0300
135.3408 34.8015 0.3199 5.0601
135.3270 34.7870 0.3772 5.0601
135.3132 34.7724 0.3787 5.0601
135.2994 34.7579 0.3413 5.0601
135.2856 34.7434 0.3787 5.0601
135.2718 34.7288 0.2321 5.0601
135.3383 34.8031 0.2932 7.0901
135.3245 34.7886 0.4199 7.0901
135.3107 34.7740 0.5750 7.0901
135.2969 34.7595 0.6107 7.0901
135.2831 34.7449 0.2169 7.0901
135.2693 34.7304 0.2924 7.0901
135.3358 34.8047 0.6960 9.1202
135.3220 34.7901 0.6890 9.1202
135.3082 34.7756 0.4444 9.1202
135.2944 34.7611 0.2948 9.1202
135.2806 34.7465 0.2233 9.1202
135.2668 34.7320 0.0841 9.1202
135.3334 34.8063 0.4624 11.1502
135.3196 34.7917 0.4907 11.1502
135.3058 34.7772 0.4049 11.1502
135.2920 34.7626 0.3523 11.1502
135.2782 34.7481 0.6315 11.1502
135.2644 34.7336 0.3206 11.1502
135.3309 34.8078 0.5249 13.1803
135.3171 34.7933 0.1572 13.1803
135.3033 34.7788 0.2242 13.1803
135.2895 34.7642 0.3122 13.1803
135.2757 34.7497 0.3167 13.1803
135.2619 34.7352 0.2622 13.1803
135.3285 34.8094 0.5854 15.2103
135.3147 34.7949 0.4433 15.2103
135.3009 34.7803 0.3138 15.2103
135.2871 34.7658 0.2469 15.2103
135.2733 34.7513 0.2263 15.2103
135.2595 34.7367 0.2963 15.2103
135.3260 34.8110 0.2631 17.2404
135.3122 34.7965 0.3508 17.2404
135.2984 34.7819 0.2723 17.2404
135.2846 34.7674 0.4469 17.2404
135.2708 34.7529 0.2352 17.2404
135.2570 34.7383 0.2625 17.2404
135.3235 34.8126 0.2288 19.2704
135.3097 34.7980 0.2312 19.2704
135.2959 34.7835 0.4909 19.2704
135.2822 34.7690 0.8388 19.2704
135.2684 34.7544 0.4368 19.2704
135.2546 34.7399 0.7558 19.2704
135.3255 34.7202 0.3355 1.0000
135.3031 34.7196 0.3408 1.0000
135.2807 34.7190 0.4546 1.0000
135.3254 34.7228 0.4213 3.0300
135.3030 34.7222 0.3133 3.0300
135.2806 34.7215 0.1285 3.0300
135.3253 34.7254 0.4859 5.0601
135.3029 34.7247 0.3129 5.0601
135.2805 34.7241 0.3253 5.0601
135.3251 34.7279 0.4094 7.0901
135.3027 34.7273 0.1993 7.0901
135.2803 34.7267 0.3291 7.0901
135.3250 34.7305 0.4347 9.1202
135.3026 34.7299 0.3575 9.1202
135.2802 34.7292 0.2949 9.1202
135.3249 34.7331 0.4170 11.1502
135.3025 34.7324 0.3413 11.1502
135.2801 34.7318 0.4354 11.1502
135.3248 34.7356 0.4852 13.1803
135.3024 34.7350 0.2397 13.1803
135.2800 34.7344 0.4294 13.1803
135.3247 34.7382 0.5672 15.2103
135.3023 34.7376 0.3746 15.2103
135.2799 34.7369 0.3402 15.2103
135.3246 34.7408 0.4579 17.2404
135.3022 34.7401 0.5325 17.2404
135.2798 34.7395 0.7549 17.2404
135.3245 34.7433 0.4954 19.2704
135.3021 34.7427 0.7237 19.2704
135.2797 34.7421 1.3093 19.2704
