144.0762 40.7735 0.4900 7.3900
144.0680 40.6837 0.1800 7.3900
144.0597 40.5939 0.1900 7.3900
144.0515 40.5042 0.2300 7.3900
144.0432 40.4144 0.2900 7.3900
144.0350 40.3246 0.2900 7.3900
144.0267 40.2348 0.2300 7.3900
144.0185 40.1451 0.4100 7.3900
144.0102 40.0553 0.5800 7.3900
144.0020 39.9655 0.7000 7.3900
143.9937 39.8758 0.7700 7.3900
143.9589 40.7797 0.4500 8.4353
143.9507 40.6900 0.2500 8.4353
143.9424 40.6002 0.2900 8.4353
143.9342 40.5104 0.4000 8.4353
143.9259 40.4206 0.6600 8.4353
143.9177 40.3309 0.5300 8.4353
143.9094 40.2411 0.3500 8.4353
143.9012 40.1513 0.2000 8.4353
143.8929 40.0615 0.5500 8.4353
143.8847 39.9718 0.5000 8.4353
143.8765 39.8820 0.6000 8.4353
143.8416 40.7860 0.3300 9.4806
143.8334 40.6962 0.2400 9.4806
143.8251 40.6064 0.2800 9.4806
143.8169 40.5167 0.4900 9.4806
143.8086 40.4269 1.2600 9.4806
143.8004 40.3371 1.0000 9.4806
143.7922 40.2473 0.5000 9.4806
143.7839 40.1576 0.3000 9.4806
143.7757 40.0678 0.3700 9.4806
143.7674 39.9780 0.3600 9.4806
143.7592 39.8882 0.2400 9.4806
143.7243 40.7922 0.2300 10.5259
143.7161 40.7024 0.2700 10.5259
143.7078 40.6127 0.2900 10.5259
143.6996 40.5229 0.3000 10.5259
143.6914 40.4331 0.7600 10.5259
143.6831 40.3433 0.8800 10.5259
143.6749 40.2536 0.5800 10.5259
143.6666 40.1638 0.3400 10.5259
143.6584 40.0740 0.2500 10.5259
143.6501 39.9843 0.3700 10.5259
143.6419 39.8945 0.2900 10.5259
143.6071 40.7985 0.2200 11.5711
143.5988 40.7087 0.2200 11.5711
143.5906 40.6189 0.2300 11.5711
143.5823 40.5291 0.2200 11.5711
143.5741 40.4394 0.3700 11.5711
143.5658 40.3496 0.5600 11.5711
143.5576 40.2598 0.5100 11.5711
143.5493 40.1700 0.4900 11.5711
143.5411 40.0803 0.2700 11.5711
143.5328 39.9905 0.2900 11.5711
143.5246 39.9007 0.2800 11.5711
143.4898 40.8047 0.3800 12.6164
143.4815 40.7149 0.2200 12.6164
143.4733 40.6252 0.2100 12.6164
143.4650 40.5354 0.1800 12.6164
143.4568 40.4456 0.1900 12.6164
143.4485 40.3558 0.2600 12.6164
143.4403 40.2661 0.6000 12.6164
143.4320 40.1763 1.0900 12.6164
143.4238 40.0865 0.5200 12.6164
143.4155 39.9967 0.2900 12.6164
143.4073 39.9070 0.2900 12.6164
143.3725 40.8109 0.8100 13.6617
143.3642 40.7212 0.4700 13.6617
143.3560 40.6314 0.2500 13.6617
143.3477 40.5416 0.2100 13.6617
143.3395 40.4519 0.2500 13.6617
143.3312 40.3621 0.6900 13.6617
143.3230 40.2723 1.6900 13.6617
143.3147 40.1825 2.0900 13.6617
143.3065 40.0928 1.0700 13.6617
143.2982 40.0030 0.4600 13.6617
143.2900 39.9132 0.5800 13.6617
143.2552 40.8172 1.2400 14.7070
143.2469 40.7274 1.1800 14.7070
143.2387 40.6376 1.0600 14.7070
143.2304 40.5479 1.2300 14.7070
143.2222 40.4581 1.7100 14.7070
143.2139 40.3683 2.5900 14.7070
143.2057 40.2785 3.4500 14.7070
143.1974 40.1888 2.7600 14.7070
143.1892 40.0990 1.0800 14.7070
143.1810 40.0092 0.6900 14.7070
143.1727 39.9195 1.0300 14.7070
143.1379 40.8234 1.1100 15.7523
143.1296 40.7337 1.6700 15.7523
143.1214 40.6439 2.5100 15.7523
143.1131 40.5541 3.2500 15.7523
143.1049 40.4643 3.7600 15.7523
143.0967 40.3746 4.0300 15.7523
143.0884 40.2848 3.4700 15.7523
143.0802 40.1950 1.8200 15.7523
143.0719 40.1052 0.4400 15.7523
143.0637 40.0155 0.8500 15.7523
143.0554 39.9257 0.8600 15.7523
143.0206 40.8297 0.9900 16.7976
143.0123 40.7399 1.1700 16.7976
143.0041 40.6501 1.7200 16.7976
142.9959 40.5604 2.2700 16.7976
142.9876 40.4706 2.3100 16.7976
142.9794 40.3808 1.9400 16.7976
142.9711 40.2910 1.2400 16.7976
142.9629 40.2013 0.5000 16.7976
142.9546 40.1115 0.1900 16.7976
142.9464 40.0217 0.7800 16.7976
142.9381 39.9319 0.5900 16.7976
142.9033 40.8359 0.7800 17.8428
142.8951 40.7461 0.7200 17.8428
142.8868 40.6564 0.7500 17.8428
142.8786 40.5666 0.8200 17.8428
142.8703 40.4768 0.6800 17.8428
142.8621 40.3871 0.3700 17.8428
142.8538 40.2973 0.2800 17.8428
142.8456 40.2075 0.1600 17.8428
142.8373 40.1177 0.2400 17.8428
142.8291 40.0280 0.5000 17.8428
142.8208 39.9382 0.2900 17.8428
142.7860 40.8422 0.5100 18.8881
142.7778 40.7524 0.6300 18.8881
142.7695 40.6626 0.8200 18.8881
142.7613 40.5728 0.6700 18.8881
142.7530 40.4831 0.3700 18.8881
142.7448 40.3933 0.2100 18.8881
142.7365 40.3035 0.1900 18.8881
142.7283 40.2137 0.2100 18.8881
142.7200 40.1240 0.4800 18.8881
142.7118 40.0342 0.4700 18.8881
142.7035 39.9444 0.2100 18.8881
142.6687 40.8484 0.5800 19.9334
142.6605 40.7586 0.5500 19.9334
142.6522 40.6689 0.5400 19.9334
142.6440 40.5791 0.4800 19.9334
142.6357 40.4893 0.3900 19.9334
142.6275 40.3995 0.2100 19.9334
142.6192 40.3098 0.2300 19.9334
142.6110 40.2200 0.3700 19.9334
142.6027 40.1302 0.5000 19.9334
142.5945 40.0404 0.3900 19.9334
142.5863 39.9507 0.2100 19.9334
142.5514 40.8546 0.7000 20.9787
142.5432 40.7649 0.3900 20.9787
142.5349 40.6751 0.3200 20.9787
142.5267 40.5853 0.3400 20.9787
142.5184 40.4956 0.3000 20.9787
142.5102 40.4058 0.1700 20.9787
142.5020 40.3160 0.2000 20.9787
142.4937 40.2262 0.2600 20.9787
142.4855 40.1365 0.2400 20.9787
142.4772 40.0467 0.2000 20.9787
142.4690 39.9569 0.1700 20.9787
