139.7222 43.1779 1.7282 0.0800
139.6840 43.1009 2.1704 0.0800
139.6458 43.0240 1.5415 0.0800
139.6076 42.9470 0.6254 0.0800
139.5694 42.8700 0.5295 0.0800
139.5313 42.7931 0.1451 0.0800
139.4931 42.7161 0.1538 0.0800
139.4549 42.6392 0.6390 0.0800
139.4167 42.5622 1.1521 0.0800
139.3785 42.4853 1.4471 0.0800
139.3403 42.4083 1.1370 0.0800
139.3022 42.3314 0.7329 0.0800
139.6608 43.1943 1.5359 3.1550
139.6226 43.1173 1.7877 3.1550
139.5844 43.0403 2.1815 3.1550
139.5462 42.9634 1.6145 3.1550
139.5080 42.8864 1.7783 3.1550
139.4699 42.8095 1.7140 3.1550
139.4317 42.7325 1.4403 3.1550
139.3935 42.6556 1.4741 3.1550
139.3553 42.5786 1.7628 3.1550
139.3171 42.5017 2.3428 3.1550
139.2790 42.4247 2.5907 3.1550
139.2408 42.3478 1.0975 3.1550
139.5994 43.2107 0.8732 6.2300
139.5612 43.1337 1.8488 6.2300
139.5230 43.0567 1.7008 6.2300
139.4848 42.9798 1.2548 6.2300
139.4466 42.9028 1.3204 6.2300
139.4085 42.8259 1.6705 6.2300
139.3703 42.7489 1.0952 6.2300
139.3321 42.6720 0.8411 6.2300
139.2939 42.5950 0.9074 6.2300
139.2557 42.5181 1.1524 6.2300
139.2176 42.4411 1.0794 6.2300
139.1794 42.3642 0.1256 6.2300
139.5380 43.2270 0.5734 9.3050
139.4998 43.1501 1.0750 9.3050
139.4616 43.0731 0.5337 9.3050
139.4234 42.9962 0.3073 9.3050
139.3852 42.9192 0.4263 9.3050
139.3471 42.8423 1.3368 9.3050
139.3089 42.7653 1.3052 9.3050
139.2707 42.6884 0.6174 9.3050
139.2325 42.6114 0.0708 9.3050
139.1943 42.5345 0.0513 9.3050
139.1562 42.4575 0.0994 9.3050
139.1180 42.3805 0.0149 9.3050
139.4766 43.2434 0.1635 12.3800
139.4384 43.1665 0.1105 12.3800
139.4002 43.0895 0.0803 12.3800
139.3620 43.0126 0.0172 12.3800
139.3238 42.9356 1.2553 12.3800
139.2857 42.8587 3.4519 12.3800
139.2475 42.7817 3.2509 12.3800
139.2093 42.7048 2.2317 12.3800
139.1711 42.6278 0.4965 12.3800
139.1329 42.5508 0.1975 12.3800
139.0948 42.4739 0.0008 12.3800
139.0566 42.3969 0.0693 12.3800
139.4152 43.2598 0.1389 15.4550
139.3770 43.1829 0.1083 15.4550
139.3388 43.1059 0.0061 15.4550
139.3006 43.0290 0.1128 15.4550
139.2624 42.9520 1.8626 15.4550
139.2243 42.8751 4.8911 15.4550
139.1861 42.7981 5.9537 15.4550
139.1479 42.7211 4.5383 15.4550
139.1097 42.6442 1.7454 15.4550
139.0715 42.5672 0.4585 15.4550
139.0334 42.4903 0.0199 15.4550
138.9952 42.4133 0.0633 15.4550
139.3538 43.2762 0.0179 18.5300
139.3156 43.1993 0.0351 18.5300
139.2774 43.1223 0.0999 18.5300
139.2392 43.0454 0.4896 18.5300
139.2011 42.9684 2.3885 18.5300
139.1629 42.8915 5.1115 18.5300
139.1247 42.8145 6.6527 18.5300
139.0865 42.7375 4.7555 18.5300
139.0483 42.6606 1.7158 18.5300
139.0101 42.5836 0.0952 18.5300
138.9720 42.5067 0.0363 18.5300
138.9338 42.4297 0.1374 18.5300
139.2924 43.2926 0.0292 21.6050
139.2542 43.2157 0.0767 21.6050
139.2160 43.1387 0.0209 21.6050
139.1778 43.0618 0.0098 21.6050
139.1397 42.9848 1.2962 21.6050
139.1015 42.9078 2.9734 21.6050
139.0633 42.8309 3.4813 21.6050
139.0251 42.7539 2.3007 21.6050
138.9869 42.6770 1.0142 21.6050
138.9487 42.6000 0.0463 21.6050
138.9106 42.5231 0.1080 21.6050
138.8724 42.4461 0.0899 21.6050
139.2310 43.3090 0.0347 24.6800
139.1928 43.2321 0.0242 24.6800
139.1546 43.1551 0.0076 24.6800
139.1164 43.0781 0.0103 24.6800
139.0783 43.0012 0.1739 24.6800
139.0401 42.9242 0.0553 24.6800
139.0019 42.8473 0.3692 24.6800
138.9637 42.7703 0.0300 24.6800
138.9255 42.6934 0.0615 24.6800
138.8874 42.6164 0.0155 24.6800
138.8492 42.5395 0.0847 24.6800
138.8110 42.4625 0.0798 24.6800
139.1696 43.3254 0.0689 27.7550
139.1314 43.2485 0.0001 27.7550
139.0932 43.1715 0.0054 27.7550
139.0550 43.0945 0.0169 27.7550
139.0169 43.0176 0.0063 27.7550
138.9787 42.9406 0.0426 27.7550
138.9405 42.8637 0.0233 27.7550
138.9023 42.7867 0.2909 27.7550
138.8641 42.7098 0.0443 27.7550
138.8260 42.6328 0.0554 27.7550
138.7878 42.5559 0.0153 27.7550
138.7496 42.4789 0.0199 27.7550
139.1082 43.3418 0.0041 30.8300
139.0700 43.2648 0.0172 30.8300
139.0318 43.1879 0.0577 30.8300
138.9936 43.1109 0.2193 30.8300
138.9555 43.0340 0.0186 30.8300
138.9173 42.9570 0.0277 30.8300
138.8791 42.8801 0.0273 30.8300
138.8409 42.8031 0.0591 30.8300
138.8027 42.7262 0.0340 30.8300
138.7646 42.6492 0.0695 30.8300
138.7264 42.5723 0.0215 30.8300
138.6882 42.4953 0.2938 30.8300
139.0468 43.3582 0.0071 33.9050
139.0086 43.2812 0.0147 33.9050
138.9704 43.2043 0.0041 33.9050
138.9322 43.1273 0.7700 33.9050
138.8941 43.0504 0.7464 33.9050
138.8559 42.9734 0.1500 33.9050
138.8177 42.8965 0.0756 33.9050
138.7795 42.8195 0.1180 33.9050
138.7413 42.7426 0.0268 33.9050
138.7032 42.6656 0.0057 33.9050
138.6650 42.5886 0.0068 33.9050
138.6268 42.5117 0.5979 33.9050
139.2234 42.4199 0.9180 0.0800
139.2615 42.3429 1.8095 0.0800
139.2997 42.2660 1.7774 0.0800
139.3379 42.1890 1.8774 0.0800
139.3761 42.1121 2.3028 0.0800
139.4143 42.0351 2.5615 0.0800
139.4525 41.9581 2.3749 0.0800
139.4906 41.8812 1.7518 0.0800
139.5288 41.8042 1.1593 0.0800
139.5670 41.7273 0.5305 0.0800
139.1620 42.4035 1.4987 3.1550
139.2002 42.3265 2.3497 3.1550
139.2383 42.2496 2.4450 3.1550
139.2765 42.1726 2.2834 3.1550
139.3147 42.0957 1.8018 3.1550
139.3529 42.0187 1.3959 3.1550
139.3911 41.9418 1.1371 3.1550
139.4292 41.8648 1.0683 3.1550
139.4674 41.7878 0.2178 3.1550
139.5056 41.7109 0.0101 3.1550
139.1006 42.3871 0.3231 6.2300
139.1388 42.3101 0.7805 6.2300
139.1769 42.2332 1.2813 6.2300
139.2151 42.1562 1.2866 6.2300
139.2533 42.0793 0.5695 6.2300
139.2915 42.0023 0.2405 6.2300
139.3297 41.9254 0.2430 6.2300
139.3678 41.8484 0.0193 6.2300
139.4060 41.7715 0.0595 6.2300
139.4442 41.6945 0.1508 6.2300
139.0392 42.3707 0.0185 9.3050
139.0774 42.2937 0.0103 9.3050
139.1155 42.2168 0.2215 9.3050
139.1537 42.1398 0.1637 9.3050
139.1919 42.0629 0.0311 9.3050
139.2301 41.9859 0.0552 9.3050
139.2683 41.9090 0.0247 9.3050
139.3064 41.8320 0.0110 9.3050
139.3446 41.7551 0.0189 9.3050
139.3828 41.6781 0.0383 9.3050
138.9778 42.3543 0.2079 12.3800
139.0160 42.2773 0.0884 12.3800
139.0541 42.2004 0.0060 12.3800
139.0923 42.1234 0.0107 12.3800
139.1305 42.0465 0.1377 12.3800
139.1687 41.9695 0.1306 12.3800
139.2069 41.8926 0.0728 12.3800
139.2450 41.8156 0.0234 12.3800
139.2832 41.7387 0.0038 12.3800
139.3214 41.6617 0.1466 12.3800
138.9164 42.3379 0.0665 15.4550
138.9546 42.2610 0.1396 15.4550
138.9927 42.1840 0.0197 15.4550
139.0309 42.1070 0.1195 15.4550
139.0691 42.0301 0.5882 15.4550
139.1073 41.9531 0.1496 15.4550
139.1455 41.8762 0.5492 15.4550
139.1837 41.7992 0.0192 15.4550
139.2218 41.7223 0.0291 15.4550
139.2600 41.6453 0.0598 15.4550
138.8550 42.3215 0.0274 18.5300
138.8932 42.2446 0.0872 18.5300
138.9313 42.1676 0.0897 18.5300
138.9695 42.0907 0.3113 18.5300
139.0077 42.0137 0.6715 18.5300
139.0459 41.9367 0.1986 18.5300
139.0841 41.8598 0.7664 18.5300
139.1223 41.7828 0.0000 18.5300
139.1604 41.7059 0.0056 18.5300
139.1986 41.6289 0.0722 18.5300
138.7936 42.3051 0.0623 21.6050
138.8318 42.2282 0.4985 21.6050
138.8700 42.1512 1.0951 21.6050
138.9081 42.0743 0.8730 21.6050
138.9463 41.9973 1.3273 21.6050
138.9845 41.9204 0.6585 21.6050
139.0227 41.8434 0.7682 21.6050
139.0609 41.7664 0.0138 21.6050
139.0990 41.6895 0.0107 21.6050
139.1372 41.6125 0.0946 21.6050
138.7322 42.2887 0.2132 24.6800
138.7704 42.2118 0.9562 24.6800
138.8086 42.1348 1.3093 24.6800
138.8467 42.0579 0.7605 24.6800
138.8849 41.9809 0.7266 24.6800
138.9231 41.9040 0.1422 24.6800
138.9613 41.8270 0.5434 24.6800
138.9995 41.7500 0.0440 24.6800
139.0376 41.6731 0.0025 24.6800
139.0758 41.5961 0.0455 24.6800
138.6708 42.2723 0.3391 27.7550
138.7090 42.1954 1.5401 27.7550
138.7472 42.1184 1.0184 27.7550
138.7853 42.0415 0.7716 27.7550
138.8235 41.9645 0.8532 27.7550
138.8617 41.8876 0.0199 27.7550
138.8999 41.8106 0.7748 27.7550
138.9381 41.7337 0.0060 27.7550
138.9762 41.6567 0.0414 27.7550
139.0144 41.5797 0.0876 27.7550
138.6094 42.2559 1.2737 30.8300
138.6476 42.1790 1.4321 30.8300
138.6858 42.1020 0.0216 30.8300
138.7239 42.0251 0.0969 30.8300
138.7621 41.9481 0.4162 30.8300
138.8003 41.8712 0.0156 30.8300
138.8385 41.7942 0.4652 30.8300
138.8767 41.7173 0.0821 30.8300
138.9148 41.6403 0.0060 30.8300
138.9530 41.5634 0.0852 30.8300
138.5480 42.2396 0.9808 33.9050
138.5862 42.1626 0.9150 33.9050
138.6244 42.0856 0.0087 33.9050
138.6625 42.0087 0.0205 33.9050
138.7007 41.9317 0.1477 33.9050
138.7389 41.8548 0.0344 33.9050
138.7771 41.7778 0.1395 33.9050
138.8153 41.7009 0.0219 33.9050
138.8534 41.6239 0.0430 33.9050
138.8916 41.5470 0.0442 33.9050
