-116.4222 34.1070 0.3200 0.0000
-116.4250 34.1339 0.5400 0.0000
-116.4279 34.1608 0.0000 0.0000
-116.4307 34.1877 0.8700 0.0000
-116.4336 34.2146 2.1800 0.0000
-116.4364 34.2414 2.5100 0.0000
-116.4393 34.2683 2.4000 0.0000
-116.4421 34.2952 3.3800 0.0000
-116.4450 34.3221 2.1800 0.0000
-116.4478 34.3490 3.3800 0.0000
-116.4222 34.1070 0.0100 2.5000
-116.4250 34.1339 0.4000 2.5000
-116.4279 34.1608 3.8900 2.5000
-116.4307 34.1877 5.7800 2.5000
-116.4336 34.2146 2.3000 2.5000
-116.4364 34.2414 0.0000 2.5000
-116.4393 34.2683 0.2500 2.5000
-116.4421 34.2952 1.3300 2.5000
-116.4450 34.3221 3.4000 2.5000
-116.4478 34.3490 5.8900 2.5000
-116.4222 34.1070 0.0000 5.0000
-116.4250 34.1339 0.1000 5.0000
-116.4279 34.1608 1.1900 5.0000
-116.4307 34.1877 3.2100 5.0000
-116.4336 34.2146 2.1500 5.0000
-116.4364 34.2414 1.2900 5.0000
-116.4393 34.2683 1.6400 5.0000
-116.4421 34.2952 2.0400 5.0000
-116.4450 34.3221 3.2100 5.0000
-116.4478 34.3490 4.7200 5.0000
-116.4222 34.1070 0.0000 7.5000
-116.4250 34.1339 0.0800 7.5000
-116.4279 34.1608 0.4900 7.5000
-116.4307 34.1877 1.0600 7.5000
-116.4336 34.2146 1.4400 7.5000
-116.4364 34.2414 1.6600 7.5000
-116.4393 34.2683 1.8100 7.5000
-116.4421 34.2952 1.9400 7.5000
-116.4450 34.3221 2.7200 7.5000
-116.4478 34.3490 3.2200 7.5000
-116.4222 34.1070 0.0900 10.0000
-116.4250 34.1339 0.0100 10.0000
-116.4279 34.1608 0.1400 10.0000
-116.4307 34.1877 0.2300 10.0000
-116.4336 34.2146 0.5300 10.0000
-116.4364 34.2414 1.2200 10.0000
-116.4393 34.2683 1.5200 10.0000
-116.4421 34.2952 1.5300 10.0000
-116.4450 34.3221 2.4600 10.0000
-116.4478 34.3490 2.9300 10.0000
-116.4222 34.1070 0.6000 12.5000
-116.4250 34.1339 0.1300 12.5000
-116.4279 34.1608 0.0000 12.5000
-116.4307 34.1877 0.0000 12.5000
-116.4336 34.2146 0.1900 12.5000
-116.4364 34.2414 0.8200 12.5000
-116.4393 34.2683 1.2300 12.5000
-116.4421 34.2952 1.6400 12.5000
-116.4450 34.3221 2.8900 12.5000
-116.4478 34.3490 1.4200 12.5000
-116.4228 34.3179 0.0000 0.0000
-116.4371 34.3422 1.0800 0.0000
-116.4514 34.3665 3.8500 0.0000
-116.4657 34.3907 3.4900 0.0000
-116.4800 34.4150 3.6100 0.0000
-116.4943 34.4393 3.7300 0.0000
-116.5086 34.4635 3.6100 0.0000
-116.5229 34.4878 2.6000 0.0000
-116.5372 34.5121 0.4800 0.0000
-116.4228 34.3179 3.2300 2.5000
-116.4371 34.3422 0.8600 2.5000
-116.4514 34.3665 0.8400 2.5000
-116.4657 34.3907 7.8700 2.5000
-116.4800 34.4150 2.3200 2.5000
-116.4943 34.4393 3.0500 2.5000
-116.5086 34.4635 7.0500 2.5000
-116.5229 34.4878 4.7600 2.5000
-116.5372 34.5121 3.2000 2.5000
-116.4228 34.3179 1.9700 5.0000
-116.4371 34.3422 0.8900 5.0000
-116.4514 34.3665 0.7900 5.0000
-116.4657 34.3907 1.8000 5.0000
-116.4800 34.4150 1.9100 5.0000
-116.4943 34.4393 4.6600 5.0000
-116.5086 34.4635 6.9200 5.0000
-116.5229 34.4878 5.1400 5.0000
-116.5372 34.5121 5.0200 5.0000
-116.4228 34.3179 1.2100 7.5000
-116.4371 34.3422 0.8200 7.5000
-116.4514 34.3665 0.8000 7.5000
-116.4657 34.3907 0.9500 7.5000
-116.4800 34.4150 2.5800 7.5000
-116.4943 34.4393 5.1400 7.5000
-116.5086 34.4635 6.3600 7.5000
-116.5229 34.4878 5.5400 7.5000
-116.5372 34.5121 5.3100 7.5000
-116.4228 34.3179 1.0000 10.0000
-116.4371 34.3422 0.8800 10.0000
-116.4514 34.3665 1.1000 10.0000
-116.4657 34.3907 1.6900 10.0000
-116.4800 34.4150 3.2000 10.0000
-116.4943 34.4393 4.6500 10.0000
-116.5086 34.4635 4.9800 10.0000
-116.5229 34.4878 5.1000 10.0000
-116.5372 34.5121 5.4000 10.0000
-116.4228 34.3179 1.5700 12.5000
-116.4371 34.3422 1.6300 12.5000
-116.4514 34.3665 2.0300 12.5000
-116.4657 34.3907 2.7600 12.5000
-116.4800 34.4150 3.9600 12.5000
-116.4943 34.4393 4.8300 12.5000
-116.5086 34.4635 4.8000 12.5000
-116.5229 34.4878 5.2300 12.5000
-116.5372 34.5121 1.5300 12.5000
-116.4746 34.4583 0.0000 0.0000
-116.4956 34.4789 0.5500 0.0000
-116.5166 34.4996 3.9400 0.0000
-116.5375 34.5203 5.6700 0.0000
-116.5585 34.5410 6.3100 0.0000
-116.5795 34.5617 4.7600 0.0000
-116.6005 34.5823 5.1200 0.0000
-116.6215 34.6030 4.1200 0.0000
-116.6425 34.6237 1.8300 0.0000
-116.6634 34.6444 0.8200 0.0000
-116.6844 34.6651 1.1000 0.0000
-116.7054 34.6857 0.8200 0.0000
-116.4746 34.4583 0.3300 2.5000
-116.4956 34.4789 0.0000 2.5000
-116.5166 34.4996 0.4500 2.5000
-116.5375 34.5203 2.8000 2.5000
-116.5585 34.5410 6.5700 2.5000
-116.5795 34.5617 5.2500 2.5000
-116.6005 34.5823 3.3700 2.5000
-116.6215 34.6030 1.9000 2.5000
-116.6425 34.6237 1.4700 2.5000
-116.6634 34.6444 1.7700 2.5000
-116.6844 34.6651 3.9400 2.5000
-116.7054 34.6857 0.4300 2.5000
-116.4746 34.4583 1.0300 5.0000
-116.4956 34.4789 0.0200 5.0000
-116.5166 34.4996 0.3100 5.0000
-116.5375 34.5203 1.4900 5.0000
-116.5585 34.5410 4.3000 5.0000
-116.5795 34.5617 4.1000 5.0000
-116.6005 34.5823 2.6500 5.0000
-116.6215 34.6030 1.9100 5.0000
-116.6425 34.6237 1.4100 5.0000
-116.6634 34.6444 0.8500 5.0000
-116.6844 34.6651 0.3700 5.0000
-116.7054 34.6857 0.0000 5.0000
-116.4746 34.4583 1.1800 7.5000
-116.4956 34.4789 0.0000 7.5000
-116.5166 34.4996 0.1900 7.5000
-116.5375 34.5203 0.6300 7.5000
-116.5585 34.5410 2.6500 7.5000
-116.5795 34.5617 2.9300 7.5000
-116.6005 34.5823 1.9000 7.5000
-116.6215 34.6030 1.4400 7.5000
-116.6425 34.6237 0.9800 7.5000
-116.6634 34.6444 0.4700 7.5000
-116.6844 34.6651 0.1200 7.5000
-116.7054 34.6857 0.0000 7.5000
-116.4746 34.4583 1.2900 10.0000
-116.4956 34.4789 0.0100 10.0000
-116.5166 34.4996 0.0700 10.0000
-116.5375 34.5203 0.5500 10.0000
-116.5585 34.5410 1.9500 10.0000
-116.5795 34.5617 2.1800 10.0000
-116.6005 34.5823 1.2500 10.0000
-116.6215 34.6030 0.8500 10.0000
-116.6425 34.6237 0.4800 10.0000
-116.6634 34.6444 0.1700 10.0000
-116.6844 34.6651 0.0600 10.0000
-116.7054 34.6857 0.0000 10.0000
-116.4746 34.4583 0.6500 12.5000
-116.4956 34.4789 0.4200 12.5000
-116.5166 34.4996 0.2900 12.5000
-116.5375 34.5203 0.9100 12.5000
-116.5585 34.5410 1.7100 12.5000
-116.5795 34.5617 1.8500 12.5000
-116.6005 34.5823 1.0400 12.5000
-116.6215 34.6030 0.3900 12.5000
-116.6425 34.6237 0.1800 12.5000
-116.6634 34.6444 0.0400 12.5000
-116.6844 34.6651 0.0300 12.5000
-116.7054 34.6857 0.0000 12.5000
