137.6434 36.2305 0.0000 1.6570
137.6406 36.2307 0.0000 1.6570
137.6378 36.2309 0.0000 1.6570
137.6350 36.2310 0.0000 1.6570
137.6322 36.2312 0.0000 1.6570
137.6295 36.2313 0.0000 1.6570
137.6267 36.2315 0.0000 1.6570
137.6239 36.2316 0.0000 1.6570
137.6211 36.2318 0.0000 1.6570
137.6183 36.2320 0.0000 1.6570
137.6156 36.2321 0.0000 1.6570
137.6128 36.2323 0.0000 1.6570
137.6100 36.2324 0.0000 1.6570
137.6072 36.2326 0.0000 1.6570
137.6044 36.2327 0.0000 1.6570
137.6016 36.2329 0.0000 1.6570
137.6434 36.2311 0.0000 1.9006
137.6406 36.2312 0.0287 1.9006
137.6379 36.2314 0.0392 1.9006
137.6351 36.2315 0.0237 1.9006
137.6323 36.2317 0.0158 1.9006
137.6295 36.2318 0.0218 1.9006
137.6267 36.2320 0.0248 1.9006
137.6239 36.2321 0.0280 1.9006
137.6212 36.2323 0.0381 1.9006
137.6184 36.2325 0.0418 1.9006
137.6156 36.2326 0.0354 1.9006
137.6128 36.2328 0.0248 1.9006
137.6100 36.2329 0.0253 1.9006
137.6073 36.2331 0.0276 1.9006
137.6045 36.2332 0.0207 1.9006
137.6017 36.2334 0.0000 1.9006
137.6435 36.2316 0.0000 2.1442
137.6407 36.2317 0.0233 2.1442
137.6379 36.2319 0.0345 2.1442
137.6351 36.2320 0.0249 2.1442
137.6323 36.2322 0.0146 2.1442
137.6296 36.2323 0.0230 2.1442
137.6268 36.2325 0.0397 2.1442
137.6240 36.2327 0.0409 2.1442
137.6212 36.2328 0.0411 2.1442
137.6184 36.2330 0.0429 2.1442
137.6156 36.2331 0.0314 2.1442
137.6129 36.2333 0.0192 2.1442
137.6101 36.2334 0.0174 2.1442
137.6073 36.2336 0.0264 2.1442
137.6045 36.2338 0.0161 2.1442
137.6017 36.2339 0.0000 2.1442
137.6435 36.2321 0.0000 2.3878
137.6407 36.2322 0.0263 2.3878
137.6379 36.2324 0.0363 2.3878
137.6352 36.2325 0.0244 2.3878
137.6324 36.2327 0.0131 2.3878
137.6296 36.2328 0.0297 2.3878
137.6268 36.2330 0.0481 2.3878
137.6240 36.2332 0.0504 2.3878
137.6213 36.2333 0.0435 2.3878
137.6185 36.2335 0.0385 2.3878
137.6157 36.2336 0.0248 2.3878
137.6129 36.2338 0.0119 2.3878
137.6101 36.2339 0.0123 2.3878
137.6073 36.2341 0.0169 2.3878
137.6046 36.2343 0.0150 2.3878
137.6018 36.2344 0.0000 2.3878
137.6436 36.2326 0.0000 2.6314
137.6408 36.2327 0.0205 2.6314
137.6380 36.2329 0.0305 2.6314
137.6352 36.2330 0.0213 2.6314
137.6324 36.2332 0.0121 2.6314
137.6296 36.2333 0.0331 2.6314
137.6269 36.2335 0.0492 2.6314
137.6241 36.2337 0.0556 2.6314
137.6213 36.2338 0.0446 2.6314
137.6185 36.2340 0.0351 2.6314
137.6157 36.2341 0.0240 2.6314
137.6129 36.2343 0.0088 2.6314
137.6102 36.2344 0.0078 2.6314
137.6074 36.2346 0.0147 2.6314
137.6046 36.2348 0.0107 2.6314
137.6018 36.2349 0.0000 2.6314
137.6436 36.2331 0.0000 2.8750
137.6408 36.2332 0.0239 2.8750
137.6380 36.2334 0.0280 2.8750
137.6353 36.2335 0.0190 2.8750
137.6325 36.2337 0.0129 2.8750
137.6297 36.2339 0.0319 2.8750
137.6269 36.2340 0.0466 2.8750
137.6241 36.2342 0.0517 2.8750
137.6213 36.2343 0.0379 2.8750
137.6186 36.2345 0.0310 2.8750
137.6158 36.2346 0.0192 2.8750
137.6130 36.2348 0.0110 2.8750
137.6102 36.2350 0.0052 2.8750
137.6074 36.2351 0.0082 2.8750
137.6046 36.2353 0.0067 2.8750
137.6019 36.2354 0.0000 2.8750
137.6436 36.2336 0.0000 3.1186
137.6409 36.2337 0.0190 3.1186
137.6381 36.2339 0.0266 3.1186
137.6353 36.2340 0.0234 3.1186
137.6325 36.2342 0.0148 3.1186
137.6297 36.2344 0.0340 3.1186
137.6269 36.2345 0.0495 3.1186
137.6242 36.2347 0.0484 3.1186
137.6214 36.2348 0.0389 3.1186
137.6186 36.2350 0.0348 3.1186
137.6158 36.2351 0.0200 3.1186
137.6130 36.2353 0.0092 3.1186
137.6103 36.2355 0.0049 3.1186
137.6075 36.2356 0.0063 3.1186
137.6047 36.2358 0.0091 3.1186
137.6019 36.2359 0.0000 3.1186
137.6437 36.2341 0.0000 3.3621
137.6409 36.2342 0.0153 3.3621
137.6381 36.2344 0.0253 3.3621
137.6353 36.2346 0.0227 3.3621
137.6326 36.2347 0.0157 3.3621
137.6298 36.2349 0.0383 3.3621
137.6270 36.2350 0.0521 3.3621
137.6242 36.2352 0.0483 3.3621
137.6214 36.2353 0.0376 3.3621
137.6186 36.2355 0.0395 3.3621
137.6159 36.2356 0.0181 3.3621
137.6131 36.2358 0.0094 3.3621
137.6103 36.2360 0.0038 3.3621
137.6075 36.2361 0.0048 3.3621
137.6047 36.2363 0.0096 3.3621
137.6019 36.2364 0.0000 3.3621
137.6437 36.2346 0.0000 3.6057
137.6409 36.2347 0.0129 3.6057
137.6382 36.2349 0.0216 3.6057
137.6354 36.2351 0.0167 3.6057
137.6326 36.2352 0.0137 3.6057
137.6298 36.2354 0.0363 3.6057
137.6270 36.2355 0.0540 3.6057
137.6243 36.2357 0.0470 3.6057
137.6215 36.2358 0.0403 3.6057
137.6187 36.2360 0.0323 3.6057
137.6159 36.2362 0.0129 3.6057
137.6131 36.2363 0.0092 3.6057
137.6103 36.2365 0.0036 3.6057
137.6076 36.2366 0.0032 3.6057
137.6048 36.2368 0.0091 3.6057
137.6020 36.2369 0.0000 3.6057
137.6438 36.2351 0.0000 3.8493
137.6410 36.2352 0.0136 3.8493
137.6382 36.2354 0.0185 3.8493
137.6354 36.2356 0.0145 3.8493
137.6326 36.2357 0.0177 3.8493
137.6299 36.2359 0.0353 3.8493
137.6271 36.2360 0.0508 3.8493
137.6243 36.2362 0.0503 3.8493
137.6215 36.2363 0.0381 3.8493
137.6187 36.2365 0.0230 3.8493
137.6159 36.2367 0.0093 3.8493
137.6132 36.2368 0.0103 3.8493
137.6104 36.2370 0.0045 3.8493
137.6076 36.2371 0.0015 3.8493
137.6048 36.2373 0.0060 3.8493
137.6020 36.2374 0.0000 3.8493
137.6438 36.2356 0.0000 4.0929
137.6410 36.2358 0.0104 4.0929
137.6383 36.2359 0.0145 4.0929
137.6355 36.2361 0.0165 4.0929
137.6327 36.2362 0.0209 4.0929
137.6299 36.2364 0.0328 4.0929
137.6271 36.2365 0.0478 4.0929
137.6243 36.2367 0.0419 4.0929
137.6216 36.2369 0.0274 4.0929
137.6188 36.2370 0.0154 4.0929
137.6160 36.2372 0.0075 4.0929
137.6132 36.2373 0.0065 4.0929
137.6104 36.2375 0.0024 4.0929
137.6076 36.2376 0.0029 4.0929
137.6049 36.2378 0.0056 4.0929
137.6021 36.2379 0.0000 4.0929
137.6439 36.2361 0.0000 4.3365
137.6411 36.2363 0.0092 4.3365
137.6383 36.2364 0.0136 4.3365
137.6355 36.2366 0.0182 4.3365
137.6327 36.2367 0.0248 4.3365
137.6299 36.2369 0.0331 4.3365
137.6272 36.2370 0.0415 4.3365
137.6244 36.2372 0.0335 4.3365
137.6216 36.2374 0.0237 4.3365
137.6188 36.2375 0.0159 4.3365
137.6160 36.2377 0.0072 4.3365
137.6133 36.2378 0.0068 4.3365
137.6105 36.2380 0.0045 4.3365
137.6077 36.2381 0.0034 4.3365
137.6049 36.2383 0.0059 4.3365
137.6021 36.2385 0.0000 4.3365
137.6439 36.2366 0.0000 4.5801
137.6411 36.2368 0.0062 4.5801
137.6383 36.2369 0.0135 4.5801
137.6356 36.2371 0.0247 4.5801
137.6328 36.2372 0.0276 4.5801
137.6300 36.2374 0.0265 4.5801
137.6272 36.2375 0.0367 4.5801
137.6244 36.2377 0.0345 4.5801
137.6216 36.2379 0.0293 4.5801
137.6189 36.2380 0.0237 4.5801
137.6161 36.2382 0.0125 4.5801
137.6133 36.2383 0.0060 4.5801
137.6105 36.2385 0.0059 4.5801
137.6077 36.2386 0.0063 4.5801
137.6050 36.2388 0.0059 4.5801
137.6022 36.2390 0.0000 4.5801
137.6439 36.2371 0.0000 4.8237
137.6412 36.2373 0.0047 4.8237
137.6384 36.2374 0.0177 4.8237
137.6356 36.2376 0.0269 4.8237
137.6328 36.2377 0.0279 4.8237
137.6300 36.2379 0.0218 4.8237
137.6273 36.2381 0.0345 4.8237
137.6245 36.2382 0.0378 4.8237
137.6217 36.2384 0.0370 4.8237
137.6189 36.2385 0.0358 4.8237
137.6161 36.2387 0.0190 4.8237
137.6133 36.2388 0.0084 4.8237
137.6106 36.2390 0.0096 4.8237
137.6078 36.2391 0.0087 4.8237
137.6050 36.2393 0.0093 4.8237
137.6022 36.2395 0.0000 4.8237
137.6440 36.2376 0.0000 5.0673
137.6412 36.2378 0.0015 5.0673
137.6384 36.2379 0.0148 5.0673
137.6356 36.2381 0.0256 5.0673
137.6329 36.2382 0.0240 5.0673
137.6301 36.2384 0.0170 5.0673
137.6273 36.2386 0.0250 5.0673
137.6245 36.2387 0.0307 5.0673
137.6217 36.2389 0.0347 5.0673
137.6190 36.2390 0.0333 5.0673
137.6162 36.2392 0.0181 5.0673
137.6134 36.2393 0.0088 5.0673
137.6106 36.2395 0.0117 5.0673
137.6078 36.2397 0.0110 5.0673
137.6050 36.2398 0.0079 5.0673
137.6023 36.2400 0.0000 5.0673
137.6440 36.2381 0.0000 5.3109
137.6413 36.2383 0.0000 5.3109
137.6385 36.2384 0.0000 5.3109
137.6357 36.2386 0.0000 5.3109
137.6329 36.2387 0.0000 5.3109
137.6301 36.2389 0.0000 5.3109
137.6273 36.2391 0.0000 5.3109
137.6246 36.2392 0.0000 5.3109
137.6218 36.2394 0.0000 5.3109
137.6190 36.2395 0.0000 5.3109
137.6162 36.2397 0.0000 5.3109
137.6134 36.2398 0.0000 5.3109
137.6106 36.2400 0.0000 5.3109
137.6079 36.2402 0.0000 5.3109
137.6051 36.2403 0.0000 5.3109
137.6023 36.2405 0.0000 5.3109
