-74.8317 -16.0703 1.6179 1.0000
-74.9148 -15.9980 0.1839 1.0000
-74.9979 -15.9257 1.3472 1.0000
-75.0809 -15.8535 0.5796 1.0000
-75.1640 -15.7812 1.8121 1.0000
-75.2471 -15.7090 2.2080 1.0000
-75.3302 -15.6367 1.6866 1.0000
-75.4133 -15.5644 0.2504 1.0000
-75.4963 -15.4922 1.3230 1.0000
-75.5794 -15.4199 2.5209 1.0000
-75.6625 -15.3477 2.4148 1.0000
-75.7456 -15.2754 1.1528 1.0000
-75.8287 -15.2031 0.1620 1.0000
-75.9117 -15.1309 0.3276 1.0000
-75.9948 -15.0586 0.8472 1.0000
-76.0779 -14.9864 1.2646 1.0000
-76.1610 -14.9141 1.2480 1.0000
-76.2441 -14.8418 0.6184 1.0000
-76.3272 -14.7696 0.2454 1.0000
-76.4102 -14.6973 0.4122 1.0000
-76.4933 -14.6251 0.5590 1.0000
-76.5764 -14.5528 0.5026 1.0000
-76.6595 -14.4805 0.7630 1.0000
-76.7426 -14.4083 0.1490 1.0000
-76.8256 -14.3360 0.9624 1.0000
-74.7690 -16.0030 0.2125 7.5357
-74.8520 -15.9307 1.0054 7.5357
-74.9351 -15.8584 1.5378 7.5357
-75.0182 -15.7862 0.7358 7.5357
-75.1013 -15.7139 2.0755 7.5357
-75.1844 -15.6417 2.6047 7.5357
-75.2674 -15.5694 1.2968 7.5357
-75.3505 -15.4971 0.3869 7.5357
-75.4336 -15.4249 1.9281 7.5357
-75.5167 -15.3526 2.0923 7.5357
-75.5998 -15.2804 0.9075 7.5357
-75.6829 -15.2081 0.0765 7.5357
-75.7659 -15.1358 0.0041 7.5357
-75.8490 -15.0636 0.0228 7.5357
-75.9321 -14.9913 0.1437 7.5357
-76.0152 -14.9190 0.6555 7.5357
-76.0983 -14.8468 1.1685 7.5357
-76.1813 -14.7745 0.5825 7.5357
-76.2644 -14.7023 0.2147 7.5357
-76.3475 -14.6300 0.0058 7.5357
-76.4306 -14.5577 0.7071 7.5357
-76.5137 -14.4855 0.4097 7.5357
-76.5967 -14.4132 0.2758 7.5357
-76.6798 -14.3410 0.7593 7.5357
-76.7629 -14.2687 0.0000 7.5357
-74.7062 -15.9356 0.0363 14.0713
-74.7893 -15.8634 0.9376 14.0713
-74.8724 -15.7911 0.6045 14.0713
-74.9555 -15.7189 0.7080 14.0713
-75.0386 -15.6466 2.3009 14.0713
-75.1216 -15.5743 2.8534 14.0713
-75.2047 -15.5021 0.8320 14.0713
-75.2878 -15.4298 0.4160 14.0713
-75.3709 -15.3576 2.2373 14.0713
-75.4540 -15.2853 0.9157 14.0713
-75.5370 -15.2130 0.0742 14.0713
-75.6201 -15.1408 0.5518 14.0713
-75.7032 -15.0685 1.0623 14.0713
-75.7863 -14.9963 0.5351 14.0713
-75.8694 -14.9240 0.6339 14.0713
-75.9524 -14.8517 0.7709 14.0713
-76.0355 -14.7795 0.7087 14.0713
-76.1186 -14.7072 0.5678 14.0713
-76.2017 -14.6350 0.2971 14.0713
-76.2848 -14.5627 0.1560 14.0713
-76.3678 -14.4904 0.5055 14.0713
-76.4509 -14.4182 0.3627 14.0713
-76.5340 -14.3459 0.2173 14.0713
-76.6171 -14.2737 0.6570 14.0713
-76.7002 -14.2014 0.0000 14.0713
-74.6435 -15.8683 0.2789 20.6070
-74.7266 -15.7961 0.2306 20.6070
-74.8097 -15.7238 1.7285 20.6070
-74.8927 -15.6516 1.5350 20.6070
-74.9758 -15.5793 2.8226 20.6070
-75.0589 -15.5070 2.1994 20.6070
-75.1420 -15.4348 0.8227 20.6070
-75.2251 -15.3625 0.6738 20.6070
-75.3081 -15.2903 2.4850 20.6070
-75.3912 -15.2180 0.8039 20.6070
-75.4743 -15.1457 0.4417 20.6070
-75.5574 -15.0735 1.6169 20.6070
-75.6405 -15.0012 2.6509 20.6070
-75.7235 -14.9290 1.7697 20.6070
-75.8066 -14.8567 1.3516 20.6070
-75.8897 -14.7844 0.8787 20.6070
-75.9728 -14.7122 0.6958 20.6070
-76.0559 -14.6399 0.6214 20.6070
-76.1389 -14.5677 0.3872 20.6070
-76.2220 -14.4954 0.4392 20.6070
-76.3051 -14.4231 0.1487 20.6070
-76.3882 -14.3509 0.0748 20.6070
-76.4713 -14.2786 0.4048 20.6070
-76.5543 -14.2064 0.1317 20.6070
-76.6374 -14.1341 0.7611 20.6070
-74.5808 -15.8010 0.4670 27.1427
-74.6638 -15.7288 0.4410 27.1427
-74.7469 -15.6565 1.8510 27.1427
-74.8300 -15.5843 1.9705 27.1427
-74.9131 -15.5120 3.1956 27.1427
-74.9962 -15.4397 1.3511 27.1427
-75.0792 -15.3675 0.7994 27.1427
-75.1623 -15.2952 0.8603 27.1427
-75.2454 -15.2230 2.1434 27.1427
-75.3285 -15.1507 1.0347 27.1427
-75.4116 -15.0784 0.2927 27.1427
-75.4946 -15.0062 1.6225 27.1427
-75.5777 -14.9339 2.2065 27.1427
-75.6608 -14.8617 1.6641 27.1427
-75.7439 -14.7894 1.3079 27.1427
-75.8270 -14.7171 0.8460 27.1427
-75.9100 -14.6449 0.3657 27.1427
-75.9931 -14.5726 0.2250 27.1427
-76.0762 -14.5003 0.2941 27.1427
-76.1593 -14.4281 0.7190 27.1427
-76.2424 -14.3558 0.3542 27.1427
-76.3254 -14.2836 0.0867 27.1427
-76.4085 -14.2113 0.4306 27.1427
-76.4916 -14.1390 0.2493 27.1427
-76.5747 -14.0668 0.4813 27.1427
-74.5180 -15.7337 0.0000 33.6783
-74.6011 -15.6615 0.5385 33.6783
-74.6842 -15.5892 0.8195 33.6783
-74.7673 -15.5169 1.3578 33.6783
-74.8503 -15.4447 3.2496 33.6783
-74.9334 -15.3724 1.8965 33.6783
-75.0165 -15.3002 0.3215 33.6783
-75.0996 -15.2279 0.6602 33.6783
-75.1827 -15.1556 1.3281 33.6783
-75.2657 -15.0834 0.8920 33.6783
-75.3488 -15.0111 0.3394 33.6783
-75.4319 -14.9389 0.2466 33.6783
-75.5150 -14.8666 0.4356 33.6783
-75.5981 -14.7943 0.6017 33.6783
-75.6811 -14.7221 0.7525 33.6783
-75.7642 -14.6498 0.4757 33.6783
-75.8473 -14.5776 0.4674 33.6783
-75.9304 -14.5053 0.0834 33.6783
-76.0135 -14.4330 0.1265 33.6783
-76.0965 -14.3608 0.7320 33.6783
-76.1796 -14.2885 0.6955 33.6783
-76.2627 -14.2163 0.1905 33.6783
-76.3458 -14.1440 0.4564 33.6783
-76.4289 -14.0717 0.6187 33.6783
-76.5119 -13.9995 0.7924 33.6783
-74.4553 -15.6664 0.0000 40.2140
-74.5384 -15.5942 0.4082 40.2140
-74.6214 -15.5219 0.2881 40.2140
-74.7045 -15.4496 1.1028 40.2140
-74.7876 -15.3774 2.7203 40.2140
-74.8707 -15.3051 2.6603 40.2140
-74.9538 -15.2329 0.6369 40.2140
-75.0368 -15.1606 0.7815 40.2140
-75.1199 -15.0883 0.4765 40.2140
-75.2030 -15.0161 0.5007 40.2140
-75.2861 -14.9438 0.3751 40.2140
-75.3692 -14.8716 0.3083 40.2140
-75.4522 -14.7993 0.4433 40.2140
-75.5353 -14.7270 0.5400 40.2140
-75.6184 -14.6548 0.5972 40.2140
-75.7015 -14.5825 0.4653 40.2140
-75.7846 -14.5103 0.7373 40.2140
-75.8676 -14.4380 0.3415 40.2140
-75.9507 -14.3657 0.0168 40.2140
-76.0338 -14.2935 0.5353 40.2140
-76.1169 -14.2212 0.4511 40.2140
-76.2000 -14.1490 0.0000 40.2140
-76.2830 -14.0767 0.4060 40.2140
-76.3661 -14.0044 0.6310 40.2140
-76.4492 -13.9322 0.3649 40.2140
-74.3925 -15.5991 0.1610 46.7497
-74.4756 -15.5269 0.1679 46.7497
-74.5587 -15.4546 0.3224 46.7497
-74.6418 -15.3823 0.6015 46.7497
-74.7249 -15.3101 2.5175 46.7497
-74.8079 -15.2378 2.2255 46.7497
-74.8910 -15.1656 1.2131 46.7497
-74.9741 -15.0933 0.4179 46.7497
-75.0572 -15.0210 0.6763 46.7497
-75.1403 -14.9488 0.5601 46.7497
-75.2233 -14.8765 0.9022 46.7497
-75.3064 -14.8043 0.7953 46.7497
-75.3895 -14.7320 0.5884 46.7497
-75.4726 -14.6597 0.4625 46.7497
-75.5557 -14.5875 0.4027 46.7497
-75.6387 -14.5152 0.7325 46.7497
-75.7218 -14.4430 0.4495 46.7497
-75.8049 -14.3707 0.2223 46.7497
-75.8880 -14.2984 0.2402 46.7497
-75.9711 -14.2262 0.1991 46.7497
-76.0541 -14.1539 0.2240 46.7497
-76.1372 -14.0817 0.0525 46.7497
-76.2203 -14.0094 0.1870 46.7497
-76.3034 -13.9371 0.3586 46.7497
-76.3865 -13.8649 0.7286 46.7497
-74.3298 -15.5318 0.5975 53.2853
-74.4129 -15.4596 0.0000 53.2853
-74.4960 -15.3873 0.2436 53.2853
-74.5790 -15.3150 0.2525 53.2853
-74.6621 -15.2428 0.5161 53.2853
-74.7452 -15.1705 1.6120 53.2853
-74.8283 -15.0982 1.0822 53.2853
-74.9114 -15.0260 0.7831 53.2853
-74.9944 -14.9537 1.0100 53.2853
-75.0775 -14.8815 1.0964 53.2853
-75.1606 -14.8092 0.0092 53.2853
-75.2437 -14.7369 0.1669 53.2853
-75.3268 -14.6647 0.0104 53.2853
-75.4098 -14.5924 0.1627 53.2853
-75.4929 -14.5202 0.1669 53.2853
-75.5760 -14.4479 0.1824 53.2853
-75.6591 -14.3756 0.1417 53.2853
-75.7422 -14.3034 0.1324 53.2853
-75.8253 -14.2311 0.0446 53.2853
-75.9083 -14.1589 0.2865 53.2853
-75.9914 -14.0866 0.3582 53.2853
-76.0745 -14.0143 0.4037 53.2853
-76.1576 -13.9421 0.1108 53.2853
-76.2407 -13.8698 0.2651 53.2853
-76.3237 -13.7976 0.7564 53.2853
-74.2671 -15.4645 0.8675 59.8210
-74.3501 -15.3922 0.7563 59.8210
-74.4332 -15.3200 0.0180 59.8210
-74.5163 -15.2477 0.6019 59.8210
-74.5994 -15.1755 0.5320 59.8210
-74.6825 -15.1032 0.7007 59.8210
-74.7655 -15.0309 1.6903 59.8210
-74.8486 -14.9587 1.3951 59.8210
-74.9317 -14.8864 1.6396 59.8210
-75.0148 -14.8142 0.5408 59.8210
-75.0979 -14.7419 0.1371 59.8210
-75.1810 -14.6696 0.3209 59.8210
-75.2640 -14.5974 0.0721 59.8210
-75.3471 -14.5251 0.0000 59.8210
-75.4302 -14.4529 0.0000 59.8210
-75.5133 -14.3806 0.0000 59.8210
-75.5964 -14.3083 0.0000 59.8210
-75.6794 -14.2361 0.0000 59.8210
-75.7625 -14.1638 1.0906 59.8210
-75.8456 -14.0916 1.0894 59.8210
-75.9287 -14.0193 0.7254 59.8210
-76.0118 -13.9470 1.1478 59.8210
-76.0948 -13.8748 0.7922 59.8210
-76.1779 -13.8025 0.8524 59.8210
-76.2610 -13.7303 1.6564 59.8210
