120.3382 23.2627 0.0000 8.3520
120.3382 23.2654 0.0000 8.3520
120.3382 23.2681 0.0000 8.3520
120.3382 23.2708 0.0000 8.3520
120.3382 23.2735 0.0000 8.3520
120.3382 23.2762 0.0000 8.3520
120.3382 23.2789 0.0000 8.3520
120.3382 23.2816 0.0000 8.3520
120.3382 23.2843 0.0000 8.3520
120.3382 23.2870 0.0000 8.3520
120.3382 23.2897 0.0000 8.3520
120.3382 23.2923 0.0000 8.3520
120.3382 23.2950 0.0000 8.3520
120.3382 23.2977 0.0000 8.3520
120.3382 23.3004 0.0000 8.3520
120.3382 23.3031 0.0000 8.3520
120.3382 23.3058 0.0000 8.3520
120.3382 23.3085 0.0000 8.3520
120.3382 23.3112 0.0060 8.3520
120.3382 23.3139 0.0000 8.3520
120.3382 23.3166 0.1190 8.3520
120.3401 23.2627 0.0000 8.5818
120.3401 23.2654 0.0000 8.5818
120.3401 23.2681 0.0000 8.5818
120.3401 23.2708 0.0000 8.5818
120.3401 23.2735 0.0000 8.5818
120.3401 23.2762 0.0000 8.5818
120.3401 23.2789 0.0000 8.5818
120.3401 23.2816 0.0000 8.5818
120.3401 23.2843 0.0000 8.5818
120.3401 23.2870 0.0000 8.5818
120.3401 23.2897 0.0000 8.5818
120.3401 23.2923 0.0000 8.5818
120.3401 23.2950 0.0000 8.5818
120.3401 23.2977 0.0000 8.5818
120.3401 23.3004 0.0000 8.5818
120.3401 23.3031 0.0000 8.5818
120.3401 23.3058 0.0000 8.5818
120.3401 23.3085 0.0000 8.5818
120.3401 23.3112 0.0000 8.5818
120.3401 23.3139 0.0000 8.5818
120.3401 23.3166 0.0000 8.5818
120.3420 23.2627 0.0000 8.8116
120.3420 23.2654 0.0000 8.8116
120.3420 23.2681 0.0000 8.8116
120.3420 23.2708 0.0000 8.8116
120.3420 23.2735 0.0000 8.8116
120.3420 23.2762 0.0000 8.8116
120.3420 23.2789 0.0000 8.8116
120.3420 23.2816 0.0000 8.8116
120.3420 23.2843 0.0000 8.8116
120.3420 23.2870 0.0000 8.8116
120.3420 23.2897 0.0000 8.8116
120.3420 23.2923 0.0000 8.8116
120.3420 23.2950 0.0000 8.8116
120.3420 23.2977 0.0000 8.8116
120.3420 23.3004 0.0000 8.8116
120.3420 23.3031 0.0000 8.8116
120.3420 23.3058 0.0000 8.8116
120.3420 23.3085 0.0000 8.8116
120.3420 23.3112 0.0000 8.8116
120.3420 23.3139 0.0000 8.8116
120.3420 23.3166 0.0000 8.8116
120.3439 23.2627 0.0000 9.0414
120.3439 23.2654 0.0000 9.0414
120.3439 23.2681 0.0000 9.0414
120.3439 23.2708 0.0000 9.0414
120.3439 23.2735 0.0000 9.0414
120.3439 23.2762 0.0000 9.0414
120.3439 23.2789 0.0000 9.0414
120.3439 23.2816 0.0000 9.0414
120.3439 23.2843 0.0000 9.0414
120.3439 23.2870 0.0000 9.0414
120.3439 23.2897 0.0000 9.0414
120.3439 23.2923 0.0000 9.0414
120.3439 23.2950 0.0000 9.0414
120.3439 23.2977 0.0000 9.0414
120.3439 23.3004 0.0000 9.0414
120.3439 23.3031 0.0000 9.0414
120.3439 23.3058 0.0000 9.0414
120.3439 23.3085 0.0000 9.0414
120.3439 23.3112 0.0000 9.0414
120.3439 23.3139 0.0000 9.0414
120.3439 23.3166 0.0000 9.0414
120.3458 23.2627 0.0000 9.2713
120.3458 23.2654 0.0000 9.2713
120.3458 23.2681 0.0000 9.2713
120.3458 23.2708 0.0000 9.2713
120.3458 23.2735 0.0000 9.2713
120.3458 23.2762 0.0000 9.2713
120.3458 23.2789 0.0000 9.2713
120.3458 23.2816 0.0000 9.2713
120.3458 23.2843 0.0000 9.2713
120.3458 23.2870 0.0000 9.2713
120.3458 23.2897 0.0000 9.2713
120.3458 23.2923 0.0000 9.2713
120.3458 23.2950 0.0000 9.2713
120.3458 23.2977 0.0000 9.2713
120.3458 23.3004 0.0000 9.2713
120.3458 23.3031 0.0000 9.2713
120.3458 23.3058 0.0000 9.2713
120.3458 23.3085 0.0000 9.2713
120.3458 23.3112 0.0000 9.2713
120.3458 23.3139 0.0000 9.2713
120.3458 23.3166 0.0000 9.2713
120.3477 23.2627 0.0000 9.5011
120.3477 23.2654 0.0000 9.5011
120.3477 23.2681 0.0000 9.5011
120.3477 23.2708 0.0000 9.5011
120.3477 23.2735 0.0000 9.5011
120.3477 23.2762 0.0000 9.5011
120.3477 23.2789 0.0000 9.5011
120.3477 23.2816 0.0000 9.5011
120.3477 23.2843 0.0000 9.5011
120.3477 23.2870 0.0000 9.5011
120.3477 23.2897 0.0000 9.5011
120.3477 23.2923 0.0000 9.5011
120.3477 23.2950 0.0000 9.5011
120.3477 23.2977 0.0000 9.5011
120.3477 23.3004 0.0000 9.5011
120.3477 23.3031 0.0000 9.5011
120.3477 23.3058 0.0000 9.5011
120.3477 23.3085 0.0000 9.5011
120.3477 23.3112 0.0000 9.5011
120.3477 23.3139 0.0000 9.5011
120.3477 23.3166 0.0000 9.5011
120.3496 23.2627 0.0000 9.7309
120.3496 23.2654 0.0000 9.7309
120.3496 23.2681 0.0000 9.7309
120.3496 23.2708 0.0000 9.7309
120.3496 23.2735 0.0000 9.7309
120.3496 23.2762 0.0000 9.7309
120.3496 23.2789 0.0000 9.7309
120.3496 23.2816 0.0000 9.7309
120.3496 23.2843 0.8690 9.7309
120.3496 23.2870 0.0000 9.7309
120.3496 23.2897 0.6560 9.7309
120.3496 23.2923 0.0000 9.7309
120.3496 23.2950 0.0000 9.7309
120.3496 23.2977 0.0000 9.7309
120.3496 23.3004 0.0000 9.7309
120.3496 23.3031 0.0000 9.7309
120.3496 23.3058 0.0000 9.7309
120.3496 23.3085 0.0000 9.7309
120.3496 23.3112 0.0000 9.7309
120.3496 23.3139 0.0000 9.7309
120.3496 23.3166 0.0000 9.7309
120.3514 23.2627 0.0000 9.9607
120.3514 23.2654 0.0000 9.9607
120.3514 23.2681 0.0000 9.9607
120.3514 23.2708 0.0000 9.9607
120.3514 23.2735 0.0000 9.9607
120.3514 23.2762 0.0000 9.9607
120.3514 23.2789 0.0000 9.9607
120.3514 23.2816 0.0000 9.9607
120.3514 23.2843 0.0000 9.9607
120.3514 23.2870 0.0000 9.9607
120.3514 23.2897 0.0000 9.9607
120.3514 23.2923 0.0000 9.9607
120.3514 23.2950 0.0000 9.9607
120.3514 23.2977 0.0000 9.9607
120.3514 23.3004 0.0000 9.9607
120.3514 23.3031 0.0000 9.9607
120.3514 23.3058 0.0000 9.9607
120.3514 23.3085 0.0000 9.9607
120.3514 23.3112 0.0000 9.9607
120.3514 23.3139 0.0000 9.9607
120.3514 23.3166 0.0000 9.9607
120.3533 23.2627 0.0000 10.1905
120.3533 23.2654 0.0000 10.1905
120.3533 23.2681 0.0000 10.1905
120.3533 23.2708 0.0000 10.1905
120.3533 23.2735 0.0000 10.1905
120.3533 23.2762 0.0000 10.1905
120.3533 23.2789 0.0000 10.1905
120.3533 23.2816 0.0000 10.1905
120.3533 23.2843 0.0000 10.1905
120.3533 23.2870 0.0000 10.1905
120.3533 23.2897 0.1760 10.1905
120.3533 23.2923 0.0000 10.1905
120.3533 23.2950 0.2410 10.1905
120.3533 23.2977 0.0000 10.1905
120.3533 23.3004 0.0000 10.1905
120.3533 23.3031 0.0000 10.1905
120.3533 23.3058 0.0000 10.1905
120.3533 23.3085 0.0000 10.1905
120.3533 23.3112 0.0000 10.1905
120.3533 23.3139 0.0000 10.1905
120.3533 23.3166 0.0000 10.1905
120.3552 23.2627 0.0000 10.4203
120.3552 23.2654 0.0000 10.4203
120.3552 23.2681 0.0000 10.4203
120.3552 23.2708 0.0000 10.4203
120.3552 23.2735 0.0000 10.4203
120.3552 23.2762 0.0000 10.4203
120.3552 23.2789 0.0000 10.4203
120.3552 23.2816 0.0000 10.4203
120.3552 23.2843 0.6310 10.4203
120.3552 23.2870 0.1870 10.4203
120.3552 23.2897 1.0110 10.4203
120.3552 23.2923 0.1830 10.4203
120.3552 23.2950 0.0000 10.4203
120.3552 23.2977 0.0000 10.4203
120.3552 23.3004 0.0000 10.4203
120.3552 23.3031 0.0000 10.4203
120.3552 23.3058 0.0000 10.4203
120.3552 23.3085 0.0000 10.4203
120.3552 23.3112 0.0000 10.4203
120.3552 23.3139 0.0000 10.4203
120.3552 23.3166 0.0000 10.4203
120.3571 23.2627 0.0000 10.6501
120.3571 23.2654 0.0000 10.6501
120.3571 23.2681 0.0000 10.6501
120.3571 23.2708 0.0000 10.6501
120.3571 23.2735 0.0000 10.6501
120.3571 23.2762 0.0000 10.6501
120.3571 23.2789 0.0000 10.6501
120.3571 23.2816 0.0000 10.6501
120.3571 23.2843 1.2540 10.6501
120.3571 23.2870 0.4700 10.6501
120.3571 23.2897 0.0000 10.6501
120.3571 23.2923 0.4890 10.6501
120.3571 23.2950 0.0000 10.6501
120.3571 23.2977 0.0000 10.6501
120.3571 23.3004 0.0000 10.6501
120.3571 23.3031 0.0000 10.6501
120.3571 23.3058 0.0000 10.6501
120.3571 23.3085 0.0000 10.6501
120.3571 23.3112 0.0000 10.6501
120.3571 23.3139 0.0000 10.6501
120.3571 23.3166 0.0000 10.6501
120.3590 23.2627 0.0000 10.8799
120.3590 23.2654 0.0000 10.8799
120.3590 23.2681 0.0000 10.8799
120.3590 23.2708 0.0000 10.8799
120.3590 23.2735 0.0000 10.8799
120.3590 23.2762 0.0000 10.8799
120.3590 23.2789 0.0000 10.8799
120.3590 23.2816 0.4590 10.8799
120.3590 23.2843 0.8870 10.8799
120.3590 23.2870 1.1650 10.8799
120.3590 23.2897 0.0000 10.8799
120.3590 23.2923 0.3910 10.8799
120.3590 23.2950 1.0130 10.8799
120.3590 23.2977 0.0000 10.8799
120.3590 23.3004 0.0000 10.8799
120.3590 23.3031 0.0000 10.8799
120.3590 23.3058 0.0000 10.8799
120.3590 23.3085 0.0000 10.8799
120.3590 23.3112 0.0000 10.8799
120.3590 23.3139 0.0000 10.8799
120.3590 23.3166 0.0000 10.8799
120.3609 23.2627 0.0000 11.1098
120.3609 23.2654 0.0000 11.1098
120.3609 23.2681 0.0000 11.1098
120.3609 23.2708 0.0000 11.1098
120.3609 23.2735 0.0000 11.1098
120.3609 23.2762 0.0000 11.1098
120.3609 23.2789 0.0000 11.1098
120.3609 23.2816 0.0000 11.1098
120.3609 23.2843 0.5700 11.1098
120.3609 23.2870 0.3480 11.1098
120.3609 23.2897 0.0000 11.1098
120.3609 23.2923 0.0000 11.1098
120.3609 23.2950 0.0000 11.1098
120.3609 23.2977 0.0000 11.1098
120.3609 23.3004 0.0000 11.1098
120.3609 23.3031 0.0000 11.1098
120.3609 23.3058 0.0000 11.1098
120.3609 23.3085 0.0000 11.1098
120.3609 23.3112 0.0000 11.1098
120.3609 23.3139 0.0000 11.1098
120.3609 23.3166 0.0000 11.1098
120.3628 23.2627 0.0000 11.3396
120.3628 23.2654 0.0000 11.3396
120.3628 23.2681 0.0000 11.3396
120.3628 23.2708 0.0000 11.3396
120.3628 23.2735 0.0000 11.3396
120.3628 23.2762 0.0000 11.3396
120.3628 23.2789 0.0000 11.3396
120.3628 23.2816 0.0000 11.3396
120.3628 23.2843 0.0000 11.3396
120.3628 23.2870 0.0000 11.3396
120.3628 23.2897 0.0000 11.3396
120.3628 23.2923 0.0000 11.3396
120.3628 23.2950 0.0000 11.3396
120.3628 23.2977 0.0000 11.3396
120.3628 23.3004 0.0000 11.3396
120.3628 23.3031 0.0000 11.3396
120.3628 23.3058 0.0000 11.3396
120.3628 23.3085 0.0000 11.3396
120.3628 23.3112 0.0000 11.3396
120.3628 23.3139 0.0000 11.3396
120.3628 23.3166 0.0000 11.3396
120.3647 23.2627 0.0000 11.5694
120.3647 23.2654 0.0000 11.5694
120.3647 23.2681 0.0000 11.5694
120.3647 23.2708 0.0000 11.5694
120.3647 23.2735 0.0000 11.5694
120.3647 23.2762 0.0000 11.5694
120.3647 23.2789 0.0000 11.5694
120.3647 23.2816 0.0000 11.5694
120.3647 23.2843 0.0000 11.5694
120.3647 23.2870 0.0000 11.5694
120.3647 23.2897 0.0000 11.5694
120.3647 23.2923 0.0000 11.5694
120.3647 23.2950 0.0000 11.5694
120.3647 23.2977 0.0000 11.5694
120.3647 23.3004 0.0000 11.5694
120.3647 23.3031 0.0000 11.5694
120.3647 23.3058 0.0000 11.5694
120.3647 23.3085 0.0000 11.5694
120.3647 23.3112 0.0000 11.5694
120.3647 23.3139 0.0000 11.5694
120.3647 23.3166 0.0000 11.5694
120.3666 23.2627 0.0000 11.7992
120.3666 23.2654 0.0000 11.7992
120.3666 23.2681 0.0000 11.7992
120.3666 23.2708 0.0000 11.7992
120.3666 23.2735 0.0000 11.7992
120.3666 23.2762 0.0000 11.7992
120.3666 23.2789 0.0000 11.7992
120.3666 23.2816 0.0000 11.7992
120.3666 23.2843 0.0000 11.7992
120.3666 23.2870 0.0000 11.7992
120.3666 23.2897 0.0000 11.7992
120.3666 23.2923 0.0000 11.7992
120.3666 23.2950 0.0000 11.7992
120.3666 23.2977 0.0000 11.7992
120.3666 23.3004 0.0000 11.7992
120.3666 23.3031 0.0000 11.7992
120.3666 23.3058 0.0000 11.7992
120.3666 23.3085 0.0000 11.7992
120.3666 23.3112 0.0000 11.7992
120.3666 23.3139 0.0000 11.7992
120.3666 23.3166 0.0000 11.7992
120.3684 23.2627 0.0000 12.0290
120.3684 23.2654 0.0000 12.0290
120.3684 23.2681 0.0000 12.0290
120.3684 23.2708 0.0000 12.0290
120.3684 23.2735 0.0000 12.0290
120.3684 23.2762 0.0000 12.0290
120.3684 23.2789 0.0000 12.0290
120.3684 23.2816 0.0000 12.0290
120.3684 23.2843 0.0000 12.0290
120.3684 23.2870 0.0000 12.0290
120.3684 23.2897 0.0000 12.0290
120.3684 23.2923 0.0000 12.0290
120.3684 23.2950 0.0000 12.0290
120.3684 23.2977 0.0000 12.0290
120.3684 23.3004 0.0000 12.0290
120.3684 23.3031 0.0000 12.0290
120.3684 23.3058 0.0000 12.0290
120.3684 23.3085 0.0000 12.0290
120.3684 23.3112 0.0000 12.0290
120.3684 23.3139 0.0000 12.0290
120.3684 23.3166 0.0000 12.0290
120.3703 23.2627 0.0000 12.2588
120.3703 23.2654 0.0000 12.2588
120.3703 23.2681 0.0000 12.2588
120.3703 23.2708 0.0000 12.2588
120.3703 23.2735 0.0000 12.2588
120.3703 23.2762 0.0000 12.2588
120.3703 23.2789 0.0000 12.2588
120.3703 23.2816 0.0000 12.2588
120.3703 23.2843 0.0000 12.2588
120.3703 23.2870 0.0000 12.2588
120.3703 23.2897 0.0000 12.2588
120.3703 23.2923 0.0000 12.2588
120.3703 23.2950 0.0000 12.2588
120.3703 23.2977 0.0000 12.2588
120.3703 23.3004 0.0000 12.2588
120.3703 23.3031 0.0000 12.2588
120.3703 23.3058 0.0000 12.2588
120.3703 23.3085 0.0000 12.2588
120.3703 23.3112 0.0000 12.2588
120.3703 23.3139 0.0000 12.2588
120.3703 23.3166 0.0000 12.2588
120.3722 23.2627 0.0000 12.4886
120.3722 23.2654 0.0000 12.4886
120.3722 23.2681 0.0000 12.4886
120.3722 23.2708 0.0000 12.4886
120.3722 23.2735 0.0000 12.4886
120.3722 23.2762 0.0000 12.4886
120.3722 23.2789 0.0000 12.4886
120.3722 23.2816 0.0000 12.4886
120.3722 23.2843 0.0000 12.4886
120.3722 23.2870 0.0000 12.4886
120.3722 23.2897 0.0000 12.4886
120.3722 23.2923 0.0000 12.4886
120.3722 23.2950 0.0000 12.4886
120.3722 23.2977 0.0000 12.4886
120.3722 23.3004 0.0000 12.4886
120.3722 23.3031 0.0000 12.4886
120.3722 23.3058 0.0000 12.4886
120.3722 23.3085 0.0000 12.4886
120.3722 23.3112 0.0000 12.4886
120.3722 23.3139 0.0000 12.4886
120.3722 23.3166 0.1110 12.4886
120.3741 23.2627 0.0000 12.7185
120.3741 23.2654 0.0000 12.7185
120.3741 23.2681 0.0000 12.7185
120.3741 23.2708 0.0000 12.7185
120.3741 23.2735 0.0000 12.7185
120.3741 23.2762 0.0000 12.7185
120.3741 23.2789 0.0000 12.7185
120.3741 23.2816 0.0000 12.7185
120.3741 23.2843 0.0000 12.7185
120.3741 23.2870 0.0000 12.7185
120.3741 23.2897 0.0000 12.7185
120.3741 23.2923 0.0000 12.7185
120.3741 23.2950 0.0000 12.7185
120.3741 23.2977 0.0000 12.7185
120.3741 23.3004 0.0000 12.7185
120.3741 23.3031 0.0000 12.7185
120.3741 23.3058 0.0000 12.7185
120.3741 23.3085 0.0000 12.7185
120.3741 23.3112 0.0000 12.7185
120.3741 23.3139 0.0720 12.7185
120.3741 23.3166 0.0000 12.7185
120.3760 23.2627 0.0000 12.9483
120.3760 23.2654 0.0000 12.9483
120.3760 23.2681 0.0000 12.9483
120.3760 23.2708 0.0000 12.9483
120.3760 23.2735 0.0000 12.9483
120.3760 23.2762 0.0000 12.9483
120.3760 23.2789 0.0000 12.9483
120.3760 23.2816 0.0000 12.9483
120.3760 23.2843 0.0000 12.9483
120.3760 23.2870 0.0000 12.9483
120.3760 23.2897 0.0000 12.9483
120.3760 23.2923 0.0000 12.9483
120.3760 23.2950 0.0000 12.9483
120.3760 23.2977 0.0000 12.9483
120.3760 23.3004 0.0000 12.9483
120.3760 23.3031 0.0000 12.9483
120.3760 23.3058 0.0000 12.9483
120.3760 23.3085 0.0000 12.9483
120.3760 23.3112 0.0540 12.9483
120.3760 23.3139 0.0000 12.9483
120.3760 23.3166 0.0000 12.9483
120.3779 23.2627 0.0000 13.1781
120.3779 23.2654 0.0000 13.1781
120.3779 23.2681 0.0000 13.1781
120.3779 23.2708 0.0000 13.1781
120.3779 23.2735 0.0000 13.1781
120.3779 23.2762 0.0000 13.1781
120.3779 23.2789 0.0000 13.1781
120.3779 23.2816 0.0000 13.1781
120.3779 23.2843 0.0000 13.1781
120.3779 23.2870 0.0000 13.1781
120.3779 23.2897 0.0000 13.1781
120.3779 23.2923 0.0000 13.1781
120.3779 23.2950 0.0000 13.1781
120.3779 23.2977 0.0000 13.1781
120.3779 23.3004 0.0000 13.1781
120.3779 23.3031 0.0000 13.1781
120.3779 23.3058 0.0000 13.1781
120.3779 23.3085 0.0000 13.1781
120.3779 23.3112 0.0000 13.1781
120.3779 23.3139 0.0000 13.1781
120.3779 23.3166 0.0000 13.1781
120.3798 23.2627 0.0000 13.4079
120.3798 23.2654 0.0000 13.4079
120.3798 23.2681 0.0000 13.4079
120.3798 23.2708 0.0000 13.4079
120.3798 23.2735 0.0000 13.4079
120.3798 23.2762 0.0000 13.4079
120.3798 23.2789 0.0000 13.4079
120.3798 23.2816 0.0000 13.4079
120.3798 23.2843 0.0000 13.4079
120.3798 23.2870 0.0000 13.4079
120.3798 23.2897 0.0000 13.4079
120.3798 23.2923 0.0000 13.4079
120.3798 23.2950 0.0000 13.4079
120.3798 23.2977 0.0000 13.4079
120.3798 23.3004 0.0000 13.4079
120.3798 23.3031 0.0000 13.4079
120.3798 23.3058 0.0000 13.4079
120.3798 23.3085 0.0000 13.4079
120.3798 23.3112 0.0000 13.4079
120.3798 23.3139 0.0000 13.4079
120.3798 23.3166 0.0000 13.4079
120.3817 23.2627 0.0000 13.6377
120.3817 23.2654 0.0000 13.6377
120.3817 23.2681 0.0000 13.6377
120.3817 23.2708 0.0000 13.6377
120.3817 23.2735 0.0000 13.6377
120.3817 23.2762 0.0000 13.6377
120.3817 23.2789 0.0000 13.6377
120.3817 23.2816 0.0000 13.6377
120.3817 23.2843 0.0000 13.6377
120.3817 23.2870 0.0000 13.6377
120.3817 23.2897 0.0000 13.6377
120.3817 23.2923 0.0000 13.6377
120.3817 23.2950 0.0000 13.6377
120.3817 23.2977 0.0000 13.6377
120.3817 23.3004 0.0000 13.6377
120.3817 23.3031 0.0000 13.6377
120.3817 23.3058 0.0000 13.6377
120.3817 23.3085 0.0000 13.6377
120.3817 23.3112 0.0000 13.6377
120.3817 23.3139 0.0000 13.6377
120.3817 23.3166 0.0000 13.6377
120.3836 23.2627 0.0000 13.8675
120.3836 23.2654 0.0000 13.8675
120.3836 23.2681 0.0000 13.8675
120.3836 23.2708 0.0000 13.8675
120.3836 23.2735 0.0000 13.8675
120.3836 23.2762 0.0000 13.8675
120.3836 23.2789 0.0000 13.8675
120.3836 23.2816 0.0000 13.8675
120.3836 23.2843 0.0000 13.8675
120.3836 23.2870 0.0000 13.8675
120.3836 23.2897 0.0000 13.8675
120.3836 23.2923 0.0000 13.8675
120.3836 23.2950 0.0000 13.8675
120.3836 23.2977 0.0000 13.8675
120.3836 23.3004 0.0000 13.8675
120.3836 23.3031 0.0000 13.8675
120.3836 23.3058 0.0000 13.8675
120.3836 23.3085 0.0000 13.8675
120.3836 23.3112 0.0000 13.8675
120.3836 23.3139 0.0000 13.8675
120.3836 23.3166 0.0000 13.8675
120.3855 23.2627 0.0000 14.0973
120.3855 23.2654 0.0000 14.0973
120.3855 23.2681 0.0000 14.0973
120.3855 23.2708 0.0000 14.0973
120.3855 23.2735 0.0000 14.0973
120.3855 23.2762 0.0000 14.0973
120.3855 23.2789 0.0000 14.0973
120.3855 23.2816 0.0000 14.0973
120.3855 23.2843 0.0000 14.0973
120.3855 23.2870 0.0000 14.0973
120.3855 23.2897 0.0000 14.0973
120.3855 23.2923 0.0000 14.0973
120.3855 23.2950 0.0000 14.0973
120.3855 23.2977 0.0000 14.0973
120.3855 23.3004 0.0000 14.0973
120.3855 23.3031 0.0000 14.0973
120.3855 23.3058 0.0000 14.0973
120.3855 23.3085 0.0000 14.0973
120.3855 23.3112 0.0000 14.0973
120.3855 23.3139 0.0000 14.0973
120.3855 23.3166 0.0000 14.0973
