-103.9632 18.0778 0.0887 9.9500
-104.0741 18.1627 0.2893 9.9500
-104.1849 18.2477 0.4800 9.9500
-104.2958 18.3326 0.6805 9.9500
-104.4066 18.4176 0.8578 9.9500
-104.5175 18.5025 1.1125 9.9500
-104.6284 18.5875 0.9627 9.9500
-104.7392 18.6724 1.0384 9.9500
-104.8501 18.7574 0.7408 9.9500
-104.9609 18.8423 0.9120 9.9500
-105.0718 18.9273 1.3663 9.9500
-105.1827 19.0123 1.3958 9.9500
-105.2935 19.0972 1.1798 9.9500
-105.4044 19.1822 0.9448 9.9500
-105.5152 19.2671 1.3553 9.9500
-105.6261 19.3521 1.5413 9.9500
-105.7370 19.4370 1.2074 9.9500
-105.8478 19.5220 0.0126 9.9500
-105.9587 19.6069 0.0040 9.9500
-106.0695 19.6919 0.0008 9.9500
-103.9051 18.1456 0.0514 12.3692
-104.0160 18.2306 0.6621 12.3692
-104.1268 18.3155 0.7571 12.3692
-104.2377 18.4005 0.9480 12.3692
-104.3486 18.4855 1.2412 12.3692
-104.4594 18.5704 1.3856 12.3692
-104.5703 18.6554 1.8489 12.3692
-104.6811 18.7403 2.2138 12.3692
-104.7920 18.8253 1.0341 12.3692
-104.9029 18.9102 1.2169 12.3692
-105.0137 18.9952 1.0930 12.3692
-105.1246 19.0801 0.7705 12.3692
-105.2355 19.1651 0.7025 12.3692
-105.3463 19.2500 0.6774 12.3692
-105.4572 19.3350 0.7593 12.3692
-105.5680 19.4199 1.1866 12.3692
-105.6789 19.5049 0.9529 12.3692
-105.7898 19.5898 0.0053 12.3692
-105.9006 19.6748 0.0562 12.3692
-106.0115 19.7597 0.0021 12.3692
-103.8471 18.2135 0.0752 14.7884
-103.9579 18.2985 0.3696 14.7884
-104.0688 18.3834 0.2828 14.7884
-104.1796 18.4684 0.3047 14.7884
-104.2905 18.5533 0.3703 14.7884
-104.4014 18.6383 1.0427 14.7884
-104.5122 18.7232 2.4730 14.7884
-104.6231 18.8082 3.4979 14.7884
-104.7339 18.8931 1.7536 14.7884
-104.8448 18.9781 1.2136 14.7884
-104.9557 19.0630 0.8555 14.7884
-105.0665 19.1480 0.6545 14.7884
-105.1774 19.2329 0.3471 14.7884
-105.2882 19.3179 0.2915 14.7884
-105.3991 19.4028 0.1366 14.7884
-105.5100 19.4878 0.3660 14.7884
-105.6208 19.5727 0.2498 14.7884
-105.7317 19.6577 0.0176 14.7884
-105.8425 19.7426 0.0341 14.7884
-105.9534 19.8276 0.0204 14.7884
-103.7932 18.2782 0.0702 18.2100
-103.9041 18.3631 0.0727 18.2100
-104.0149 18.4481 0.4109 18.2100
-104.1258 18.5330 0.0632 18.2100
-104.2367 18.6180 0.0048 18.2100
-104.3475 18.7029 0.7804 18.2100
-104.4584 18.7879 2.2261 18.2100
-104.5692 18.8728 2.9229 18.2100
-104.6801 18.9578 1.6411 18.2100
-104.7910 19.0427 1.1089 18.2100
-104.9018 19.1277 0.9055 18.2100
-105.0127 19.2126 0.5208 18.2100
-105.1235 19.2976 0.5708 18.2100
-105.2344 19.3825 0.4406 18.2100
-105.3453 19.4675 0.0321 18.2100
-105.4561 19.5524 0.1244 18.2100
-105.5670 19.6374 0.5360 18.2100
-105.6778 19.7223 0.0028 18.2100
-105.7887 19.8073 0.0232 18.2100
-105.8996 19.8922 0.0180 18.2100
-103.7370 18.3439 0.0624 21.6302
-103.8478 18.4288 0.0914 21.6302
-103.9587 18.5138 0.6465 21.6302
-104.0696 18.5987 0.0476 21.6302
-104.1804 18.6837 0.1244 21.6302
-104.2913 18.7686 0.0915 21.6302
-104.4021 18.8536 0.5615 21.6302
-104.5130 18.9385 1.2031 21.6302
-104.6239 19.0235 0.9481 21.6302
-104.7347 19.1084 0.7907 21.6302
-104.8456 19.1934 0.7728 21.6302
-104.9564 19.2783 0.4571 21.6302
-105.0673 19.3633 0.6225 21.6302
-105.1782 19.4482 0.8720 21.6302
-105.2890 19.5332 0.1153 21.6302
-105.3999 19.6181 0.1438 21.6302
-105.5107 19.7031 0.2543 21.6302
-105.6216 19.7880 0.0107 21.6302
-105.7325 19.8730 0.0026 21.6302
-105.8433 19.9580 0.0791 21.6302
-103.6807 18.4096 0.0956 25.0504
-103.7916 18.4945 0.1573 25.0504
-103.9025 18.5795 0.4720 25.0504
-104.0133 18.6644 0.0068 25.0504
-104.1242 18.7494 0.4067 25.0504
-104.2350 18.8343 0.0603 25.0504
-104.3459 18.9193 0.2842 25.0504
-104.4568 19.0043 0.6501 25.0504
-104.5676 19.0892 0.5965 25.0504
-104.6785 19.1742 0.2786 25.0504
-104.7893 19.2591 0.5181 25.0504
-104.9002 19.3441 0.3805 25.0504
-105.0111 19.4290 0.6072 25.0504
-105.1219 19.5140 0.9406 25.0504
-105.2328 19.5989 0.6427 25.0504
-105.3436 19.6839 0.4563 25.0504
-105.4545 19.7688 0.0643 25.0504
-105.5654 19.8538 0.0005 25.0504
-105.6762 19.9387 0.0400 25.0504
-105.7871 20.0237 0.0139 25.0504
-103.6385 18.4826 0.0669 30.3900
-103.7493 18.5676 0.2212 30.3900
-103.8602 18.6525 0.7067 30.3900
-103.9711 18.7375 0.4873 30.3900
-104.0819 18.8224 0.5358 30.3900
-104.1928 18.9074 0.2914 30.3900
-104.3036 18.9923 0.5749 30.3900
-104.4145 19.0773 0.4994 30.3900
-104.5254 19.1622 0.3356 30.3900
-104.6362 19.2472 0.1824 30.3900
-104.7471 19.3321 0.3301 30.3900
-104.8579 19.4171 0.4018 30.3900
-104.9688 19.5020 0.3907 30.3900
-105.0797 19.5870 0.7841 30.3900
-105.1905 19.6719 0.7437 30.3900
-105.3014 19.7569 0.9726 30.3900
-105.4122 19.8418 0.0048 30.3900
-105.5231 19.9268 0.0100 30.3900
-105.6340 20.0117 0.0176 30.3900
-105.7448 20.0967 0.0231 30.3900
-103.5866 18.5432 0.0196 35.3900
-103.6975 18.6281 0.0081 35.3900
-103.8084 18.7131 0.0179 35.3900
-103.9192 18.7980 0.0026 35.3900
-104.0301 18.8830 0.1165 35.3900
-104.1409 18.9679 0.0613 35.3900
-104.2518 19.0529 0.2013 35.3900
-104.3627 19.1378 0.4741 35.3900
-104.4735 19.2228 0.3545 35.3900
-104.5844 19.3077 0.0061 35.3900
-104.6953 19.3927 0.1795 35.3900
-104.8061 19.4777 0.1824 35.3900
-104.9170 19.5626 0.0365 35.3900
-105.0278 19.6476 0.0109 35.3900
-105.1387 19.7325 0.2153 35.3900
-105.2496 19.8175 0.6386 35.3900
-105.3604 19.9024 0.0059 35.3900
-105.4713 19.9874 0.0043 35.3900
-105.5821 20.0723 0.0344 35.3900
-105.6930 20.1573 0.0816 35.3900
-103.5348 18.6038 0.0073 40.3900
-103.6457 18.6887 0.0978 40.3900
-103.7565 18.7737 0.3021 40.3900
-103.8674 18.8586 0.0113 40.3900
-103.9783 18.9436 0.0119 40.3900
-104.0891 19.0285 0.1073 40.3900
-104.2000 19.1135 0.0317 40.3900
-104.3108 19.1984 0.1094 40.3900
-104.4217 19.2834 0.1972 40.3900
-104.5326 19.3683 0.1066 40.3900
-104.6434 19.4533 0.0935 40.3900
-104.7543 19.5382 0.0004 40.3900
-104.8651 19.6232 0.0674 40.3900
-104.9760 19.7081 0.1023 40.3900
-105.0869 19.7931 0.1098 40.3900
-105.1977 19.8780 0.0094 40.3900
-105.3086 19.9630 0.0191 40.3900
-105.4194 20.0479 0.0128 40.3900
-105.5303 20.1329 0.0278 40.3900
-105.6412 20.2178 0.0071 40.3900
-104.1381 17.8707 0.0992 5.7700
-104.2490 17.9557 1.0065 5.7700
-104.3599 18.0406 0.7948 5.7700
-104.4707 18.1256 0.6115 5.7700
-104.5816 18.2105 0.0209 5.7700
-104.6925 18.2955 0.3071 5.7700
-104.8033 18.3804 0.6049 5.7700
-104.9142 18.4654 0.9279 5.7700
-105.0250 18.5503 1.3411 5.7700
-105.1359 18.6353 1.2542 5.7700
-105.2468 18.7202 1.2728 5.7700
-105.3576 18.8052 1.4928 5.7700
-105.4685 18.8901 2.0507 5.7700
-105.5793 18.9751 2.2397 5.7700
-105.6902 19.0600 2.0896 5.7700
-105.8011 19.1450 1.3970 5.7700
-105.9119 19.2299 0.8494 5.7700
-106.0228 19.3149 0.6584 5.7700
-106.1336 19.3998 0.9909 5.7700
-106.2445 19.4848 0.0876 5.7700
-104.0789 17.9400 0.0494 7.1617
-104.1897 18.0249 0.8541 7.1617
-104.3006 18.1099 1.0309 7.1617
-104.4115 18.1948 0.5551 7.1617
-104.5223 18.2798 0.5328 7.1617
-104.6332 18.3647 0.7306 7.1617
-104.7440 18.4497 0.7476 7.1617
-104.8549 18.5346 1.0362 7.1617
-104.9658 18.6196 1.4671 7.1617
-105.0766 18.7045 1.4177 7.1617
-105.1875 18.7895 1.5106 7.1617
-105.2984 18.8744 1.5501 7.1617
-105.4092 18.9594 1.7893 7.1617
-105.5201 19.0443 2.0193 7.1617
-105.6309 19.1293 2.1316 7.1617
-105.7418 19.2142 1.5166 7.1617
-105.8527 19.2992 0.7505 7.1617
-105.9635 19.3842 0.0292 7.1617
-106.0744 19.4691 0.3698 7.1617
-106.1852 19.5541 0.0049 7.1617
-104.0196 18.0092 0.0999 8.5535
-104.1305 18.0942 0.4656 8.5535
-104.2413 18.1791 0.5831 8.5535
-104.3522 18.2641 0.6565 8.5535
-104.4631 18.3490 0.7213 8.5535
-104.5739 18.4340 0.8966 8.5535
-104.6848 18.5189 0.7285 8.5535
-104.7956 18.6039 0.6855 8.5535
-104.9065 18.6888 0.7848 8.5535
-105.0174 18.7738 1.0195 8.5535
-105.1282 18.8587 1.4182 8.5535
-105.2391 18.9437 1.4477 8.5535
-105.3499 19.0287 1.5634 8.5535
-105.4608 19.1136 1.3594 8.5535
-105.5717 19.1986 1.6685 8.5535
-105.6825 19.2835 1.4286 8.5535
-105.7934 19.3685 0.9227 8.5535
-105.9042 19.4534 0.0389 8.5535
-106.0151 19.5384 0.3871 8.5535
-106.1260 19.6233 0.0115 8.5535
