131.8513 31.8561 0.2444 0.0100
131.8358 31.8333 0.1294 0.0100
131.8204 31.8106 0.1149 0.0100
131.8049 31.7878 0.1161 0.0100
131.7895 31.7650 0.1237 0.0100
131.7740 31.7423 0.1409 0.0100
131.7585 31.7195 0.1544 0.0100
131.7431 31.6968 0.1721 0.0100
131.7276 31.6740 0.2089 0.0100
131.7122 31.6513 0.2262 0.0100
131.8251 31.8689 0.1591 0.6171
131.8096 31.8462 0.1083 0.6171
131.7942 31.8234 0.1482 0.6171
131.7787 31.8007 0.1455 0.6171
131.7633 31.7779 0.1941 0.6171
131.7478 31.7551 0.2731 0.6171
131.7323 31.7324 0.3070 0.6171
131.7169 31.7096 0.1718 0.6171
131.7014 31.6869 0.1928 0.6171
131.6860 31.6641 0.2016 0.6171
131.7989 31.8818 0.1945 1.2242
131.7835 31.8590 0.1815 1.2242
131.7680 31.8363 0.2569 1.2242
131.7525 31.8135 0.3537 1.2242
131.7371 31.7907 0.5463 1.2242
131.7216 31.7680 0.6679 1.2242
131.7062 31.7452 0.6597 1.2242
131.6907 31.7225 0.5731 1.2242
131.6752 31.6997 0.4959 1.2242
131.6598 31.6770 0.2559 1.2242
131.7727 31.8946 0.2938 1.8313
131.7573 31.8719 0.3589 1.8313
131.7418 31.8491 0.2744 1.8313
131.7263 31.8264 0.5130 1.8313
131.7109 31.8036 0.8230 1.8313
131.6954 31.7808 0.7584 1.8313
131.6800 31.7581 0.7199 1.8313
131.6645 31.7353 0.5787 1.8313
131.6490 31.7126 0.7190 1.8313
131.6336 31.6898 0.4280 1.8313
131.7465 31.9075 0.2596 2.4384
131.7311 31.8847 0.2398 2.4384
131.7156 31.8620 0.5310 2.4384
131.7001 31.8392 0.8524 2.4384
131.6847 31.8165 1.3071 2.4384
131.6692 31.7937 0.8128 2.4384
131.6538 31.7709 0.4344 2.4384
131.6383 31.7482 0.4280 2.4384
131.6228 31.7254 0.5544 2.4384
131.6074 31.7027 0.3808 2.4384
131.7203 31.9203 0.2635 3.0455
131.7049 31.8976 0.4291 3.0455
131.6894 31.8748 0.2799 3.0455
131.6740 31.8521 0.7693 3.0455
131.6585 31.8293 1.5980 3.0455
131.6430 31.8065 0.9036 3.0455
131.6276 31.7838 0.4984 3.0455
131.6121 31.7610 0.4278 3.0455
131.5967 31.7383 0.4500 3.0455
131.5812 31.7155 0.2794 3.0455
131.6941 31.9332 0.3224 3.6526
131.6787 31.9104 0.2921 3.6526
131.6632 31.8877 0.1979 3.6526
131.6478 31.8649 0.6476 3.6526
131.6323 31.8422 1.6495 3.6526
131.6168 31.8194 0.9510 3.6526
131.6014 31.7966 1.0642 3.6526
131.5859 31.7739 0.3399 3.6526
131.5705 31.7511 0.4829 3.6526
131.5550 31.7284 0.2230 3.6526
131.6679 31.9460 0.3653 4.2597
131.6525 31.9233 0.3778 4.2597
131.6370 31.9005 0.4621 4.2597
131.6216 31.8778 0.4782 4.2597
131.6061 31.8550 0.7425 4.2597
131.5906 31.8323 0.4503 4.2597
131.5752 31.8095 0.8434 4.2597
131.5597 31.7867 0.4877 4.2597
131.5443 31.7640 0.3046 4.2597
131.5288 31.7412 0.1932 4.2597
131.6418 31.9589 0.3539 4.8668
131.6263 31.9361 0.4343 4.8668
131.6108 31.9134 0.4276 4.8668
131.5954 31.8906 0.3588 4.8668
131.5799 31.8679 0.5097 4.8668
131.5645 31.8451 0.1660 4.8668
131.5490 31.8223 0.3923 4.8668
131.5335 31.7996 0.2989 4.8668
131.5181 31.7768 0.2593 4.8668
131.5026 31.7541 0.2431 4.8668
131.6156 31.9717 0.3073 5.4739
131.6001 31.9490 0.2894 5.4739
131.5846 31.9262 0.3266 5.4739
131.5692 31.9035 0.3032 5.4739
131.5537 31.8807 0.4862 5.4739
131.5383 31.8580 0.3321 5.4739
131.5228 31.8352 0.2801 5.4739
131.5073 31.8124 0.2431 5.4739
131.4919 31.7897 0.2188 5.4739
131.4764 31.7669 0.2288 5.4739
