-116.3585 34.6703 2.0560 0.0000
-116.3634 34.6831 1.8129 0.0000
-116.3683 34.6960 1.3308 0.0000
-116.3732 34.7089 0.9883 0.0000
-116.3781 34.7218 0.5357 0.0000
-116.3830 34.7347 0.0000 0.0000
-116.3879 34.7476 0.0000 0.0000
-116.3566 34.6708 2.5311 1.4888
-116.3615 34.6836 2.1628 1.4888
-116.3664 34.6965 1.6497 1.4888
-116.3713 34.7094 1.1588 1.4888
-116.3762 34.7223 0.5750 1.4888
-116.3811 34.7352 0.0438 1.4888
-116.3860 34.7480 0.0000 1.4888
-116.3547 34.6713 2.8710 2.9776
-116.3596 34.6841 2.2713 2.9776
-116.3645 34.6970 1.6484 2.9776
-116.3694 34.7099 1.0424 2.9776
-116.3743 34.7228 0.4506 2.9776
-116.3792 34.7357 0.0342 2.9776
-116.3841 34.7485 0.0000 2.9776
-116.3528 34.6717 2.8823 4.4665
-116.3577 34.6846 2.0706 4.4665
-116.3626 34.6975 1.3469 4.4665
-116.3675 34.7104 0.7282 4.4665
-116.3724 34.7233 0.2482 4.4665
-116.3773 34.7361 0.0000 4.4665
-116.3822 34.7490 0.0000 4.4665
-116.3509 34.6722 2.5848 5.9553
-116.3558 34.6851 1.6722 5.9553
-116.3607 34.6980 0.9329 5.9553
-116.3656 34.7109 0.3958 5.9553
-116.3705 34.7238 0.0842 5.9553
-116.3754 34.7366 0.0000 5.9553
-116.3803 34.7495 0.0000 5.9553
-116.3490 34.6727 2.0915 7.4441
-116.3539 34.6856 1.2074 7.4441
-116.3588 34.6985 0.5504 7.4441
-116.3637 34.7114 0.1529 7.4441
-116.3686 34.7243 0.0000 7.4441
-116.3735 34.7371 0.0000 7.4441
-116.3784 34.7500 0.0000 7.4441
-116.3470 34.6732 1.5269 8.9329
-116.3519 34.6861 0.7740 8.9329
-116.3569 34.6990 0.2693 8.9329
-116.3618 34.7119 0.0328 8.9329
-116.3667 34.7247 0.0000 8.9329
-116.3716 34.7376 0.0000 8.9329
-116.3765 34.7505 0.0000 8.9329
-116.3451 34.6737 0.9915 10.4217
-116.3500 34.6866 0.4259 10.4217
-116.3549 34.6995 0.0981 10.4217
-116.3598 34.7124 0.0000 10.4217
-116.3648 34.7252 0.0000 10.4217
-116.3697 34.7381 0.0000 10.4217
-116.3746 34.7510 0.0000 10.4217
-116.3432 34.6742 0.5518 11.9106
-116.3481 34.6871 0.1843 11.9106
-116.3530 34.7000 0.0149 11.9106
-116.3579 34.7128 0.0000 11.9106
-116.3628 34.7257 0.0000 11.9106
-116.3677 34.7386 0.0000 11.9106
-116.3727 34.7515 0.0000 11.9106
-116.3413 34.6747 0.2424 13.3994
-116.3462 34.6876 0.0509 13.3994
-116.3511 34.7005 0.0000 13.3994
-116.3560 34.7133 0.0000 13.3994
-116.3609 34.7262 0.0000 13.3994
-116.3658 34.7391 0.0000 13.3994
-116.3707 34.7520 0.0000 13.3994
-116.3394 34.6752 0.0656 14.8882
-116.3443 34.6881 0.0000 14.8882
-116.3492 34.7009 0.0000 14.8882
-116.3541 34.7138 0.0000 14.8882
-116.3590 34.7267 0.0000 14.8882
-116.3639 34.7396 0.0000 14.8882
-116.3688 34.7525 0.0000 14.8882
-116.3375 34.6757 0.0000 16.3770
-116.3424 34.6886 0.0000 16.3770
-116.3473 34.7014 0.0000 16.3770
-116.3522 34.7143 0.0000 16.3770
-116.3571 34.7272 0.0000 16.3770
-116.3620 34.7401 0.0000 16.3770
-116.3669 34.7530 0.0000 16.3770
-116.3356 34.6762 0.0000 17.8658
-116.3405 34.6891 0.0000 17.8658
-116.3454 34.7019 0.0000 17.8658
-116.3503 34.7148 0.0000 17.8658
-116.3552 34.7277 0.0000 17.8658
-116.3601 34.7406 0.0000 17.8658
-116.3650 34.7535 0.0000 17.8658
-116.3337 34.6767 0.0000 19.3546
-116.3386 34.6895 0.0000 19.3546
-116.3435 34.7024 0.0000 19.3546
-116.3484 34.7153 0.0000 19.3546
-116.3533 34.7282 0.0000 19.3546
-116.3582 34.7411 0.0000 19.3546
-116.3631 34.7539 0.0000 19.3546
-116.3244 34.6244 3.9261 0.0000
-116.3334 34.6357 3.3324 0.0000
-116.3425 34.6470 2.3558 0.0000
-116.3515 34.6582 1.8144 0.0000
-116.3227 34.6253 4.5775 1.4888
-116.3317 34.6366 4.1125 1.4888
-116.3408 34.6479 3.2673 1.4888
-116.3498 34.6591 2.7130 1.4888
-116.3210 34.6263 5.4161 2.9776
-116.3301 34.6375 4.9478 2.9776
-116.3391 34.6488 4.1912 2.9776
-116.3482 34.6600 3.4825 2.9776
-116.3194 34.6272 5.9539 4.4665
-116.3284 34.6384 5.4531 4.4665
-116.3375 34.6497 4.6765 4.4665
-116.3465 34.6609 3.7890 4.4665
-116.3177 34.6281 5.9829 5.9553
-116.3267 34.6393 5.4623 5.9553
-116.3358 34.6506 4.6357 5.9553
-116.3448 34.6618 3.6285 5.9553
-116.3160 34.6290 5.5218 7.4441
-116.3251 34.6402 4.9982 7.4441
-116.3341 34.6515 4.1561 7.4441
-116.3432 34.6627 3.1278 7.4441
-116.3144 34.6299 4.7069 8.9329
-116.3234 34.6411 4.1995 8.9329
-116.3325 34.6524 3.3991 8.9329
-116.3415 34.6637 2.4448 8.9329
-116.3127 34.6308 3.7086 10.4217
-116.3217 34.6421 3.2406 10.4217
-116.3308 34.6533 2.5336 10.4217
-116.3398 34.6646 1.7231 10.4217
-116.3110 34.6317 2.6853 11.9106
-116.3201 34.6430 2.2797 11.9106
-116.3291 34.6542 1.7014 11.9106
-116.3382 34.6655 1.0724 11.9106
-116.3094 34.6326 1.7612 13.3994
-116.3184 34.6439 1.4358 13.3994
-116.3275 34.6551 1.0021 13.3994
-116.3365 34.6664 0.5625 13.3994
-116.3077 34.6335 1.0178 14.8882
-116.3167 34.6448 0.7809 14.8882
-116.3258 34.6560 0.4899 14.8882
-116.3348 34.6673 0.2231 14.8882
-116.3060 34.6344 0.4925 16.3770
-116.3151 34.6457 0.3412 16.3770
-116.3241 34.6569 0.1761 16.3770
-116.3332 34.6682 0.0486 16.3770
-116.3044 34.6353 0.1804 17.8658
-116.3134 34.6466 0.1014 17.8658
-116.3225 34.6578 0.0332 17.8658
-116.3315 34.6691 0.0000 17.8658
-116.3027 34.6362 0.0401 19.3546
-116.3117 34.6475 0.0118 19.3546
-116.3208 34.6588 0.0000 19.3546
-116.3298 34.6700 0.0000 19.3546
-116.2819 34.5834 3.3335 0.0000
-116.2927 34.5935 3.9843 0.0000
-116.3036 34.6037 4.2286 0.0000
-116.3144 34.6138 4.2037 0.0000
-116.2804 34.5845 3.8532 1.4888
-116.2912 34.5946 4.5821 1.4888
-116.3021 34.6047 4.9252 1.4888
-116.3129 34.6149 4.8403 1.4888
-116.2789 34.5856 4.3892 2.9776
-116.2897 34.5957 5.1780 2.9776
-116.3006 34.6058 5.6279 2.9776
-116.3114 34.6160 5.6543 2.9776
-116.2774 34.5867 4.6566 4.4665
-116.2882 34.5968 5.4735 4.4665
-116.2991 34.6069 6.0127 4.4665
-116.3099 34.6171 6.1571 4.4665
-116.2759 34.5878 4.5928 5.9553
-116.2867 34.5979 5.3682 5.9553
-116.2976 34.6080 5.9376 5.9553
-116.3084 34.6181 6.1508 5.9553
-116.2744 34.5888 4.2387 7.4441
-116.2852 34.5990 4.9116 7.4441
-116.2961 34.6091 5.4442 7.4441
-116.3069 34.6192 5.6708 7.4441
-116.2729 34.5899 3.6742 8.9329
-116.2837 34.6001 4.2148 8.9329
-116.2946 34.6102 4.6626 8.9329
-116.3054 34.6203 4.8571 8.9329
-116.2714 34.5910 2.9851 10.4217
-116.2822 34.6012 3.3918 10.4217
-116.2931 34.6113 3.7338 10.4217
-116.3039 34.6214 3.8697 10.4217
-116.2699 34.5921 2.2509 11.9106
-116.2807 34.6022 2.5406 11.9106
-116.2916 34.6124 2.7790 11.9106
-116.3024 34.6225 2.8520 11.9106
-116.2684 34.5932 1.5447 13.3994
-116.2792 34.6033 1.7424 13.3994
-116.2901 34.6135 1.8948 13.3994
-116.3009 34.6236 1.9178 13.3994
-116.2669 34.5943 0.9372 14.8882
-116.2777 34.6044 1.0658 14.8882
-116.2886 34.6145 1.1550 14.8882
-116.2994 34.6247 1.1485 14.8882
-116.2654 34.5954 0.4860 16.3770
-116.2762 34.6055 0.5600 16.3770
-116.2871 34.6156 0.6060 16.3770
-116.2979 34.6258 0.5879 16.3770
-116.2639 34.5965 0.2003 17.8658
-116.2747 34.6066 0.2367 17.8658
-116.2856 34.6167 0.2565 17.8658
-116.2964 34.6268 0.2390 17.8658
-116.2624 34.5976 0.0565 19.3546
-116.2732 34.6077 0.0703 19.3546
-116.2841 34.6178 0.0767 19.3546
-116.2949 34.6279 0.0665 19.3546
-116.2866 34.6518 1.2778 0.0000
-116.2929 34.6642 0.5428 0.0000
-116.2993 34.6767 0.1243 0.0000
-116.3056 34.6891 0.0000 0.0000
-116.3120 34.7015 0.0000 0.0000
-116.3183 34.7140 0.0000 0.0000
-116.2847 34.6524 1.2858 1.4888
-116.2911 34.6649 0.6864 1.4888
-116.2974 34.6773 0.2814 1.4888
-116.3038 34.6897 0.0987 1.4888
-116.3101 34.7022 0.0307 1.4888
-116.3165 34.7146 0.0000 1.4888
-116.2829 34.6530 1.1897 2.9776
-116.2892 34.6655 0.7746 2.9776
-116.2956 34.6779 0.4522 2.9776
-116.3019 34.6904 0.2579 2.9776
-116.3083 34.7028 0.1379 2.9776
-116.3147 34.7153 0.0537 2.9776
-116.2810 34.6537 0.9992 4.4665
-116.2874 34.6661 0.7425 4.4665
-116.2937 34.6786 0.5294 4.4665
-116.3001 34.6910 0.3706 4.4665
-116.3065 34.7035 0.2386 4.4665
-116.3128 34.7159 0.1151 4.4665
-116.2792 34.6543 0.7821 5.9553
-116.2855 34.6668 0.6408 5.9553
-116.2919 34.6792 0.5187 5.9553
-116.2983 34.6917 0.4027 5.9553
-116.3046 34.7041 0.2809 5.9553
-116.3110 34.7165 0.1462 5.9553
-116.2774 34.6550 0.6072 7.4441
-116.2837 34.6674 0.5524 7.4441
-116.2901 34.6798 0.4844 7.4441
-116.2964 34.6923 0.3886 7.4441
-116.3028 34.7047 0.2720 7.4441
-116.3091 34.7172 0.1420 7.4441
-116.2755 34.6556 0.5070 8.9329
-116.2819 34.6680 0.5151 8.9329
-116.2882 34.6805 0.4704 8.9329
-116.2946 34.6929 0.3725 8.9329
-116.3009 34.7054 0.2478 8.9329
-116.3073 34.7178 0.1215 8.9329
-116.2737 34.6562 0.4587 10.4217
-116.2800 34.6687 0.5034 10.4217
-116.2864 34.6811 0.4687 10.4217
-116.2927 34.6936 0.3661 10.4217
-116.2991 34.7060 0.2320 10.4217
-116.3054 34.7185 0.1049 10.4217
-116.2718 34.6569 0.4151 11.9106
-116.2782 34.6693 0.4770 11.9106
-116.2845 34.6818 0.4516 11.9106
-116.2909 34.6942 0.3532 11.9106
-116.2972 34.7066 0.2205 11.9106
-116.3036 34.7191 0.0960 11.9106
-116.2700 34.6575 0.3515 13.3994
-116.2763 34.6700 0.4196 13.3994
-116.2827 34.6824 0.4046 13.3994
-116.2890 34.6948 0.3193 13.3994
-116.2954 34.7073 0.2000 13.3994
-116.3018 34.7197 0.0868 13.3994
-116.2681 34.6581 0.2724 14.8882
-116.2745 34.6706 0.3381 14.8882
-116.2809 34.6830 0.3316 14.8882
-116.2872 34.6955 0.2636 14.8882
-116.2936 34.7079 0.1651 14.8882
-116.2999 34.7204 0.0714 14.8882
-116.2663 34.6588 0.1912 16.3770
-116.2727 34.6712 0.2472 16.3770
-116.2790 34.6837 0.2456 16.3770
-116.2854 34.6961 0.1949 16.3770
-116.2917 34.7086 0.1204 16.3770
-116.2981 34.7210 0.0506 16.3770
-116.2645 34.6594 0.1171 17.8658
-116.2708 34.6719 0.1580 17.8658
-116.2772 34.6843 0.1584 17.8658
-116.2835 34.6968 0.1243 17.8658
-116.2899 34.7092 0.0743 17.8658
-116.2962 34.7216 0.0292 17.8658
-116.2626 34.6601 0.0542 19.3546
-116.2690 34.6725 0.0761 19.3546
-116.2753 34.6849 0.0765 19.3546
-116.2817 34.6974 0.0589 19.3546
-116.2880 34.7098 0.0335 19.3546
-116.2944 34.7223 0.0118 19.3546
-116.2772 34.5851 1.1019 0.0000
-116.2786 34.5985 1.5240 0.0000
-116.2800 34.6120 1.7043 0.0000
-116.2815 34.6254 1.6850 0.0000
-116.2829 34.6389 1.6350 0.0000
-116.2752 34.5852 1.3784 1.4888
-116.2766 34.5987 1.7705 1.4888
-116.2780 34.6121 1.8283 1.4888
-116.2795 34.6256 1.7288 1.4888
-116.2809 34.6390 1.6166 1.4888
-116.2732 34.5854 1.5692 2.9776
-116.2746 34.5988 1.8508 2.9776
-116.2761 34.6123 1.8142 2.9776
-116.2775 34.6257 1.6473 2.9776
-116.2789 34.6392 1.4691 2.9776
-116.2712 34.5855 1.5333 4.4665
-116.2726 34.5990 1.7153 4.4665
-116.2741 34.6124 1.6199 4.4665
-116.2755 34.6259 1.4212 4.4665
-116.2769 34.6393 1.2222 4.4665
-116.2692 34.5857 1.2855 5.9553
-116.2706 34.5991 1.4150 5.9553
-116.2721 34.6125 1.3042 5.9553
-116.2735 34.6260 1.1147 5.9553
-116.2749 34.6394 0.9410 5.9553
-116.2672 34.5858 0.9228 7.4441
-116.2687 34.5992 1.0345 7.4441
-116.2701 34.6127 0.9423 7.4441
-116.2715 34.6261 0.7948 7.4441
-116.2729 34.6396 0.6829 7.4441
-116.2652 34.5859 0.5520 8.9329
-116.2667 34.5994 0.6582 8.9329
-116.2681 34.6128 0.6000 8.9329
-116.2695 34.6263 0.5127 8.9329
-116.2709 34.6397 0.4868 8.9329
-116.2632 34.5861 0.2537 10.4217
-116.2647 34.5995 0.3509 10.4217
-116.2661 34.6130 0.3246 10.4217
-116.2675 34.6264 0.3017 10.4217
-116.2690 34.6399 0.3639 10.4217
-116.2612 34.5862 0.0695 11.9106
-116.2627 34.5997 0.1472 11.9106
-116.2641 34.6131 0.1401 11.9106
-116.2655 34.6266 0.1727 11.9106
-116.2670 34.6400 0.2884 11.9106
-116.2593 34.5864 0.0000 13.3994
-116.2607 34.5998 0.0475 13.3994
-116.2621 34.6133 0.0440 13.3994
-116.2635 34.6267 0.1039 13.3994
-116.2650 34.6402 0.2236 13.3994
-116.2573 34.5865 0.0000 14.8882
-116.2587 34.6000 0.0166 14.8882
-116.2601 34.6134 0.0096 14.8882
-116.2616 34.6269 0.0599 14.8882
-116.2630 34.6403 0.1582 14.8882
-116.2553 34.5867 0.0000 16.3770
-116.2567 34.6001 0.0053 16.3770
-116.2581 34.6136 0.0000 16.3770
-116.2596 34.6270 0.0283 16.3770
-116.2610 34.6404 0.0992 16.3770
-116.2533 34.5868 0.0000 17.8658
-116.2547 34.6002 0.0009 17.8658
-116.2561 34.6137 0.0000 17.8658
-116.2576 34.6271 0.0089 17.8658
-116.2590 34.6406 0.0522 17.8658
-116.2513 34.5869 0.0000 19.3546
-116.2527 34.6004 0.0000 19.3546
-116.2542 34.6138 0.0000 19.3546
-116.2556 34.6273 0.0000 19.3546
-116.2570 34.6407 0.0195 19.3546
-116.2524 34.4791 2.5714 0.0000
-116.2556 34.4923 2.6990 0.0000
-116.2588 34.5056 2.7242 0.0000
-116.2620 34.5188 3.0233 0.0000
-116.2652 34.5320 3.5786 0.0000
-116.2684 34.5453 3.7933 0.0000
-116.2716 34.5585 3.8061 0.0000
-116.2749 34.5717 3.9848 0.0000
-116.2504 34.4794 2.6519 1.4888
-116.2536 34.4926 2.6593 1.4888
-116.2568 34.5059 2.7968 1.4888
-116.2600 34.5191 3.2319 1.4888
-116.2633 34.5324 3.8782 1.4888
-116.2665 34.5456 4.2833 1.4888
-116.2697 34.5588 4.4480 1.4888
-116.2729 34.5721 4.7024 1.4888
-116.2485 34.4797 2.5357 2.9776
-116.2517 34.4930 2.5684 2.9776
-116.2549 34.5062 2.8321 2.9776
-116.2581 34.5194 3.4024 2.9776
-116.2613 34.5327 4.1346 2.9776
-116.2645 34.5459 4.7044 2.9776
-116.2677 34.5592 5.0518 2.9776
-116.2709 34.5724 5.3855 2.9776
-116.2465 34.4801 2.2666 4.4665
-116.2497 34.4933 2.4161 4.4665
-116.2529 34.5065 2.7886 4.4665
-116.2561 34.5198 3.4250 4.4665
-116.2593 34.5330 4.1848 4.4665
-116.2626 34.5462 4.8334 4.4665
-116.2658 34.5595 5.2901 4.4665
-116.2690 34.5727 5.6542 4.4665
-116.2445 34.4804 1.9242 5.9553
-116.2477 34.4936 2.1815 5.9553
-116.2510 34.5069 2.6202 5.9553
-116.2542 34.5201 3.2583 5.9553
-116.2574 34.5333 3.9832 5.9553
-116.2606 34.5466 4.6242 5.9553
-116.2638 34.5598 5.0974 5.9553
-116.2670 34.5730 5.4332 5.9553
-116.2426 34.4807 1.5486 7.4441
-116.2458 34.4939 1.8629 7.4441
-116.2490 34.5072 2.3162 7.4441
-116.2522 34.5204 2.9077 7.4441
-116.2554 34.5336 3.5528 7.4441
-116.2586 34.5469 4.1271 7.4441
-116.2618 34.5601 4.5526 7.4441
-116.2651 34.5734 4.8247 7.4441
-116.2406 34.4810 1.1648 8.9329
-116.2438 34.4943 1.4831 8.9329
-116.2470 34.5075 1.9055 8.9329
-116.2503 34.5207 2.4187 8.9329
-116.2535 34.5340 2.9600 8.9329
-116.2567 34.5472 3.4392 8.9329
-116.2599 34.5604 3.7888 8.9329
-116.2631 34.5737 3.9884 8.9329
-116.2387 34.4813 0.7998 10.4217
-116.2419 34.4946 1.0823 10.4217
-116.2451 34.5078 1.4419 10.4217
-116.2483 34.5211 1.8602 10.4217
-116.2515 34.5343 2.2907 10.4217
-116.2547 34.5475 2.6692 10.4217
-116.2579 34.5608 2.9405 10.4217
-116.2611 34.5740 3.0782 10.4217
-116.2367 34.4817 0.4831 11.9106
-116.2399 34.4949 0.7063 11.9106
-116.2431 34.5081 0.9863 11.9106
-116.2463 34.5214 1.3053 11.9106
-116.2495 34.5346 1.6296 11.9106
-116.2528 34.5479 1.9145 11.9106
-116.2560 34.5611 2.1184 11.9106
-116.2592 34.5743 2.2139 11.9106
-116.2347 34.4820 0.2403 13.3994
-116.2379 34.4952 0.3953 13.3994
-116.2412 34.5085 0.5918 13.3994
-116.2444 34.5217 0.8161 13.3994
-116.2476 34.5349 1.0454 13.3994
-116.2508 34.5482 1.2497 13.3994
-116.2540 34.5614 1.3996 13.3994
-116.2572 34.5746 1.4719 13.3994
-116.2328 34.4823 0.0857 14.8882
-116.2360 34.4955 0.1748 14.8882
-116.2392 34.5088 0.2938 14.8882
-116.2424 34.5220 0.4345 14.8882
-116.2456 34.5353 0.5832 14.8882
-116.2488 34.5485 0.7206 14.8882
-116.2521 34.5617 0.8270 14.8882
-116.2553 34.5750 0.8854 14.8882
-116.2308 34.4826 0.0151 16.3770
-116.2340 34.4959 0.0498 16.3770
-116.2372 34.5091 0.1056 16.3770
-116.2405 34.5223 0.1788 16.3770
-116.2437 34.5356 0.2627 16.3770
-116.2469 34.5488 0.3459 16.3770
-116.2501 34.5621 0.4149 16.3770
-116.2533 34.5753 0.4565 16.3770
-116.2289 34.4830 0.0000 17.8658
-116.2321 34.4962 0.0028 17.8658
-116.2353 34.5094 0.0176 17.8658
-116.2385 34.5227 0.0433 17.8658
-116.2417 34.5359 0.0801 17.8658
-116.2449 34.5491 0.1223 17.8658
-116.2481 34.5624 0.1609 17.8658
-116.2513 34.5756 0.1863 17.8658
-116.2269 34.4833 0.0000 19.3546
-116.2301 34.4965 0.0000 19.3546
-116.2333 34.5098 0.0000 19.3546
-116.2365 34.5230 0.0000 19.3546
-116.2397 34.5362 0.0085 19.3546
-116.2430 34.5495 0.0237 19.3546
-116.2462 34.5627 0.0398 19.3546
-116.2494 34.5759 0.0514 19.3546
-116.1971 34.4328 1.4132 0.0000
-116.2090 34.4421 1.6369 0.0000
-116.2209 34.4514 2.0942 0.0000
-116.2329 34.4606 2.9118 0.0000
-116.2448 34.4699 2.8900 0.0000
-116.1957 34.4340 1.6967 1.4888
-116.2077 34.4433 1.8941 1.4888
-116.2196 34.4526 2.3119 1.4888
-116.2315 34.4618 2.9045 1.4888
-116.2434 34.4711 2.9228 1.4888
-116.1944 34.4352 2.0408 2.9776
-116.2063 34.4445 2.1253 2.9776
-116.2182 34.4538 2.3280 2.9776
-116.2301 34.4630 2.6068 2.9776
-116.2420 34.4723 2.6337 2.9776
-116.1930 34.4364 2.2052 4.4665
-116.2049 34.4457 2.1572 4.4665
-116.2168 34.4550 2.1414 4.4665
-116.2287 34.4642 2.1803 4.4665
-116.2406 34.4735 2.2028 4.4665
-116.1916 34.4376 2.1287 5.9553
-116.2035 34.4469 1.9792 5.9553
-116.2154 34.4562 1.8269 5.9553
-116.2274 34.4654 1.7415 5.9553
-116.2393 34.4747 1.7595 5.9553
-116.1902 34.4388 1.8683 7.4441
-116.2022 34.4481 1.6619 7.4441
-116.2141 34.4573 1.4468 7.4441
-116.2260 34.4666 1.3140 7.4441
-116.2379 34.4759 1.3362 7.4441
-116.1889 34.4400 1.5150 8.9329
-116.2008 34.4493 1.2893 8.9329
-116.2127 34.4585 1.0611 8.9329
-116.2246 34.4678 0.9217 8.9329
-116.2365 34.4771 0.9473 8.9329
-116.1875 34.4412 1.1479 10.4217
-116.1994 34.4505 0.9283 10.4217
-116.2113 34.4597 0.7142 10.4217
-116.2232 34.4690 0.5852 10.4217
-116.2352 34.4783 0.6073 10.4217
-116.1861 34.4424 0.8199 11.9106
-116.1980 34.4517 0.6216 11.9106
-116.2100 34.4609 0.4343 11.9106
-116.2219 34.4702 0.3213 11.9106
-116.2338 34.4795 0.3334 11.9106
-116.1848 34.4436 0.5568 13.3994
-116.1967 34.4529 0.3888 13.3994
-116.2086 34.4621 0.2342 13.3994
-116.2205 34.4714 0.1397 13.3994
-116.2324 34.4807 0.1400 13.3994
-116.1834 34.4448 0.3631 14.8882
-116.1953 34.4540 0.2305 14.8882
-116.2072 34.4633 0.1118 14.8882
-116.2191 34.4726 0.0393 14.8882
-116.2310 34.4819 0.0325 14.8882
-116.1820 34.4460 0.2285 16.3770
-116.1939 34.4552 0.1329 16.3770
-116.2058 34.4645 0.0509 16.3770
-116.2177 34.4738 0.0038 16.3770
-116.2297 34.4831 0.0000 16.3770
-116.1806 34.4472 0.1349 17.8658
-116.1925 34.4564 0.0745 17.8658
-116.2045 34.4657 0.0251 17.8658
-116.2164 34.4750 0.0000 17.8658
-116.2283 34.4843 0.0000 17.8658
-116.1793 34.4484 0.0635 19.3546
-116.1912 34.4576 0.0346 19.3546
-116.2031 34.4669 0.0113 19.3546
-116.2150 34.4762 0.0000 19.3546
-116.2269 34.4855 0.0000 19.3546
-116.1372 34.3693 0.5766 0.0000
-116.1470 34.3800 0.6744 0.0000
-116.1569 34.3908 0.7971 0.0000
-116.1668 34.4016 0.8151 0.0000
-116.1767 34.4123 0.8459 0.0000
-116.1866 34.4231 1.1800 0.0000
-116.1356 34.3702 0.5226 1.4888
-116.1454 34.3810 0.6538 1.4888
-116.1553 34.3918 0.8414 1.4888
-116.1652 34.4025 1.0323 1.4888
-116.1751 34.4133 1.2268 1.4888
-116.1850 34.4241 1.5033 1.4888
-116.1340 34.3712 0.5782 2.9776
-116.1439 34.3820 0.7895 2.9776
-116.1537 34.3928 1.0832 2.9776
-116.1636 34.4035 1.4187 2.9776
-116.1735 34.4143 1.7126 2.9776
-116.1834 34.4251 1.9381 2.9776
-116.1324 34.3722 0.7007 4.4665
-116.1423 34.3830 0.9779 4.4665
-116.1522 34.3938 1.3320 4.4665
-116.1620 34.4045 1.7086 4.4665
-116.1719 34.4153 2.0144 4.4665
-116.1818 34.4261 2.1883 4.4665
-116.1308 34.3732 0.8172 5.9553
-116.1407 34.3840 1.1097 5.9553
-116.1506 34.3948 1.4607 5.9553
-116.1604 34.4055 1.8101 5.9553
-116.1703 34.4163 2.0730 5.9553
-116.1802 34.4271 2.1848 5.9553
-116.1292 34.3742 0.8965 7.4441
-116.1391 34.3850 1.1605 7.4441
-116.1490 34.3957 1.4607 7.4441
-116.1589 34.4065 1.7417 7.4441
-116.1687 34.4173 1.9326 7.4441
-116.1786 34.4280 1.9786 7.4441
-116.1276 34.3752 0.9284 8.9329
-116.1375 34.3860 1.1382 8.9329
-116.1474 34.3967 1.3638 8.9329
-116.1573 34.4075 1.5597 8.9329
-116.1672 34.4183 1.6715 8.9329
-116.1770 34.4290 1.6584 8.9329
-116.1260 34.3762 0.9153 10.4217
-116.1359 34.3870 1.0625 10.4217
-116.1458 34.3977 1.2094 10.4217
-116.1557 34.4085 1.3224 10.4217
-116.1656 34.4193 1.3634 10.4217
-116.1754 34.4300 1.3054 10.4217
-116.1244 34.3772 0.8643 11.9106
-116.1343 34.3880 0.9530 11.9106
-116.1442 34.3987 1.0305 11.9106
-116.1541 34.4095 1.0747 11.9106
-116.1640 34.4203 1.0616 11.9106
-116.1739 34.4310 0.9756 11.9106
-116.1228 34.3782 0.7820 13.3994
-116.1327 34.3889 0.8237 13.3994
-116.1426 34.3997 0.8483 13.3994
-116.1525 34.4105 0.8433 13.3994
-116.1624 34.4212 0.7956 13.3994
-116.1723 34.4320 0.6985 13.3994
-116.1212 34.3792 0.6726 14.8882
-116.1311 34.3899 0.6820 14.8882
-116.1410 34.4007 0.6724 14.8882
-116.1509 34.4115 0.6385 14.8882
-116.1608 34.4222 0.5753 14.8882
-116.1707 34.4330 0.4817 14.8882
-116.1196 34.3802 0.5377 16.3770
-116.1295 34.3909 0.5293 16.3770
-116.1394 34.4017 0.5035 16.3770
-116.1493 34.4125 0.4595 16.3770
-116.1592 34.4232 0.3970 16.3770
-116.1691 34.4340 0.3183 16.3770
-116.1180 34.3812 0.3781 17.8658
-116.1279 34.3919 0.3647 17.8658
-116.1378 34.4027 0.3378 17.8658
-116.1477 34.4135 0.2988 17.8658
-116.1576 34.4242 0.2497 17.8658
-116.1675 34.4350 0.1937 17.8658
-116.1164 34.3822 0.1965 19.3546
-116.1263 34.3929 0.1873 19.3546
-116.1362 34.4037 0.1706 19.3546
-116.1461 34.4145 0.1479 19.3546
-116.1560 34.4252 0.1209 19.3546
-116.1659 34.4360 0.0920 19.3546
-116.0891 34.3015 0.0000 0.0000
-116.0971 34.3133 0.0000 0.0000
-116.1052 34.3250 0.0018 0.0000
-116.1132 34.3368 0.0944 0.0000
-116.1213 34.3485 0.2783 0.0000
-116.1293 34.3603 0.4700 0.0000
-116.0873 34.3023 0.0000 1.4888
-116.0954 34.3141 0.0000 1.4888
-116.1034 34.3258 0.0210 1.4888
-116.1115 34.3376 0.1016 1.4888
-116.1195 34.3494 0.2387 1.4888
-116.1276 34.3611 0.3946 1.4888
-116.0856 34.3031 0.0000 2.9776
-116.0936 34.3149 0.0147 2.9776
-116.1017 34.3266 0.0583 2.9776
-116.1097 34.3384 0.1434 2.9776
-116.1178 34.3502 0.2669 2.9776
-116.1258 34.3619 0.4147 2.9776
-116.0838 34.3039 0.0182 4.4665
-116.0919 34.3157 0.0582 4.4665
-116.0999 34.3274 0.1229 4.4665
-116.1080 34.3392 0.2156 4.4665
-116.1160 34.3510 0.3396 4.4665
-116.1241 34.3627 0.4984 4.4665
-116.0821 34.3047 0.0574 5.9553
-116.0901 34.3165 0.1283 5.9553
-116.0982 34.3283 0.2125 5.9553
-116.1062 34.3400 0.3128 5.9553
-116.1143 34.3518 0.4377 5.9553
-116.1223 34.3635 0.6008 5.9553
-116.0803 34.3055 0.1059 7.4441
-116.0884 34.3173 0.2108 7.4441
-116.0964 34.3291 0.3134 7.4441
-116.1045 34.3408 0.4186 7.4441
-116.1125 34.3526 0.5394 7.4441
-116.1206 34.3643 0.6934 7.4441
-116.0786 34.3063 0.1524 8.9329
-116.0867 34.3181 0.2896 8.9329
-116.0947 34.3299 0.4081 8.9329
-116.1028 34.3416 0.5148 8.9329
-116.1108 34.3534 0.6252 8.9329
-116.1189 34.3652 0.7583 8.9329
-116.0769 34.3072 0.1895 10.4217
-116.0849 34.3189 0.3522 10.4217
-116.0930 34.3307 0.4820 10.4217
-116.1010 34.3424 0.5863 10.4217
-116.1091 34.3542 0.6818 10.4217
-116.1171 34.3660 0.7873 10.4217
-116.0751 34.3080 0.2123 11.9106
-116.0832 34.3197 0.3903 11.9106
-116.0912 34.3315 0.5248 11.9106
-116.0993 34.3432 0.6231 11.9106
-116.1073 34.3550 0.7015 11.9106
-116.1154 34.3668 0.7782 11.9106
-116.0734 34.3088 0.2187 13.3994
-116.0814 34.3205 0.3992 13.3994
-116.0895 34.3323 0.5307 13.3994
-116.0975 34.3441 0.6193 13.3994
-116.1056 34.3558 0.6807 13.3994
-116.1136 34.3676 0.7315 13.3994
-116.0716 34.3096 0.2078 14.8882
-116.0797 34.3213 0.3772 14.8882
-116.0877 34.3331 0.4970 14.8882
-116.0958 34.3449 0.5726 14.8882
-116.1038 34.3566 0.6180 14.8882
-116.1119 34.3684 0.6483 14.8882
-116.0699 34.3104 0.1794 16.3770
-116.0780 34.3221 0.3239 16.3770
-116.0860 34.3339 0.4235 16.3770
-116.0941 34.3457 0.4828 16.3770
-116.1021 34.3574 0.5139 16.3770
-116.1102 34.3692 0.5296 16.3770
-116.0682 34.3112 0.1340 17.8658
-116.0762 34.3230 0.2403 17.8658
-116.0843 34.3347 0.3118 17.8658
-116.0923 34.3465 0.3523 17.8658
-116.1004 34.3582 0.3710 17.8658
-116.1084 34.3700 0.3776 17.8658
-116.0664 34.3120 0.0729 19.3546
-116.0745 34.3238 0.1298 19.3546
-116.0825 34.3355 0.1670 19.3546
-116.0906 34.3473 0.1873 19.3546
-116.0986 34.3590 0.1956 19.3546
-116.1067 34.3708 0.1975 19.3546
