-116.4197 34.1176 0.1700 0.0000
-116.4231 34.1445 0.0000 0.0000
-116.4265 34.1713 0.0000 0.0000
-116.4299 34.1982 0.2000 0.0000
-116.4333 34.2250 1.0600 0.0000
-116.4367 34.2518 1.2900 0.0000
-116.4401 34.2787 1.3100 0.0000
-116.4435 34.3055 1.2900 0.0000
-116.4469 34.3324 1.3600 0.0000
-116.4197 34.1176 0.1200 3.0000
-116.4231 34.1445 0.2000 3.0000
-116.4265 34.1713 1.1200 3.0000
-116.4299 34.1982 0.6000 3.0000
-116.4333 34.2250 0.9700 3.0000
-116.4367 34.2518 1.2400 3.0000
-116.4401 34.2787 1.1300 3.0000
-116.4435 34.3055 1.8000 3.0000
-116.4469 34.3324 0.9400 3.0000
-116.4197 34.1176 0.0000 6.0000
-116.4231 34.1445 0.7100 6.0000
-116.4265 34.1713 0.9900 6.0000
-116.4299 34.1982 0.6200 6.0000
-116.4333 34.2250 1.8200 6.0000
-116.4367 34.2518 1.0800 6.0000
-116.4401 34.2787 1.2300 6.0000
-116.4435 34.3055 2.0000 6.0000
-116.4469 34.3324 0.4700 6.0000
-116.4197 34.1176 0.0000 9.0000
-116.4231 34.1445 0.3800 9.0000
-116.4265 34.1713 1.3000 9.0000
-116.4299 34.1982 2.1300 9.0000
-116.4333 34.2250 2.2800 9.0000
-116.4367 34.2518 0.6800 9.0000
-116.4401 34.2787 1.7600 9.0000
-116.4435 34.3055 1.6900 9.0000
-116.4469 34.3324 0.0000 9.0000
-116.4197 34.1176 0.0000 12.0000
-116.4231 34.1445 0.0000 12.0000
-116.4265 34.1713 1.3200 12.0000
-116.4299 34.1982 1.6400 12.0000
-116.4333 34.2250 0.8700 12.0000
-116.4367 34.2518 0.7400 12.0000
-116.4401 34.2787 1.4800 12.0000
-116.4435 34.3055 0.7400 12.0000
-116.4469 34.3324 0.0000 12.0000
-116.4197 34.1176 0.0000 15.0000
-116.4231 34.1445 0.0000 15.0000
-116.4265 34.1713 0.0700 15.0000
-116.4299 34.1982 0.1300 15.0000
-116.4333 34.2250 0.0900 15.0000
-116.4367 34.2518 0.2300 15.0000
-116.4401 34.2787 0.1600 15.0000
-116.4435 34.3055 0.0000 15.0000
-116.4469 34.3324 0.0300 15.0000
-116.4088 34.2863 0.7300 0.0000
-116.4246 34.3100 0.9500 0.0000
-116.4404 34.3336 1.1500 0.0000
-116.4563 34.3572 1.3600 0.0000
-116.4721 34.3808 0.8400 0.0000
-116.4879 34.4044 1.5000 0.0000
-116.5037 34.4280 3.1900 0.0000
-116.5196 34.4516 2.4800 0.0000
-116.5354 34.4752 1.2800 0.0000
-116.5512 34.4989 1.9800 0.0000
-116.4088 34.2863 0.4700 3.0000
-116.4246 34.3100 0.6500 3.0000
-116.4404 34.3336 0.7900 3.0000
-116.4563 34.3572 1.0400 3.0000
-116.4721 34.3808 1.3600 3.0000
-116.4879 34.4044 2.4900 3.0000
-116.5037 34.4280 4.9400 3.0000
-116.5196 34.4516 5.1200 3.0000
-116.5354 34.4752 2.6200 3.0000
-116.5512 34.4989 2.7900 3.0000
-116.4088 34.2863 0.9100 6.0000
-116.4246 34.3100 1.2300 6.0000
-116.4404 34.3336 1.1200 6.0000
-116.4563 34.3572 1.2800 6.0000
-116.4721 34.3808 2.0400 6.0000
-116.4879 34.4044 3.5800 6.0000
-116.5037 34.4280 4.8200 6.0000
-116.5196 34.4516 5.4500 6.0000
-116.5354 34.4752 3.7500 6.0000
-116.5512 34.4989 2.9900 6.0000
-116.4088 34.2863 0.7600 9.0000
-116.4246 34.3100 1.3500 9.0000
-116.4404 34.3336 1.2200 9.0000
-116.4563 34.3572 1.4900 9.0000
-116.4721 34.3808 2.4600 9.0000
-116.4879 34.4044 3.6100 9.0000
-116.5037 34.4280 4.0200 9.0000
-116.5196 34.4516 4.9700 9.0000
-116.5354 34.4752 3.7600 9.0000
-116.5512 34.4989 2.6800 9.0000
-116.4088 34.2863 0.2200 12.0000
-116.4246 34.3100 0.7000 12.0000
-116.4404 34.3336 0.8900 12.0000
-116.4563 34.3572 1.3400 12.0000
-116.4721 34.3808 2.0800 12.0000
-116.4879 34.4044 2.5200 12.0000
-116.5037 34.4280 2.8300 12.0000
-116.5196 34.4516 3.7200 12.0000
-116.5354 34.4752 2.6300 12.0000
-116.5512 34.4989 2.0900 12.0000
-116.4088 34.2863 0.0000 15.0000
-116.4246 34.3100 0.0800 15.0000
-116.4404 34.3336 0.4100 15.0000
-116.4563 34.3572 0.4400 15.0000
-116.4721 34.3808 0.5800 15.0000
-116.4879 34.4044 0.6700 15.0000
-116.5037 34.4280 0.9400 15.0000
-116.5196 34.4516 1.0000 15.0000
-116.5354 34.4752 0.4300 15.0000
-116.5512 34.4989 0.7500 15.0000
-116.5193 34.4685 1.5200 0.0000
-116.5394 34.4898 0.8200 0.0000
-116.5595 34.5111 2.0500 0.0000
-116.5796 34.5324 4.7200 0.0000
-116.5997 34.5536 4.4500 0.0000
-116.6198 34.5749 3.0100 0.0000
-116.6399 34.5962 1.8700 0.0000
-116.6600 34.6174 2.0300 0.0000
-116.6801 34.6387 0.6000 0.0000
-116.7002 34.6600 0.1200 0.0000
-116.7203 34.6813 1.1500 0.0000
-116.7404 34.7025 0.0500 0.0000
-116.7605 34.7238 0.0000 0.0000
-116.7806 34.7451 0.0000 0.0000
-116.8007 34.7664 0.0800 0.0000
-116.5193 34.4685 0.9600 3.0000
-116.5394 34.4898 0.0200 3.0000
-116.5595 34.5111 2.6600 3.0000
-116.5796 34.5324 6.0200 3.0000
-116.5997 34.5536 2.7900 3.0000
-116.6198 34.5749 0.9300 3.0000
-116.6399 34.5962 0.5000 3.0000
-116.6600 34.6174 1.0400 3.0000
-116.6801 34.6387 0.0000 3.0000
-116.7002 34.6600 0.0000 3.0000
-116.7203 34.6813 0.8000 3.0000
-116.7404 34.7025 0.0000 3.0000
-116.7605 34.7238 0.0000 3.0000
-116.7806 34.7451 0.0000 3.0000
-116.8007 34.7664 0.4500 3.0000
-116.5193 34.4685 0.5900 6.0000
-116.5394 34.4898 0.4500 6.0000
-116.5595 34.5111 2.3600 6.0000
-116.5796 34.5324 4.1200 6.0000
-116.5997 34.5536 1.2200 6.0000
-116.6198 34.5749 0.4700 6.0000
-116.6399 34.5962 0.4100 6.0000
-116.6600 34.6174 0.3700 6.0000
-116.6801 34.6387 0.0000 6.0000
-116.7002 34.6600 0.0000 6.0000
-116.7203 34.6813 0.6900 6.0000
-116.7404 34.7025 0.2200 6.0000
-116.7605 34.7238 0.0000 6.0000
-116.7806 34.7451 0.0000 6.0000
-116.8007 34.7664 0.4500 6.0000
-116.5193 34.4685 0.4900 9.0000
-116.5394 34.4898 0.6400 9.0000
-116.5595 34.5111 1.8000 9.0000
-116.5796 34.5324 2.3600 9.0000
-116.5997 34.5536 0.1100 9.0000
-116.6198 34.5749 0.0600 9.0000
-116.6399 34.5962 0.4200 9.0000
-116.6600 34.6174 0.0200 9.0000
-116.6801 34.6387 0.0000 9.0000
-116.7002 34.6600 0.0000 9.0000
-116.7203 34.6813 0.3800 9.0000
-116.7404 34.7025 0.5400 9.0000
-116.7605 34.7238 0.0000 9.0000
-116.7806 34.7451 0.0000 9.0000
-116.8007 34.7664 0.2300 9.0000
-116.5193 34.4685 0.1600 12.0000
-116.5394 34.4898 0.3900 12.0000
-116.5595 34.5111 1.3200 12.0000
-116.5796 34.5324 1.4100 12.0000
-116.5997 34.5536 0.0000 12.0000
-116.6198 34.5749 0.0000 12.0000
-116.6399 34.5962 0.5000 12.0000
-116.6600 34.6174 0.0300 12.0000
-116.6801 34.6387 0.0000 12.0000
-116.7002 34.6600 0.0000 12.0000
-116.7203 34.6813 0.0000 12.0000
-116.7404 34.7025 0.7700 12.0000
-116.7605 34.7238 0.0000 12.0000
-116.7806 34.7451 0.0000 12.0000
-116.8007 34.7664 0.0000 12.0000
-116.5193 34.4685 0.0000 15.0000
-116.5394 34.4898 0.0100 15.0000
-116.5595 34.5111 0.5600 15.0000
-116.5796 34.5324 0.4700 15.0000
-116.5997 34.5536 0.0000 15.0000
-116.6198 34.5749 0.0000 15.0000
-116.6399 34.5962 0.3400 15.0000
-116.6600 34.6174 0.0000 15.0000
-116.6801 34.6387 0.0000 15.0000
-116.7002 34.6600 0.0000 15.0000
-116.7203 34.6813 0.0000 15.0000
-116.7404 34.7025 0.6300 15.0000
-116.7605 34.7238 0.3300 15.0000
-116.7806 34.7451 0.0000 15.0000
-116.8007 34.7664 0.0000 15.0000
