-98.5310 16.1512 0.0000 10.7530
-98.5753 16.1659 0.0000 10.7530
-98.6197 16.1805 0.0000 10.7530
-98.6641 16.1952 0.0000 10.7530
-98.7084 16.2098 0.0000 10.7530
-98.7528 16.2245 0.0000 10.7530
-98.7972 16.2391 0.0000 10.7530
-98.8415 16.2538 0.0000 10.7530
-98.8859 16.2684 0.0000 10.7530
-98.9303 16.2831 1.7601 10.7530
-98.9746 16.2977 2.3566 10.7530
-99.0190 16.3124 0.0000 10.7530
-99.0634 16.3270 2.0471 10.7530
-99.1077 16.3417 0.9825 10.7530
-99.1521 16.3563 0.1005 10.7530
-98.5160 16.1930 0.7384 11.7070
-98.5603 16.2076 0.0000 11.7070
-98.6047 16.2223 0.1639 11.7070
-98.6491 16.2369 0.0000 11.7070
-98.6934 16.2516 1.1533 11.7070
-98.7378 16.2662 0.0000 11.7070
-98.7822 16.2809 0.0000 11.7070
-98.8265 16.2955 0.0000 11.7070
-98.8709 16.3102 0.0000 11.7070
-98.9153 16.3248 1.3821 11.7070
-98.9596 16.3395 2.1505 11.7070
-99.0040 16.3541 1.7267 11.7070
-99.0484 16.3688 0.2600 11.7070
-99.0927 16.3834 0.0000 11.7070
-99.1371 16.3981 0.0000 11.7070
-98.5010 16.2348 0.6322 12.6611
-98.5453 16.2494 0.0000 12.6611
-98.5897 16.2640 0.0000 12.6611
-98.6341 16.2787 0.0000 12.6611
-98.6784 16.2933 0.0000 12.6611
-98.7228 16.3080 3.4148 12.6611
-98.7672 16.3226 1.7937 12.6611
-98.8115 16.3373 0.0000 12.6611
-98.8559 16.3519 1.1226 12.6611
-98.9003 16.3666 1.9972 12.6611
-98.9446 16.3812 0.7597 12.6611
-98.9890 16.3959 1.6600 12.6611
-99.0334 16.4105 0.0000 12.6611
-99.0777 16.4252 0.0000 12.6611
-99.1221 16.4398 0.0000 12.6611
-98.4860 16.2765 0.0000 13.6151
-98.5303 16.2912 0.0000 13.6151
-98.5747 16.3058 0.0000 13.6151
-98.6191 16.3205 0.0000 13.6151
-98.6634 16.3351 0.6204 13.6151
-98.7078 16.3498 0.8556 13.6151
-98.7522 16.3644 2.0090 13.6151
-98.7965 16.3791 4.1237 13.6151
-98.8409 16.3937 0.0106 13.6151
-98.8853 16.4084 0.0000 13.6151
-98.9296 16.4230 0.8108 13.6151
-98.9740 16.4377 0.5704 13.6151
-99.0184 16.4523 0.0000 13.6151
-99.0627 16.4670 0.0000 13.6151
-99.1071 16.4816 0.0000 13.6151
-98.4710 16.3183 0.0000 14.5692
-98.5153 16.3329 0.0000 14.5692
-98.5597 16.3476 0.0000 14.5692
-98.6041 16.3622 0.0000 14.5692
-98.6484 16.3769 0.0000 14.5692
-98.6928 16.3915 0.0000 14.5692
-98.7372 16.4062 0.0000 14.5692
-98.7815 16.4208 2.7679 14.5692
-98.8259 16.4355 0.3544 14.5692
-98.8703 16.4501 1.3635 14.5692
-98.9146 16.4648 0.5099 14.5692
-98.9590 16.4794 0.0000 14.5692
-99.0034 16.4941 0.0000 14.5692
-99.0478 16.5087 0.0000 14.5692
-99.0921 16.5234 0.0000 14.5692
-98.4560 16.3600 0.0000 15.5232
-98.5003 16.3747 0.0000 15.5232
-98.5447 16.3893 0.0000 15.5232
-98.5891 16.4040 0.0000 15.5232
-98.6334 16.4186 0.0000 15.5232
-98.6778 16.4333 0.0000 15.5232
-98.7222 16.4479 0.0000 15.5232
-98.7665 16.4626 2.1893 15.5232
-98.8109 16.4772 3.5697 15.5232
-98.8553 16.4919 0.0000 15.5232
-98.8997 16.5065 0.0000 15.5232
-98.9440 16.5212 0.0000 15.5232
-98.9884 16.5358 0.0000 15.5232
-99.0328 16.5505 0.0000 15.5232
-99.0771 16.5651 0.0000 15.5232
-98.4410 16.4018 0.0000 16.4773
-98.4853 16.4165 0.0000 16.4773
-98.5297 16.4311 0.0000 16.4773
-98.5741 16.4458 0.0000 16.4773
-98.6185 16.4604 0.3721 16.4773
-98.6628 16.4751 0.0000 16.4773
-98.7072 16.4897 0.0000 16.4773
-98.7516 16.5043 2.4631 16.4773
-98.7959 16.5190 2.9905 16.4773
-98.8403 16.5336 0.0000 16.4773
-98.8847 16.5483 0.0000 16.4773
-98.9290 16.5629 0.0343 16.4773
-98.9734 16.5776 0.0000 16.4773
-99.0178 16.5922 0.0000 16.4773
-99.0621 16.6069 0.0000 16.4773
-98.4260 16.4436 0.0000 17.4313
-98.4704 16.4582 0.0000 17.4313
-98.5147 16.4729 0.3176 17.4313
-98.5591 16.4875 0.0000 17.4313
-98.6035 16.5022 2.6872 17.4313
-98.6478 16.5168 2.6338 17.4313
-98.6922 16.5315 3.8837 17.4313
-98.7366 16.5461 2.2125 17.4313
-98.7809 16.5608 1.2638 17.4313
-98.8253 16.5754 0.0000 17.4313
-98.8697 16.5901 0.0000 17.4313
-98.9140 16.6047 0.0616 17.4313
-98.9584 16.6194 0.0000 17.4313
-99.0028 16.6340 0.6962 17.4313
-99.0471 16.6487 0.0970 17.4313
-98.4110 16.4853 0.0000 18.3854
-98.4554 16.5000 0.0000 18.3854
-98.4997 16.5146 0.0115 18.3854
-98.5441 16.5293 1.0469 18.3854
-98.5885 16.5439 2.6487 18.3854
-98.6328 16.5586 1.4904 18.3854
-98.6772 16.5732 0.0000 18.3854
-98.7216 16.5879 0.0000 18.3854
-98.7659 16.6025 1.4094 18.3854
-98.8103 16.6172 0.0000 18.3854
-98.8547 16.6318 0.0000 18.3854
-98.8990 16.6465 0.0000 18.3854
-98.9434 16.6611 0.0000 18.3854
-98.9878 16.6758 0.0000 18.3854
-99.0321 16.6904 0.0000 18.3854
-98.3960 16.5271 0.0000 19.3394
-98.4404 16.5417 0.0000 19.3394
-98.4847 16.5564 0.0000 19.3394
-98.5291 16.5710 0.1112 19.3394
-98.5735 16.5857 0.2783 19.3394
-98.6178 16.6003 0.0000 19.3394
-98.6622 16.6150 0.0000 19.3394
-98.7066 16.6296 0.0000 19.3394
-98.7509 16.6443 0.0000 19.3394
-98.7953 16.6589 0.0000 19.3394
-98.8397 16.6736 0.0000 19.3394
-98.8840 16.6882 0.0000 19.3394
-98.9284 16.7029 0.0000 19.3394
-98.9728 16.7175 0.0000 19.3394
-99.0171 16.7322 0.0000 19.3394
-98.3810 16.5689 3.2188 20.2934
-98.4254 16.5835 0.9257 20.2934
-98.4697 16.5982 0.0000 20.2934
-98.5141 16.6128 0.0000 20.2934
-98.5585 16.6275 1.4177 20.2934
-98.6028 16.6421 2.1790 20.2934
-98.6472 16.6568 0.2857 20.2934
-98.6916 16.6714 0.0000 20.2934
-98.7359 16.6861 0.0000 20.2934
-98.7803 16.7007 0.0000 20.2934
-98.8247 16.7154 0.0000 20.2934
-98.8690 16.7300 0.0000 20.2934
-98.9134 16.7446 0.0000 20.2934
-98.9578 16.7593 0.0000 20.2934
-99.0021 16.7739 0.0000 20.2934
