134.8153 34.4551 0.1900 0.0100
134.8451 34.4814 0.1500 0.0100
134.8749 34.5077 0.1700 0.0100
134.9047 34.5341 0.3000 0.0100
134.9346 34.5604 1.9000 0.0100
134.9644 34.5867 2.1500 0.0100
134.8197 34.4517 0.2800 3.9711
134.8495 34.4780 0.3700 3.9711
134.8794 34.5043 0.3800 3.9711
134.9092 34.5306 0.2800 3.9711
134.9390 34.5570 1.7300 3.9711
134.9688 34.5833 1.7800 3.9711
134.8242 34.4482 0.3600 7.9321
134.8540 34.4746 0.3300 7.9321
134.8838 34.5009 0.2500 7.9321
134.9136 34.5272 0.3200 7.9321
134.9435 34.5535 1.2400 7.9321
134.9733 34.5799 1.2700 7.9321
134.8286 34.4448 0.2800 11.8932
134.8584 34.4712 0.2800 11.8932
134.8883 34.4975 0.1600 11.8932
134.9181 34.5238 0.4800 11.8932
134.9479 34.5501 0.4400 11.8932
134.9777 34.5765 1.5600 11.8932
134.9973 34.6022 1.7700 0.0100
135.0395 34.6115 1.0900 0.0100
134.9973 34.6022 1.2400 4.0100
135.0395 34.6115 0.3400 4.0100
134.9973 34.6022 0.6100 8.0100
135.0395 34.6115 0.8300 8.0100
134.9973 34.6022 0.6500 12.0100
135.0395 34.6115 0.9800 12.0100
135.0104 34.5739 1.3400 0.0100
135.0080 34.5763 1.0600 3.9948
135.0057 34.5788 0.8800 7.9796
135.0034 34.5813 0.8900 11.9643
135.3154 34.7723 0.5300 0.0100
135.2810 34.7502 0.2900 0.0100
135.2465 34.7280 0.4000 0.0100
135.2120 34.7058 0.2900 0.0100
135.1776 34.6837 0.5700 0.0100
135.1431 34.6615 0.2200 0.0100
135.1087 34.6393 0.4800 0.0100
135.0742 34.6172 0.1300 0.0100
135.0398 34.5950 0.2400 0.0100
135.3131 34.7748 0.1900 3.9948
135.2786 34.7526 0.5700 3.9948
135.2442 34.7305 0.6200 3.9948
135.2097 34.7083 0.4900 3.9948
135.1752 34.6861 0.7600 3.9948
135.1408 34.6640 0.3200 3.9948
135.1063 34.6418 0.5800 3.9948
135.0719 34.6197 0.2700 3.9948
135.0374 34.5975 0.3600 3.9948
135.3107 34.7773 1.5600 7.9796
135.2763 34.7551 1.2100 7.9796
135.2418 34.7329 1.8300 7.9796
135.2074 34.7108 0.8500 7.9796
135.1729 34.6886 0.7100 7.9796
135.1384 34.6665 1.2700 7.9796
135.1040 34.6443 0.5000 7.9796
135.0695 34.6221 0.5300 7.9796
135.0351 34.6000 0.2800 7.9796
135.3084 34.7797 2.7800 11.9643
135.2739 34.7576 1.6800 11.9643
135.2395 34.7354 2.2000 11.9643
135.2050 34.7132 1.1600 11.9643
135.1706 34.6911 0.6200 11.9643
135.1361 34.6689 0.2500 11.9643
135.1016 34.6468 0.2100 11.9643
135.0672 34.6246 0.4900 11.9643
135.0327 34.6024 0.6200 11.9643
