-117.9533 34.2578 0.0000 9.4000
-117.9601 34.2549 0.0000 9.4000
-117.9668 34.2519 0.0000 9.4000
-117.9735 34.2490 0.0000 9.4000
-117.9803 34.2460 0.0000 9.4000
-117.9870 34.2430 0.0600 9.4000
-117.9937 34.2401 0.0000 9.4000
-118.0005 34.2371 0.0000 9.4000
-118.0072 34.2342 0.0000 9.4000
-118.0139 34.2312 0.1000 9.4000
-117.9553 34.2609 0.0000 9.8596
-117.9621 34.2579 0.0000 9.8596
-117.9688 34.2550 0.0000 9.8596
-117.9755 34.2520 0.0400 9.8596
-117.9822 34.2491 0.0000 9.8596
-117.9890 34.2461 0.1000 9.8596
-117.9957 34.2432 0.0900 9.8596
-118.0024 34.2402 0.0000 9.8596
-118.0092 34.2372 0.0000 9.8596
-118.0159 34.2343 0.0000 9.8596
-117.9573 34.2640 0.0000 10.3193
-117.9640 34.2610 0.0000 10.3193
-117.9708 34.2580 0.0000 10.3193
-117.9775 34.2551 0.1500 10.3193
-117.9842 34.2521 0.4700 10.3193
-117.9909 34.2492 0.7400 10.3193
-117.9977 34.2462 0.7600 10.3193
-118.0044 34.2433 0.3200 10.3193
-118.0111 34.2403 0.1500 10.3193
-118.0179 34.2373 0.0000 10.3193
-117.9593 34.2670 0.0000 10.7789
-117.9660 34.2641 0.0000 10.7789
-117.9727 34.2611 0.0000 10.7789
-117.9795 34.2582 0.1300 10.7789
-117.9862 34.2552 0.3800 10.7789
-117.9929 34.2522 0.7000 10.7789
-117.9996 34.2493 1.3900 10.7789
-118.0064 34.2463 0.7600 10.7789
-118.0131 34.2434 0.6300 10.7789
-118.0198 34.2404 0.2700 10.7789
-117.9612 34.2701 0.0000 11.2385
-117.9680 34.2671 0.0000 11.2385
-117.9747 34.2642 0.0000 11.2385
-117.9814 34.2612 0.0000 11.2385
-117.9882 34.2583 0.4600 11.2385
-117.9949 34.2553 0.4800 11.2385
-118.0016 34.2523 1.1200 11.2385
-118.0083 34.2494 0.8100 11.2385
-118.0151 34.2464 0.9900 11.2385
-118.0218 34.2435 0.5000 11.2385
-117.9632 34.2732 0.0000 11.6981
-117.9699 34.2702 0.0000 11.6981
-117.9767 34.2672 0.0000 11.6981
-117.9834 34.2643 0.0000 11.6981
-117.9901 34.2613 0.2600 11.6981
-117.9969 34.2584 0.1600 11.6981
-118.0036 34.2554 0.7800 11.6981
-118.0103 34.2525 1.0800 11.6981
-118.0170 34.2495 0.5800 11.6981
-118.0238 34.2465 0.0700 11.6981
-117.9652 34.2762 0.0000 12.1578
-117.9719 34.2733 0.0000 12.1578
-117.9786 34.2703 0.0000 12.1578
-117.9854 34.2673 0.0000 12.1578
-117.9921 34.2644 0.0000 12.1578
-117.9988 34.2614 0.0800 12.1578
-118.0056 34.2585 0.4300 12.1578
-118.0123 34.2555 0.6200 12.1578
-118.0190 34.2526 0.4000 12.1578
-118.0257 34.2496 0.0300 12.1578
-117.9672 34.2793 0.0000 12.6174
-117.9739 34.2763 0.0000 12.6174
-117.9806 34.2734 0.0000 12.6174
-117.9873 34.2704 0.0000 12.6174
-117.9941 34.2675 0.0000 12.6174
-118.0008 34.2645 0.1200 12.6174
-118.0075 34.2615 0.3500 12.6174
-118.0143 34.2586 0.4600 12.6174
-118.0210 34.2556 0.0000 12.6174
-118.0277 34.2527 0.0000 12.6174
-117.9691 34.2823 0.0000 13.0770
-117.9759 34.2794 0.0000 13.0770
-117.9826 34.2764 0.0000 13.0770
-117.9893 34.2735 0.0000 13.0770
-117.9960 34.2705 0.0000 13.0770
-118.0028 34.2676 0.1400 13.0770
-118.0095 34.2646 0.0000 13.0770
-118.0162 34.2616 0.0300 13.0770
-118.0230 34.2587 0.0400 13.0770
-118.0297 34.2557 0.0100 13.0770
-117.9711 34.2854 0.0000 13.5366
-117.9778 34.2825 0.0000 13.5366
-117.9846 34.2795 0.0000 13.5366
-117.9913 34.2765 0.0000 13.5366
-117.9980 34.2736 0.0000 13.5366
-118.0047 34.2706 0.0000 13.5366
-118.0115 34.2677 0.0000 13.5366
-118.0182 34.2647 0.0000 13.5366
-118.0249 34.2618 0.0800 13.5366
-118.0317 34.2588 0.0000 13.5366
