144.3210 41.3631 0.1438 8.6200
144.3117 41.2283 0.3851 8.6200
144.3024 41.0935 0.0550 8.6200
144.2931 40.9587 0.0961 8.6200
144.2839 40.8239 0.3310 8.6200
144.2746 40.6891 0.3285 8.6200
144.2653 40.5543 0.3403 8.6200
144.2560 40.4195 0.0666 8.6200
144.2467 40.2846 0.0114 8.6200
144.2374 40.1498 0.0148 8.6200
144.2282 40.0150 0.0190 8.6200
144.2189 39.8802 0.0317 8.6200
144.2096 39.7454 0.0072 8.6200
144.2003 39.6106 0.1070 8.6200
144.2309 41.3667 0.2377 10.6647
144.2216 41.2319 0.3122 10.6647
144.2123 41.0971 0.0173 10.6647
144.2030 40.9623 0.0727 10.6647
144.1937 40.8275 0.0591 10.6647
144.1845 40.6927 0.1662 10.6647
144.1752 40.5578 0.0210 10.6647
144.1659 40.4230 0.0117 10.6647
144.1566 40.2882 0.0918 10.6647
144.1473 40.1534 0.0709 10.6647
144.1380 40.0186 0.0626 10.6647
144.1288 39.8838 0.0072 10.6647
144.1195 39.7490 0.1007 10.6647
144.1102 39.6142 0.0507 10.6647
144.1408 41.3703 0.3465 12.7093
144.1315 41.2355 0.2811 12.7093
144.1222 41.1007 0.0028 12.7093
144.1129 40.9659 0.0225 12.7093
144.1036 40.8311 0.0135 12.7093
144.0943 40.6962 0.0118 12.7093
144.0851 40.5614 0.0230 12.7093
144.0758 40.4266 0.0059 12.7093
144.0665 40.2918 0.0010 12.7093
144.0572 40.1570 0.0016 12.7093
144.0479 40.0222 0.0059 12.7093
144.0386 39.8874 0.0340 12.7093
144.0294 39.7526 0.0267 12.7093
144.0201 39.6178 0.0193 12.7093
144.0506 41.3739 0.3075 14.7540
144.0414 41.2391 0.0095 14.7540
144.0321 41.1043 0.0307 14.7540
144.0228 40.9694 0.0888 14.7540
144.0135 40.8346 0.0924 14.7540
144.0042 40.6998 0.0112 14.7540
143.9949 40.5650 0.0063 14.7540
143.9857 40.4302 0.0078 14.7540
143.9764 40.2954 0.0235 14.7540
143.9671 40.1606 0.0097 14.7540
143.9578 40.0258 0.0526 14.7540
143.9485 39.8910 0.0102 14.7540
143.9392 39.7562 0.0172 14.7540
143.9299 39.6214 0.0271 14.7540
143.9605 41.3775 0.1548 16.7987
143.9512 41.2427 0.0966 16.7987
143.9420 41.1078 0.0443 16.7987
143.9327 40.9730 0.0660 16.7987
143.9234 40.8382 0.0149 16.7987
143.9141 40.7034 0.0194 16.7987
143.9048 40.5686 0.0216 16.7987
143.8955 40.4338 0.0178 16.7987
143.8862 40.2990 0.0109 16.7987
143.8770 40.1642 0.0327 16.7987
143.8677 40.0294 0.0008 16.7987
143.8584 39.8946 0.1774 16.7987
143.8491 39.7598 0.0433 16.7987
143.8398 39.6250 0.1303 16.7987
143.8704 41.3811 0.0355 18.8434
143.8611 41.2462 0.1405 18.8434
143.8518 41.1114 0.0463 18.8434
143.8426 40.9766 0.0526 18.8434
143.8333 40.8418 0.1714 18.8434
143.8240 40.7070 0.0613 18.8434
143.8147 40.5722 0.5849 18.8434
143.8054 40.4374 0.1701 18.8434
143.7961 40.3026 0.0186 18.8434
143.7868 40.1678 0.0062 18.8434
143.7776 40.0330 0.0688 18.8434
143.7683 39.8982 0.0039 18.8434
143.7590 39.7634 0.1425 18.8434
143.7497 39.6286 0.2764 18.8434
143.7803 41.3846 0.4108 20.8880
143.7710 41.2498 0.4303 20.8880
143.7617 41.1150 0.1086 20.8880
143.7524 40.9802 0.0522 20.8880
143.7431 40.8454 0.2263 20.8880
143.7339 40.7106 0.3745 20.8880
143.7246 40.5758 1.3868 20.8880
143.7153 40.4410 1.2987 20.8880
143.7060 40.3062 0.3871 20.8880
143.6967 40.1714 0.0048 20.8880
143.6874 40.0366 0.1506 20.8880
143.6782 39.9018 0.0035 20.8880
143.6689 39.7670 0.0011 20.8880
143.6596 39.6322 0.3894 20.8880
143.6902 41.3882 0.1769 22.9327
143.6809 41.2534 0.1070 22.9327
143.6716 41.1186 0.0039 22.9327
143.6623 40.9838 0.0612 22.9327
143.6530 40.8490 0.0217 22.9327
143.6437 40.7142 0.4958 22.9327
143.6345 40.5794 1.9249 22.9327
143.6252 40.4446 2.8518 22.9327
143.6159 40.3098 2.3152 22.9327
143.6066 40.1750 0.1982 22.9327
143.5973 40.0402 0.0154 22.9327
143.5880 39.9054 0.0035 22.9327
143.5788 39.7706 0.0191 22.9327
143.5695 39.6358 0.0145 22.9327
143.6000 41.3918 0.0643 24.9774
143.5908 41.2570 0.0157 24.9774
143.5815 41.1222 0.0105 24.9774
143.5722 40.9874 0.0088 24.9774
143.5629 40.8526 0.0254 24.9774
143.5536 40.7178 0.0383 24.9774
143.5443 40.5830 0.9134 24.9774
143.5351 40.4482 1.5491 24.9774
143.5258 40.3134 1.3530 24.9774
143.5165 40.1786 0.0137 24.9774
143.5072 40.0438 0.0093 24.9774
143.4979 39.9090 0.0307 24.9774
143.4886 39.7742 0.0112 24.9774
143.4794 39.6394 0.0004 24.9774
143.5099 41.3954 0.0592 27.0220
143.5006 41.2606 0.0194 27.0220
143.4914 41.1258 0.0224 27.0220
143.4821 40.9910 0.2325 27.0220
143.4728 40.8562 0.1541 27.0220
143.4635 40.7214 0.4883 27.0220
143.4542 40.5866 1.2247 27.0220
143.4449 40.4518 1.6789 27.0220
143.4357 40.3170 0.8768 27.0220
143.4264 40.1822 0.0117 27.0220
143.4171 40.0474 0.0263 27.0220
143.4078 39.9126 0.0143 27.0220
143.3985 39.7778 0.0635 27.0220
143.3892 39.6430 0.0313 27.0220
143.4198 41.3990 0.0010 29.0667
143.4105 41.2642 0.0431 29.0667
143.4012 41.1294 0.3218 29.0667
143.3920 40.9946 0.4589 29.0667
143.3827 40.8598 0.4562 29.0667
143.3734 40.7250 1.0258 29.0667
143.3641 40.5902 1.9612 29.0667
143.3548 40.4554 2.3679 29.0667
143.3455 40.3206 0.9835 29.0667
143.3363 40.1858 0.0013 29.0667
143.3270 40.0510 0.0036 29.0667
143.3177 39.9162 0.0005 29.0667
143.3084 39.7814 0.4496 29.0667
143.2991 39.6466 0.1075 29.0667
143.3297 41.4026 0.0033 31.1114
143.3204 41.2678 0.1169 31.1114
143.3111 41.1330 0.0292 31.1114
143.3018 40.9982 0.1954 31.1114
143.2926 40.8634 0.4827 31.1114
143.2833 40.7286 1.2530 31.1114
143.2740 40.5938 2.2188 31.1114
143.2647 40.4590 2.2797 31.1114
143.2554 40.3242 1.0150 31.1114
143.2461 40.1894 0.0210 31.1114
143.2369 40.0546 0.0089 31.1114
143.2276 39.9198 0.0166 31.1114
143.2183 39.7850 0.4903 31.1114
143.2090 39.6502 0.2280 31.1114
143.2396 41.4062 0.0327 33.1560
143.2303 41.2714 0.0391 33.1560
143.2210 41.1366 0.0031 33.1560
143.2117 41.0018 0.3882 33.1560
143.2024 40.8670 0.5410 33.1560
143.1932 40.7322 1.1100 33.1560
143.1839 40.5974 2.1446 33.1560
143.1746 40.4626 1.8141 33.1560
143.1653 40.3278 0.5775 33.1560
143.1560 40.1930 0.0009 33.1560
143.1467 40.0582 0.0734 33.1560
143.1374 39.9234 0.0826 33.1560
143.1282 39.7886 0.2322 33.1560
143.1189 39.6538 0.0044 33.1560
143.1495 41.4098 0.0135 35.2007
143.1402 41.2750 0.0438 35.2007
143.1309 41.1402 0.0492 35.2007
143.1216 41.0054 0.3957 35.2007
143.1123 40.8706 0.2271 35.2007
143.1030 40.7358 0.1474 35.2007
143.0938 40.6010 1.0790 35.2007
143.0845 40.4662 0.6968 35.2007
143.0752 40.3314 0.0438 35.2007
143.0659 40.1966 0.0146 35.2007
143.0566 40.0618 0.0003 35.2007
143.0473 39.9270 0.0147 35.2007
143.0380 39.7922 0.0356 35.2007
143.0288 39.6573 0.0064 35.2007
143.0593 41.4134 0.0067 37.2454
143.0501 41.2786 0.0513 37.2454
143.0408 41.1438 0.2553 37.2454
143.0315 41.0090 0.0078 37.2454
143.0222 40.8742 0.0114 37.2454
143.0129 40.7394 0.1581 37.2454
143.0036 40.6046 0.7507 37.2454
142.9943 40.4698 0.6545 37.2454
142.9851 40.3350 0.2093 37.2454
142.9758 40.2002 0.0006 37.2454
142.9665 40.0654 0.0136 37.2454
142.9572 39.9306 0.2373 37.2454
142.9479 39.7957 0.3976 37.2454
142.9386 39.6609 0.0127 37.2454
142.9692 41.4170 0.0088 39.2901
142.9599 41.2822 0.0036 39.2901
142.9506 41.1474 0.0074 39.2901
142.9414 41.0126 0.3644 39.2901
142.9321 40.8778 0.0098 39.2901
142.9228 40.7430 0.0366 39.2901
142.9135 40.6082 1.1570 39.2901
142.9042 40.4734 1.1095 39.2901
142.8949 40.3386 0.1964 39.2901
142.8857 40.2038 0.0163 39.2901
142.8764 40.0689 0.0128 39.2901
142.8671 39.9341 0.0881 39.2901
142.8578 39.7993 0.0014 39.2901
142.8485 39.6645 0.2523 39.2901
142.8791 41.4206 0.0036 41.3347
142.8698 41.2858 0.0052 41.3347
142.8605 41.1510 0.5259 41.3347
142.8512 41.0162 0.3342 41.3347
142.8420 40.8814 0.0189 41.3347
142.8327 40.7466 0.0088 41.3347
142.8234 40.6118 0.0085 41.3347
142.8141 40.4770 0.2382 41.3347
142.8048 40.3422 0.0242 41.3347
142.7955 40.2073 0.0336 41.3347
142.7863 40.0725 0.1522 41.3347
142.7770 39.9377 0.0600 41.3347
142.7677 39.8029 0.0789 41.3347
142.7584 39.6681 0.0260 41.3347
142.7890 41.4242 0.0028 43.3794
142.7797 41.2894 0.0136 43.3794
142.7704 41.1546 0.0012 43.3794
142.7611 41.0198 0.1977 43.3794
142.7518 40.8850 0.0190 43.3794
142.7426 40.7502 0.0202 43.3794
142.7333 40.6154 0.0073 43.3794
142.7240 40.4805 0.0046 43.3794
142.7147 40.3457 0.0018 43.3794
142.7054 40.2109 0.0093 43.3794
142.6961 40.0761 0.0292 43.3794
142.6869 39.9413 0.0437 43.3794
142.6776 39.8065 0.2171 43.3794
142.6683 39.6717 0.0829 43.3794
142.6989 41.4278 0.0387 45.4241
142.6896 41.2930 0.0144 45.4241
142.6803 41.1582 0.0205 45.4241
142.6710 41.0234 0.0462 45.4241
142.6617 40.8886 0.0514 45.4241
142.6524 40.7538 0.1920 45.4241
142.6432 40.6189 0.0055 45.4241
142.6339 40.4841 0.0446 45.4241
142.6246 40.3493 0.0147 45.4241
142.6153 40.2145 0.0375 45.4241
142.6060 40.0797 0.3625 45.4241
142.5967 39.9449 0.4588 45.4241
142.5875 39.8101 0.5454 45.4241
142.5782 39.6753 0.3662 45.4241
