-118.5811 34.3984 1.0430 5.0000
-118.5693 34.3923 0.3400 5.0000
-118.5574 34.3861 0.0000 5.0000
-118.5456 34.3800 0.0000 5.0000
-118.5337 34.3739 0.0700 5.0000
-118.5218 34.3677 0.1315 5.0000
-118.5100 34.3616 0.3315 5.0000
-118.4981 34.3555 0.6889 5.0000
-118.4862 34.3493 0.3220 5.0000
-118.4744 34.3432 0.4400 5.0000
-118.4625 34.3371 0.0000 5.0000
-118.4506 34.3309 0.0000 5.0000
-118.4388 34.3248 0.1300 5.0000
-118.4269 34.3187 0.0700 5.0000
-118.5887 34.3884 0.0000 6.1019
-118.5769 34.3822 0.5500 6.1019
-118.5650 34.3761 0.6400 6.1019
-118.5531 34.3700 0.2400 6.1019
-118.5413 34.3638 0.4400 6.1019
-118.5294 34.3577 0.5904 6.1019
-118.5175 34.3516 1.1629 6.1019
-118.5057 34.3455 0.5111 6.1019
-118.4938 34.3393 0.0943 6.1019
-118.4819 34.3332 0.6888 6.1019
-118.4701 34.3271 0.6907 6.1019
-118.4582 34.3209 0.3606 6.1019
-118.4463 34.3148 0.0300 6.1019
-118.4345 34.3087 0.3100 6.1019
-118.5963 34.3783 0.0000 7.2038
-118.5844 34.3722 1.0700 7.2038
-118.5726 34.3661 1.4198 7.2038
-118.5607 34.3600 1.6439 7.2038
-118.5488 34.3538 0.8773 7.2038
-118.5370 34.3477 0.8792 7.2038
-118.5251 34.3416 0.8080 7.2038
-118.5132 34.3354 0.3302 7.2038
-118.5014 34.3293 0.3100 7.2038
-118.4895 34.3232 1.2919 7.2038
-118.4776 34.3170 1.6127 7.2038
-118.4658 34.3109 0.9192 7.2038
-118.4539 34.3048 0.1500 7.2038
-118.4420 34.2986 0.7301 7.2038
-118.6039 34.3683 0.5900 8.3058
-118.5920 34.3622 1.2800 8.3058
-118.5801 34.3561 1.4059 8.3058
-118.5683 34.3499 1.6304 8.3058
-118.5564 34.3438 1.7412 8.3058
-118.5445 34.3377 1.4241 8.3058
-118.5327 34.3315 1.2624 8.3058
-118.5208 34.3254 0.9168 8.3058
-118.5089 34.3193 0.7931 8.3058
-118.4971 34.3131 1.0488 8.3058
-118.4852 34.3070 1.7012 8.3058
-118.4733 34.3009 1.2159 8.3058
-118.4615 34.2948 0.6361 8.3058
-118.4496 34.2886 1.1061 8.3058
-118.6114 34.3583 0.6533 9.4077
-118.5996 34.3522 0.8900 9.4077
-118.5877 34.3460 1.3400 9.4077
-118.5758 34.3399 2.4128 9.4077
-118.5640 34.3338 3.1624 9.4077
-118.5521 34.3276 2.5478 9.4077
-118.5402 34.3215 1.8938 9.4077
-118.5284 34.3154 1.6842 9.4077
-118.5165 34.3093 1.4031 9.4077
-118.5046 34.3031 1.1700 9.4077
-118.4928 34.2970 0.8300 9.4077
-118.4809 34.2909 0.6865 9.4077
-118.4691 34.2847 0.9413 9.4077
-118.4572 34.2786 1.3901 9.4077
-118.6190 34.3483 0.9926 10.5096
-118.6071 34.3422 0.9825 10.5096
-118.5953 34.3360 1.2910 10.5096
-118.5834 34.3299 2.3324 10.5096
-118.5715 34.3238 2.8359 10.5096
-118.5597 34.3176 2.5087 10.5096
-118.5478 34.3115 2.5701 10.5096
-118.5360 34.3054 2.6257 10.5096
-118.5241 34.2992 1.8349 10.5096
-118.5122 34.2931 1.1968 10.5096
-118.5004 34.2870 0.7603 10.5096
-118.4885 34.2808 0.5169 10.5096
-118.4766 34.2747 0.5303 10.5096
-118.4648 34.2686 1.1086 10.5096
-118.6266 34.3383 1.3300 11.6115
-118.6147 34.3321 1.5201 11.6115
-118.6029 34.3260 1.8501 11.6115
-118.5910 34.3199 2.5688 11.6115
-118.5791 34.3137 2.1699 11.6115
-118.5673 34.3076 1.8893 11.6115
-118.5554 34.3015 2.4869 11.6115
-118.5435 34.2953 2.7541 11.6115
-118.5317 34.2892 2.3753 11.6115
-118.5198 34.2831 1.9348 11.6115
-118.5079 34.2769 1.3793 11.6115
-118.4961 34.2708 0.9996 11.6115
-118.4842 34.2647 0.2800 11.6115
-118.4723 34.2586 0.6100 11.6115
-118.6342 34.3282 1.3349 12.7135
-118.6223 34.3221 1.3592 12.7135
-118.6104 34.3160 1.8117 12.7135
-118.5986 34.3098 2.2600 12.7135
-118.5867 34.3037 1.6203 12.7135
-118.5748 34.2976 1.3306 12.7135
-118.5630 34.2914 1.7568 12.7135
-118.5511 34.2853 2.4270 12.7135
-118.5392 34.2792 2.3523 12.7135
-118.5274 34.2731 1.8702 12.7135
-118.5155 34.2669 1.2881 12.7135
-118.5036 34.2608 0.5100 12.7135
-118.4918 34.2547 0.0700 12.7135
-118.4799 34.2485 0.8079 12.7135
-118.6417 34.3182 0.9821 13.8154
-118.6299 34.3121 1.0299 13.8154
-118.6180 34.3060 1.3438 13.8154
-118.6061 34.2998 1.6246 13.8154
-118.5943 34.2937 1.2182 13.8154
-118.5824 34.2876 0.9238 13.8154
-118.5705 34.2814 1.5500 13.8154
-118.5587 34.2753 1.9079 13.8154
-118.5468 34.2692 1.2444 13.8154
-118.5349 34.2630 1.4734 13.8154
-118.5231 34.2569 1.4964 13.8154
-118.5112 34.2508 1.0000 13.8154
-118.4993 34.2446 0.1500 13.8154
-118.4875 34.2385 0.0000 13.8154
-118.6493 34.3082 0.3700 14.9173
-118.6374 34.3021 1.0006 14.9173
-118.6256 34.2959 1.1796 14.9173
-118.6137 34.2898 1.0875 14.9173
-118.6018 34.2837 0.8783 14.9173
-118.5900 34.2775 0.3562 14.9173
-118.5781 34.2714 0.9544 14.9173
-118.5662 34.2653 1.1372 14.9173
-118.5544 34.2591 1.3499 14.9173
-118.5425 34.2530 2.0915 14.9173
-118.5306 34.2469 1.4904 14.9173
-118.5188 34.2407 1.2300 14.9173
-118.5069 34.2346 0.2200 14.9173
-118.4951 34.2285 0.0000 14.9173
-118.6569 34.2982 0.8627 16.0192
-118.6450 34.2920 1.2264 16.0192
-118.6331 34.2859 0.8712 16.0192
-118.6213 34.2798 0.7252 16.0192
-118.6094 34.2736 0.8226 16.0192
-118.5975 34.2675 0.4200 16.0192
-118.5857 34.2614 0.8700 16.0192
-118.5738 34.2553 0.8152 16.0192
-118.5620 34.2491 1.4008 16.0192
-118.5501 34.2430 1.5749 16.0192
-118.5382 34.2369 1.8248 16.0192
-118.5264 34.2307 2.6848 16.0192
-118.5145 34.2246 0.6364 16.0192
-118.5026 34.2185 0.0000 16.0192
-118.6645 34.2881 0.4100 17.1211
-118.6526 34.2820 0.5515 17.1211
-118.6407 34.2759 0.4200 17.1211
-118.6289 34.2698 0.5800 17.1211
-118.6170 34.2636 1.0589 17.1211
-118.6051 34.2575 0.6545 17.1211
-118.5933 34.2514 0.9106 17.1211
-118.5814 34.2452 1.1162 17.1211
-118.5695 34.2391 1.7460 17.1211
-118.5577 34.2330 0.5926 17.1211
-118.5458 34.2268 1.2536 17.1211
-118.5339 34.2207 1.7769 17.1211
-118.5221 34.2146 0.0400 17.1211
-118.5102 34.2084 0.0000 17.1211
-118.6720 34.2781 0.1000 18.2231
-118.6602 34.2720 0.4711 18.2231
-118.6483 34.2659 0.4908 18.2231
-118.6364 34.2597 0.5835 18.2231
-118.6246 34.2536 1.8198 18.2231
-118.6127 34.2475 1.3083 18.2231
-118.6008 34.2413 0.8829 18.2231
-118.5890 34.2352 0.7323 18.2231
-118.5771 34.2291 1.0602 18.2231
-118.5652 34.2229 0.4960 18.2231
-118.5534 34.2168 0.3000 18.2231
-118.5415 34.2107 0.3106 18.2231
-118.5296 34.2045 0.1281 18.2231
-118.5178 34.1984 0.5450 18.2231
-118.6796 34.2681 0.5700 19.3250
-118.6677 34.2620 0.8121 19.3250
-118.6559 34.2558 1.0034 19.3250
-118.6440 34.2497 0.7200 19.3250
-118.6321 34.2436 1.3925 19.3250
-118.6203 34.2374 1.1534 19.3250
-118.6084 34.2313 0.4302 19.3250
-118.5965 34.2252 0.3800 19.3250
-118.5847 34.2191 0.5600 19.3250
-118.5728 34.2129 0.4000 19.3250
-118.5609 34.2068 1.0500 19.3250
-118.5491 34.2007 1.4501 19.3250
-118.5372 34.1945 1.1500 19.3250
-118.5253 34.1884 0.5624 19.3250
