29.5520 40.7588 1.1221 0.0000
29.5211 40.7583 0.7842 0.0000
29.4902 40.7577 0.9816 0.0000
29.4594 40.7571 1.2009 0.0000
29.4285 40.7566 0.8925 0.0000
29.3976 40.7560 0.3211 0.0000
29.3667 40.7555 0.0244 0.0000
29.3358 40.7549 0.0286 0.0000
29.3049 40.7543 0.2044 0.0000
29.2741 40.7538 0.3461 0.0000
29.5520 40.7588 1.2663 2.6000
29.5211 40.7583 1.2318 2.6000
29.4902 40.7577 1.5758 2.6000
29.4594 40.7571 1.6871 2.6000
29.4285 40.7566 1.1150 2.6000
29.3976 40.7560 0.3078 2.6000
29.3667 40.7555 -0.0000 2.6000
29.3358 40.7549 -0.0000 2.6000
29.3049 40.7543 0.2093 2.6000
29.2741 40.7538 0.4223 2.6000
29.5520 40.7588 1.5653 5.2000
29.5211 40.7583 1.8099 5.2000
29.4902 40.7577 2.2025 5.2000
29.4594 40.7571 2.1812 5.2000
29.4285 40.7566 1.4358 5.2000
29.3976 40.7560 0.4033 5.2000
29.3667 40.7555 -0.0000 5.2000
29.3358 40.7549 -0.0000 5.2000
29.3049 40.7543 0.2595 5.2000
29.2741 40.7538 0.5192 5.2000
29.5520 40.7588 1.8658 7.8000
29.5211 40.7583 2.1993 7.8000
29.4902 40.7577 2.4414 7.8000
29.4594 40.7571 2.1726 7.8000
29.4285 40.7566 1.2772 7.8000
29.3976 40.7560 0.1550 7.8000
29.3667 40.7555 -0.0000 7.8000
29.3358 40.7549 -0.0000 7.8000
29.3049 40.7543 0.0633 7.8000
29.2741 40.7538 0.2068 7.8000
29.5520 40.7588 1.9741 10.4000
29.5211 40.7583 2.2238 10.4000
29.4902 40.7577 2.2557 10.4000
29.4594 40.7571 1.7915 10.4000
29.4285 40.7566 0.8276 10.4000
29.3976 40.7560 0.0750 10.4000
29.3667 40.7555 -0.0000 10.4000
29.3358 40.7549 -0.0000 10.4000
29.3049 40.7543 -0.0000 10.4000
29.2741 40.7538 0.0216 10.4000
29.5520 40.7588 1.9175 13.0000
29.5211 40.7583 2.0290 13.0000
29.4902 40.7577 1.8803 13.0000
29.4594 40.7571 1.2990 13.0000
29.4285 40.7566 0.3350 13.0000
29.3976 40.7560 -0.0000 13.0000
29.3667 40.7555 -0.0000 13.0000
29.3358 40.7549 -0.0000 13.0000
29.3049 40.7543 -0.0000 13.0000
29.2741 40.7538 -0.0000 13.0000
29.5520 40.7588 1.8369 15.6000
29.5211 40.7583 1.8365 15.6000
29.4902 40.7577 1.5871 15.6000
29.4594 40.7571 0.9787 15.6000
29.4285 40.7566 0.0753 15.6000
29.3976 40.7560 -0.0000 15.6000
29.3667 40.7555 -0.0000 15.6000
29.3358 40.7549 -0.0000 15.6000
29.3049 40.7543 -0.0000 15.6000
29.2741 40.7538 -0.0000 15.6000
29.8608 40.7593 2.7709 0.0000
29.8299 40.7592 3.6738 0.0000
29.7990 40.7592 4.5629 0.0000
29.7682 40.7592 5.2475 0.0000
29.7373 40.7592 5.6490 0.0000
29.7064 40.7592 5.6293 0.0000
29.6755 40.7592 5.0871 0.0000
29.6446 40.7592 4.0684 0.0000
29.6137 40.7592 2.8845 0.0000
29.5828 40.7591 1.9532 0.0000
29.8608 40.7593 2.6765 2.6000
29.8299 40.7592 3.5406 2.6000
29.7990 40.7592 4.4064 2.6000
29.7682 40.7592 5.1063 2.6000
29.7373 40.7592 5.5313 2.6000
29.7064 40.7592 5.5103 2.6000
29.6755 40.7592 4.9261 2.6000
29.6446 40.7592 3.8455 2.6000
29.6137 40.7592 2.6441 2.6000
29.5828 40.7591 1.8132 2.6000
29.8608 40.7593 2.5288 5.2000
29.8299 40.7592 3.2586 5.2000
29.7990 40.7592 4.0172 5.2000
29.7682 40.7592 4.6504 5.2000
29.7373 40.7592 5.0087 5.2000
29.7064 40.7592 4.9264 5.2000
29.6755 40.7592 4.3227 5.2000
29.6446 40.7592 3.3272 5.2000
29.6137 40.7592 2.3320 5.2000
29.5828 40.7591 1.7477 5.2000
29.8608 40.7593 2.2536 7.8000
29.8299 40.7592 2.8486 7.8000
29.7990 40.7592 3.4694 7.8000
29.7682 40.7592 3.9755 7.8000
29.7373 40.7592 4.2265 7.8000
29.7064 40.7592 4.1024 7.8000
29.6755 40.7592 3.5788 7.8000
29.6446 40.7592 2.8081 7.8000
29.6137 40.7592 2.1141 7.8000
29.5828 40.7591 1.7949 7.8000
29.8608 40.7593 1.9690 10.4000
29.8299 40.7592 2.4275 10.4000
29.7990 40.7592 2.9057 10.4000
29.7682 40.7592 3.2834 10.4000
29.7373 40.7592 3.4456 10.4000
29.7064 40.7592 3.3167 10.4000
29.6755 40.7592 2.9124 10.4000
29.6446 40.7592 2.3786 10.4000
29.6137 40.7592 1.9541 10.4000
29.5828 40.7591 1.8251 10.4000
29.8608 40.7593 1.7522 13.0000
29.8299 40.7592 2.1019 13.0000
29.7990 40.7592 2.4659 13.0000
29.7682 40.7592 2.7446 13.0000
29.7373 40.7592 2.8495 13.0000
29.7064 40.7592 2.7369 13.0000
29.6755 40.7592 2.4414 13.0000
29.6446 40.7592 2.0860 13.0000
29.6137 40.7592 1.8360 13.0000
29.5828 40.7591 1.7954 13.0000
29.8608 40.7593 1.6787 15.6000
29.8299 40.7592 1.9661 15.6000
29.7990 40.7592 2.2633 15.6000
29.7682 40.7592 2.4859 15.6000
29.7373 40.7592 2.5641 15.6000
29.7064 40.7592 2.4707 15.6000
29.6755 40.7592 2.2440 15.6000
29.6446 40.7592 1.9840 15.6000
29.6137 40.7592 1.8085 15.6000
29.5828 40.7591 1.7773 15.6000
30.2933 40.7626 1.6166 0.0000
30.2624 40.7623 1.8149 0.0000
30.2315 40.7621 2.5433 0.0000
30.2006 40.7618 3.6936 0.0000
30.1697 40.7616 4.8527 0.0000
30.1388 40.7614 5.2046 0.0000
30.1079 40.7611 4.6673 0.0000
30.0771 40.7609 3.8789 0.0000
30.0462 40.7606 3.0318 0.0000
30.0153 40.7604 2.2939 0.0000
29.9844 40.7602 1.7790 0.0000
29.9535 40.7599 1.5527 0.0000
29.9226 40.7597 1.6450 0.0000
29.8917 40.7594 2.0628 0.0000
30.2933 40.7626 1.5248 2.6000
30.2624 40.7623 1.6696 2.6000
30.2315 40.7621 2.3319 2.6000
30.2006 40.7618 3.3932 2.6000
30.1697 40.7616 4.4520 2.6000
30.1388 40.7614 4.8593 2.6000
30.1079 40.7611 4.4956 2.6000
30.0771 40.7609 3.7900 2.6000
30.0462 40.7606 2.9889 2.6000
30.0153 40.7604 2.2753 2.6000
29.9844 40.7602 1.7689 2.6000
29.9535 40.7599 1.5383 2.6000
29.9226 40.7597 1.6138 2.6000
29.8917 40.7594 2.0042 2.6000
30.2933 40.7626 1.5529 5.2000
30.2624 40.7623 1.6163 5.2000
30.2315 40.7621 2.1230 5.2000
30.2006 40.7618 2.9506 5.2000
30.1697 40.7616 3.7786 5.2000
30.1388 40.7614 4.1845 5.2000
30.1079 40.7611 4.0342 5.2000
30.0771 40.7609 3.5315 5.2000
30.0462 40.7606 2.8908 5.2000
30.0153 40.7604 2.2844 5.2000
29.9844 40.7602 1.8328 5.2000
29.9535 40.7599 1.6103 5.2000
29.9226 40.7597 1.6520 5.2000
29.8917 40.7594 1.9682 5.2000
30.2933 40.7626 1.5510 7.8000
30.2624 40.7623 1.5403 7.8000
30.2315 40.7621 1.8982 7.8000
30.2006 40.7618 2.5130 7.8000
30.1697 40.7616 3.1446 7.8000
30.1388 40.7614 3.5160 7.8000
30.1079 40.7611 3.5032 7.8000
30.0771 40.7609 3.1798 7.8000
30.0462 40.7606 2.6928 7.8000
30.0153 40.7604 2.1890 7.8000
29.9844 40.7602 1.7862 7.8000
29.9535 40.7599 1.5644 7.8000
29.9226 40.7597 1.5656 7.8000
29.8917 40.7594 1.8038 7.8000
30.2933 40.7626 1.5604 10.4000
30.2624 40.7623 1.4886 10.4000
30.2315 40.7621 1.7196 10.4000
30.2006 40.7618 2.1627 10.4000
30.1697 40.7616 2.6418 10.4000
30.1388 40.7614 2.9637 10.4000
30.1079 40.7611 3.0211 10.4000
30.0771 40.7609 2.8263 10.4000
30.0462 40.7606 2.4699 10.4000
30.0153 40.7604 2.0654 10.4000
29.9844 40.7602 1.7171 10.4000
29.9535 40.7599 1.5031 10.4000
29.9226 40.7597 1.4685 10.4000
29.8917 40.7594 1.6306 10.4000
30.2933 40.7626 1.5795 13.0000
30.2624 40.7623 1.4700 13.0000
30.2315 40.7621 1.6117 13.0000
30.2006 40.7618 1.9344 13.0000
30.1697 40.7616 2.3050 13.0000
30.1388 40.7614 2.5793 13.0000
30.1079 40.7611 2.6647 13.0000
30.0771 40.7609 2.5475 13.0000
30.0462 40.7606 2.2825 13.0000
30.0153 40.7604 1.9553 13.0000
29.9844 40.7602 1.6550 13.0000
29.9535 40.7599 1.4537 13.0000
29.9226 40.7597 1.3962 13.0000
29.8917 40.7594 1.5011 13.0000
30.2933 40.7626 1.6268 15.6000
30.2624 40.7623 1.5104 15.6000
30.2315 40.7621 1.6056 15.6000
30.2006 40.7618 1.8574 15.6000
30.1697 40.7616 2.1591 15.6000
30.1388 40.7614 2.3941 15.6000
30.1079 40.7611 2.4814 15.6000
30.0771 40.7609 2.3997 15.6000
30.0462 40.7606 2.1854 15.6000
30.0153 40.7604 1.9075 15.6000
29.9844 40.7602 1.6430 15.6000
29.9535 40.7599 1.4583 15.6000
29.9226 40.7597 1.3961 15.6000
29.8917 40.7594 1.4743 15.6000
30.6577 40.7122 1.2196 0.0000
30.6273 40.7166 0.5631 0.0000
30.5970 40.7210 0.5372 0.0000
30.5666 40.7254 1.1300 0.0000
30.5363 40.7297 2.0738 0.0000
30.5059 40.7341 3.0391 0.0000
30.4756 40.7385 3.7421 0.0000
30.4453 40.7429 4.0117 0.0000
30.4149 40.7473 3.8154 0.0000
30.3846 40.7517 3.2533 0.0000
30.3542 40.7561 2.5279 0.0000
30.3239 40.7605 1.8992 0.0000
30.6577 40.7122 0.9955 2.6000
30.6273 40.7166 0.3216 2.6000
30.5970 40.7210 0.2986 2.6000
30.5666 40.7254 0.9254 2.6000
30.5363 40.7297 1.9213 2.6000
30.5059 40.7341 2.9489 2.6000
30.4756 40.7385 3.7106 2.6000
30.4453 40.7429 4.0227 2.6000
30.4149 40.7473 3.8455 2.6000
30.3846 40.7517 3.2772 2.6000
30.3542 40.7561 2.5240 2.6000
30.3239 40.7605 1.8534 2.6000
30.6577 40.7122 0.6222 5.2000
30.6273 40.7166 0.1231 5.2000
30.5970 40.7210 0.1118 5.2000
30.5666 40.7254 0.6695 5.2000
30.5363 40.7297 1.6060 5.2000
30.5059 40.7341 2.6149 5.2000
30.4756 40.7385 3.4044 5.2000
30.4453 40.7429 3.7822 5.2000
30.4149 40.7473 3.6929 5.2000
30.3846 40.7517 3.2156 5.2000
30.3542 40.7561 2.5366 5.2000
30.3239 40.7605 1.9026 5.2000
30.6577 40.7122 0.1105 7.8000
30.6273 40.7166 -0.0000 7.8000
30.5970 40.7210 -0.0000 7.8000
30.5666 40.7254 0.3400 7.8000
30.5363 40.7297 1.2233 7.8000
30.5059 40.7341 2.1841 7.8000
30.4756 40.7385 2.9676 7.8000
30.4453 40.7429 3.3941 7.8000
30.4149 40.7473 3.3998 7.8000
30.3846 40.7517 3.0416 7.8000
30.3542 40.7561 2.4742 7.8000
30.3239 40.7605 1.9079 7.8000
30.6577 40.7122 -0.0000 10.4000
30.6273 40.7166 -0.0000 10.4000
30.5970 40.7210 -0.0000 10.4000
30.5666 40.7254 0.0664 10.4000
30.5363 40.7297 0.8841 10.4000
30.5059 40.7341 1.7760 10.4000
30.4756 40.7385 2.5316 10.4000
30.4453 40.7429 2.9904 10.4000
30.4149 40.7473 3.0842 10.4000
30.3846 40.7517 2.8472 10.4000
30.3542 40.7561 2.3994 10.4000
30.3239 40.7605 1.9115 10.4000
30.6577 40.7122 -0.0000 13.0000
30.6273 40.7166 -0.0000 13.0000
30.5970 40.7210 -0.0000 13.0000
30.5666 40.7254 0.0734 13.0000
30.5363 40.7297 0.6564 13.0000
30.5059 40.7341 1.4772 13.0000
30.4756 40.7385 2.1920 13.0000
30.4453 40.7429 2.6612 13.0000
30.4149 40.7473 2.8166 13.0000
30.3846 40.7517 2.6752 13.0000
30.3542 40.7561 2.3281 13.0000
30.3239 40.7605 1.9128 13.0000
30.6577 40.7122 -0.0000 15.6000
30.6273 40.7166 -0.0000 15.6000
30.5970 40.7210 -0.0000 15.6000
30.5666 40.7254 0.1202 15.6000
30.5363 40.7297 0.5817 15.6000
30.5059 40.7341 1.3377 15.6000
30.4756 40.7385 2.0044 15.6000
30.4453 40.7429 2.4603 15.6000
30.4149 40.7473 2.6414 15.6000
30.3846 40.7517 2.5563 15.6000
30.3542 40.7561 2.2788 15.6000
30.3239 40.7605 1.9251 15.6000
30.9180 40.7812 1.2500 0.0000
30.8891 40.7728 1.8371 0.0000
30.8603 40.7645 2.1026 0.0000
30.8315 40.7561 2.5740 0.0000
30.8026 40.7477 3.0545 0.0000
30.7738 40.7393 2.1845 0.0000
30.7449 40.7309 1.8239 0.0000
30.7161 40.7225 2.0398 0.0000
30.6873 40.7141 2.0251 0.0000
30.9180 40.7812 1.7217 2.6000
30.8891 40.7728 2.1905 2.6000
30.8603 40.7645 1.9974 2.6000
30.8315 40.7561 1.7239 2.6000
30.8026 40.7477 1.6307 2.6000
30.7738 40.7393 1.1616 2.6000
30.7449 40.7309 1.2191 2.6000
30.7161 40.7225 1.6993 2.6000
30.6873 40.7141 1.7914 2.6000
30.9180 40.7812 2.4414 5.2000
30.8891 40.7728 2.6685 5.2000
30.8603 40.7645 2.0287 5.2000
30.8315 40.7561 1.1531 5.2000
30.8026 40.7477 0.5974 5.2000
30.7738 40.7393 0.3599 5.2000
30.7449 40.7309 0.6015 5.2000
30.7161 40.7225 1.0507 5.2000
30.6873 40.7141 1.1448 5.2000
30.9180 40.7812 2.3803 7.8000
30.8891 40.7728 2.5039 7.8000
30.8603 40.7645 1.8557 7.8000
30.8315 40.7561 0.8801 7.8000
30.8026 40.7477 0.0803 7.8000
30.7738 40.7393 -0.0000 7.8000
30.7449 40.7309 0.0031 7.8000
30.7161 40.7225 0.0194 7.8000
30.6873 40.7141 0.1176 7.8000
30.9180 40.7812 2.3080 10.4000
30.8891 40.7728 2.3582 10.4000
30.8603 40.7645 1.7589 10.4000
30.8315 40.7561 0.8183 10.4000
30.8026 40.7477 0.0803 10.4000
30.7738 40.7393 -0.0000 10.4000
30.7449 40.7309 -0.0000 10.4000
30.7161 40.7225 -0.0000 10.4000
30.6873 40.7141 -0.0000 10.4000
30.9180 40.7812 2.2187 13.0000
30.8891 40.7728 2.2227 13.0000
30.8603 40.7645 1.6870 13.0000
30.8315 40.7561 0.8273 13.0000
30.8026 40.7477 0.0703 13.0000
30.7738 40.7393 -0.0000 13.0000
30.7449 40.7309 -0.0000 13.0000
30.7161 40.7225 -0.0000 13.0000
30.6873 40.7141 -0.0000 13.0000
30.9180 40.7812 2.0799 15.6000
30.8891 40.7728 2.0618 15.6000
30.8603 40.7645 1.5906 15.6000
30.8315 40.7561 0.8255 15.6000
30.8026 40.7477 0.0093 15.6000
30.7738 40.7393 -0.0000 15.6000
30.7449 40.7309 -0.0000 15.6000
30.7161 40.7225 -0.0000 15.6000
30.6873 40.7141 -0.0000 15.6000
31.0404 40.7876 -0.0000 0.0000
31.0095 40.7870 -0.0000 0.0000
30.9787 40.7863 -0.0000 0.0000
30.9478 40.7857 0.4121 0.0000
31.0404 40.7876 -0.0000 2.6000
31.0095 40.7870 -0.0000 2.6000
30.9787 40.7863 0.0058 2.6000
30.9478 40.7857 0.6944 2.6000
31.0404 40.7876 -0.0000 5.2000
31.0095 40.7870 -0.0000 5.2000
30.9787 40.7863 0.2291 5.2000
30.9478 40.7857 1.3199 5.2000
31.0404 40.7876 -0.0000 7.8000
31.0095 40.7870 -0.0000 7.8000
30.9787 40.7863 0.3054 7.8000
30.9478 40.7857 1.4842 7.8000
31.0404 40.7876 -0.0000 10.4000
31.0095 40.7870 0.0833 10.4000
30.9787 40.7863 0.6510 10.4000
30.9478 40.7857 1.6188 10.4000
31.0404 40.7876 -0.0000 13.0000
31.0095 40.7870 0.1890 13.0000
30.9787 40.7863 0.9047 13.0000
30.9478 40.7857 1.6908 13.0000
31.0404 40.7876 0.0884 15.6000
31.0095 40.7870 0.4107 15.6000
30.9787 40.7863 1.0158 15.6000
30.9478 40.7857 1.6634 15.6000
