29.7799 40.7181 4.7000 0.0000
29.7205 40.7173 4.5000 0.0000
29.6612 40.7166 3.5000 0.0000
29.6018 40.7158 3.0000 0.0000
29.5425 40.7150 2.1000 0.0000
29.4831 40.7142 2.3000 0.0000
29.4238 40.7134 2.4000 0.0000
29.3645 40.7126 1.9000 0.0000
29.3051 40.7118 0.7000 0.0000
29.2458 40.7111 0.2000 0.0000
29.1864 40.7103 0.1000 0.0000
29.7799 40.7182 5.5089 4.0000
29.7205 40.7174 5.4012 4.0000
29.6612 40.7166 4.5084 4.0000
29.6018 40.7158 2.4119 4.0000
29.5425 40.7150 1.8036 4.0000
29.4831 40.7143 1.3012 4.0000
29.4238 40.7135 0.8008 4.0000
29.3645 40.7127 0.7051 4.0000
29.3051 40.7119 0.2099 4.0000
29.2458 40.7111 0.1099 4.0000
29.1864 40.7103 0.0099 4.0000
29.7798 40.7183 4.5996 8.0000
29.7205 40.7175 4.5071 8.0000
29.6612 40.7167 4.1096 8.0000
29.6018 40.7159 2.2670 8.0000
29.5425 40.7151 1.5030 8.0000
29.4831 40.7143 1.0045 8.0000
29.4238 40.7135 0.7100 8.0000
29.3645 40.7128 0.5086 8.0000
29.3051 40.7120 0.1099 8.0000
29.2458 40.7112 0.0099 8.0000
29.1864 40.7104 0.0099 8.0000
29.7798 40.7183 4.4281 12.0000
29.7205 40.7175 4.1065 12.0000
29.6612 40.7167 3.1092 12.0000
29.6018 40.7160 1.8051 12.0000
29.5425 40.7152 1.3071 12.0000
29.4831 40.7144 0.6084 12.0000
29.4238 40.7136 0.5068 12.0000
29.3645 40.7128 0.1326 12.0000
29.3051 40.7120 0.0599 12.0000
29.2458 40.7112 0.0099 12.0000
29.1864 40.7105 0.0099 12.0000
29.7798 40.7184 1.8081 16.0000
29.7205 40.7176 1.5065 16.0000
29.6612 40.7168 1.5092 16.0000
29.6018 40.7160 1.4051 16.0000
29.5425 40.7152 0.6571 16.0000
29.4831 40.7144 0.5084 16.0000
29.4238 40.7137 0.1068 16.0000
29.3644 40.7129 0.0026 16.0000
29.3051 40.7121 0.0000 16.0000
29.2458 40.7113 0.0000 16.0000
29.1864 40.7105 0.0099 16.0000
29.7798 40.7184 0.3581 20.0000
29.7205 40.7177 0.3065 20.0000
29.6612 40.7169 0.2592 20.0000
29.6018 40.7161 0.4051 20.0000
29.5425 40.7153 0.2071 20.0000
29.4831 40.7145 0.1084 20.0000
29.4238 40.7137 0.0068 20.0000
29.3644 40.7129 0.0026 20.0000
29.3051 40.7122 0.0000 20.0000
29.2458 40.7114 0.0000 20.0000
29.1864 40.7106 0.0099 20.0000
29.7798 40.7185 0.0081 24.0000
29.7205 40.7177 0.0065 24.0000
29.6612 40.7169 0.0092 24.0000
29.6018 40.7161 0.0051 24.0000
29.5425 40.7154 0.0071 24.0000
29.4831 40.7146 0.0084 24.0000
29.4238 40.7138 0.0068 24.0000
29.3644 40.7130 0.0026 24.0000
29.3051 40.7122 0.0000 24.0000
29.2458 40.7114 0.0000 24.0000
29.1864 40.7106 0.0000 24.0000
29.8966 40.7244 4.7000 0.0000
29.8374 40.7280 4.8000 0.0000
29.8966 40.7245 4.1015 4.0000
29.8374 40.7280 4.5011 4.0000
29.8966 40.7246 3.9024 8.0000
29.8374 40.7281 4.2014 8.0000
29.8966 40.7246 3.1053 12.0000
29.8374 40.7282 3.9058 12.0000
29.8966 40.7247 1.0053 16.0000
29.8374 40.7282 1.0058 16.0000
29.8966 40.7248 0.1053 20.0000
29.8374 40.7283 0.2058 20.0000
29.8966 40.7248 0.0053 24.0000
29.8375 40.7283 0.0058 24.0000
29.9557 40.7233 4.0000 0.0000
29.9557 40.7245 4.0007 3.9975
29.9557 40.7258 3.8075 7.9951
29.9557 40.7271 1.9006 11.9926
29.9557 40.7283 1.0006 15.9902
29.9557 40.7296 0.0506 19.9877
29.9557 40.7309 0.0006 23.9852
30.2516 40.7172 2.5900 0.0000
30.1923 40.7192 3.0000 0.0000
30.1330 40.7211 3.4900 0.0000
30.0737 40.7231 3.6000 0.0000
30.0144 40.7250 3.6000 0.0000
30.2518 40.7202 3.0139 3.9859
30.1925 40.7222 3.5075 3.9859
30.1332 40.7241 3.4929 3.9859
30.0739 40.7261 3.5961 3.9859
30.0146 40.7281 3.6058 3.9859
30.2520 40.7232 2.7693 7.9718
30.1927 40.7252 2.5098 7.9718
30.1334 40.7271 2.4017 7.9718
30.0741 40.7291 3.4026 7.9718
30.0148 40.7311 3.4000 7.9718
30.2521 40.7262 1.9361 11.9578
30.1928 40.7282 1.7065 11.9578
30.1335 40.7302 1.0018 11.9578
30.0742 40.7321 1.7093 11.9578
30.0149 40.7341 1.8054 11.9578
30.2523 40.7292 0.5061 15.9437
30.1930 40.7312 0.4065 15.9437
30.1337 40.7332 0.3018 15.9437
30.0744 40.7351 0.4093 15.9437
30.0151 40.7371 0.7054 15.9437
30.2525 40.7323 0.0061 19.9296
30.1932 40.7342 0.0065 19.9296
30.1339 40.7362 0.1018 19.9296
30.0746 40.7382 0.0093 19.9296
30.0153 40.7401 0.0054 19.9296
30.2526 40.7353 0.0061 23.9155
30.1934 40.7372 0.0065 23.9155
30.1341 40.7392 0.0018 23.9155
30.0748 40.7412 0.0093 23.9155
30.0155 40.7431 0.0054 23.9155
30.3101 40.7138 4.5000 0.0000
30.3106 40.7170 3.8078 3.9847
30.3111 40.7201 3.0041 7.9694
30.3116 40.7232 2.0027 11.9542
30.3121 40.7263 0.6027 15.9389
30.3126 40.7294 0.0027 19.9236
30.3131 40.7326 0.0027 23.9083
30.3690 40.7081 5.5000 0.0000
30.3694 40.7106 4.7074 3.9902
30.3698 40.7131 3.0023 7.9804
30.3702 40.7156 2.3014 11.9706
30.3705 40.7181 0.9014 15.9608
30.3709 40.7206 0.1014 19.9510
30.3713 40.7231 0.0014 23.9412
30.4861 40.6951 2.5000 0.0000
30.4278 40.7033 4.5000 0.0000
30.4865 40.6967 1.5003 3.9962
30.4281 40.7049 4.4087 3.9962
30.4869 40.6982 0.8176 7.9923
30.4285 40.7064 2.6048 7.9923
30.4873 40.6998 0.5039 11.9885
30.4289 40.7080 2.4055 11.9885
30.4876 40.7013 0.1039 15.9846
30.4293 40.7095 1.0055 15.9846
30.4880 40.7029 0.0039 19.9808
30.4297 40.7111 0.0055 19.9808
30.4884 40.7044 0.0039 23.9770
30.4300 40.7126 0.0055 23.9770
30.5450 40.6928 2.0000 0.0000
30.5450 40.6935 0.4045 3.9994
30.5450 40.6941 0.3003 7.9988
30.5450 40.6947 0.2004 11.9981
30.5450 40.6954 0.1004 15.9975
30.5450 40.6960 0.0004 19.9969
30.5450 40.6966 0.0004 23.9963
30.6041 40.6945 0.6000 0.0000
30.6041 40.6945 0.4036 4.0000
30.6041 40.6945 0.3007 8.0000
30.6041 40.6945 0.2000 12.0000
30.6041 40.6945 0.0000 16.0000
30.6041 40.6945 0.0000 20.0000
30.6041 40.6945 0.0000 24.0000
30.6629 40.6986 1.5000 0.0000
30.6629 40.6987 1.7285 4.0000
30.6629 40.6987 1.6003 8.0000
30.6629 40.6988 0.4003 12.0000
30.6629 40.6989 0.0033 16.0000
30.6629 40.6989 0.0033 20.0000
30.6629 40.6990 0.0033 24.0000
30.7213 40.7058 1.8000 0.0000
30.7213 40.7059 1.9034 4.0000
30.7213 40.7060 2.0006 8.0000
30.7212 40.7060 1.0000 12.0000
30.7212 40.7061 0.4000 16.0000
30.7212 40.7062 0.0000 20.0000
30.7212 40.7062 0.0000 24.0000
30.7787 40.7165 2.3000 0.0000
30.7787 40.7166 2.9067 4.0000
30.7787 40.7166 1.9039 8.0000
30.7786 40.7167 1.0000 12.0000
30.7786 40.7168 0.5000 16.0000
30.7786 40.7168 0.0000 20.0000
30.7786 40.7169 0.0000 24.0000
30.8889 40.7492 1.8000 0.0000
30.8339 40.7323 1.9000 0.0000
30.8889 40.7493 1.4035 4.0000
30.8339 40.7324 2.0096 4.0000
30.8888 40.7493 1.2055 8.0000
30.8338 40.7325 1.3048 8.0000
30.8888 40.7494 0.9031 12.0000
30.8338 40.7325 1.4089 12.0000
30.8888 40.7494 0.1031 16.0000
30.8338 40.7326 0.2089 16.0000
30.8888 40.7495 0.0031 20.0000
30.8337 40.7326 0.0089 20.0000
30.8887 40.7495 0.0031 24.0000
30.8337 40.7327 0.0089 24.0000
31.0046 40.7597 0.3000 0.0000
30.9453 40.7597 0.3000 0.0000
31.0046 40.7598 0.3007 4.0000
30.9453 40.7598 0.1069 4.0000
31.0046 40.7598 0.1000 8.0000
30.9453 40.7598 0.0019 8.0000
31.0046 40.7599 0.1000 12.0000
30.9453 40.7599 0.0100 12.0000
31.0046 40.7599 0.0000 16.0000
30.9453 40.7599 0.0100 16.0000
31.0046 40.7600 0.0000 20.0000
30.9453 40.7600 0.0100 20.0000
31.0046 40.7601 0.0000 24.0000
30.9453 40.7601 0.0100 24.0000
