97.3523 -0.3761 0.9312 7.5983
97.2516 -0.2269 1.0280 7.5983
97.1508 -0.0777 0.5333 7.5983
97.0501 0.0715 0.8030 7.5983
96.9494 0.2207 1.0543 7.5983
96.8487 0.3700 1.1821 7.5983
96.7480 0.5192 2.0638 7.5983
96.6473 0.6684 2.0396 7.5983
96.5466 0.8176 1.9899 7.5983
96.4459 0.9668 2.5259 7.5983
96.3451 1.1160 3.1231 7.5983
96.2444 1.2652 2.8285 7.5983
96.1437 1.4145 3.0090 7.5983
96.0430 1.5637 2.6737 7.5983
95.9423 1.7129 2.3749 7.5983
95.8416 1.8621 2.2876 7.5983
95.7409 2.0113 3.1682 7.5983
95.6402 2.1605 2.1458 7.5983
95.5394 2.3098 0.9873 7.5983
97.5001 -0.2764 0.9631 10.3817
97.3994 -0.1272 0.7650 10.3817
97.2987 0.0220 0.3283 10.3817
97.1980 0.1712 0.9158 10.3817
97.0973 0.3204 1.5970 10.3817
96.9966 0.4696 2.5554 10.3817
96.8958 0.6188 3.5203 10.3817
96.7951 0.7681 4.0295 10.3817
96.6944 0.9173 4.1537 10.3817
96.5937 1.0665 4.0530 10.3817
96.4930 1.2157 4.0586 10.3817
96.3923 1.3649 3.4790 10.3817
96.2916 1.5141 2.7740 10.3817
96.1909 1.6633 2.5035 10.3817
96.0902 1.8126 2.0868 10.3817
95.9894 1.9618 2.7202 10.3817
95.8887 2.1110 3.9762 10.3817
95.7880 2.2602 3.1956 10.3817
95.6873 2.4094 0.9939 10.3817
97.6480 -0.1768 0.5250 13.1652
97.5473 -0.0276 0.0230 13.1652
97.4466 0.1216 0.1900 13.1652
97.3458 0.2709 1.3429 13.1652
97.2451 0.4201 3.2684 13.1652
97.1444 0.5693 5.5281 13.1652
97.0437 0.7185 6.5822 13.1652
96.9430 0.8677 7.2329 13.1652
96.8423 1.0169 7.3202 13.1652
96.7416 1.1662 6.3139 13.1652
96.6409 1.3154 5.2354 13.1652
96.5401 1.4646 4.6451 13.1652
96.4394 1.6138 4.2339 13.1652
96.3387 1.7630 3.2944 13.1652
96.2380 1.9122 1.8457 13.1652
96.1373 2.0614 2.5095 13.1652
96.0366 2.2107 3.8976 13.1652
95.9359 2.3599 3.3569 13.1652
95.8352 2.5091 0.9966 13.1652
97.7958 -0.0771 0.0186 15.9487
97.6951 0.0721 0.7680 15.9487
97.5944 0.2213 1.5308 15.9487
97.4937 0.3705 3.4549 15.9487
97.3930 0.5197 5.9110 15.9487
97.2923 0.6690 8.7122 15.9487
97.1916 0.8182 9.3742 15.9487
97.0909 0.9674 10.1030 15.9487
96.9901 1.1166 9.3966 15.9487
96.8894 1.2658 8.0358 15.9487
96.7887 1.4150 6.8055 15.9487
96.6880 1.5643 7.1397 15.9487
96.5873 1.7135 7.3228 15.9487
96.4866 1.8627 5.4648 15.9487
96.3859 2.0119 3.0200 15.9487
96.2852 2.1611 1.6429 15.9487
96.1844 2.3103 2.1509 15.9487
96.0837 2.4595 2.6140 15.9487
95.9830 2.6088 0.9927 15.9487
97.9437 0.0226 0.0060 18.7321
97.8430 0.1718 1.2838 18.7321
97.7423 0.3210 2.6838 18.7321
97.6416 0.4702 5.0858 18.7321
97.5408 0.6194 8.2028 18.7321
97.4401 0.7686 11.1296 18.7321
97.3394 0.9178 12.0601 18.7321
97.2387 1.0671 11.3931 18.7321
97.1380 1.2163 9.1099 18.7321
97.0373 1.3655 7.0713 18.7321
96.9366 1.5147 6.3530 18.7321
96.8359 1.6639 7.9762 18.7321
96.7352 1.8131 8.5780 18.7321
96.6344 1.9623 5.8560 18.7321
96.5337 2.1116 3.4234 18.7321
96.4330 2.2608 0.9425 18.7321
96.3323 2.4100 0.8340 18.7321
96.2316 2.5592 1.0684 18.7321
96.1309 2.7084 0.9760 18.7321
98.0916 0.1222 0.0224 21.5156
97.9908 0.2714 1.0560 21.5156
97.8901 0.4207 2.3988 21.5156
97.7894 0.5699 4.1645 21.5156
97.6887 0.7191 7.0483 21.5156
97.5880 0.8683 10.7992 21.5156
97.4873 1.0175 12.4961 21.5156
97.3866 1.1667 10.5460 21.5156
97.2859 1.3159 6.7406 21.5156
97.1851 1.4652 4.2962 21.5156
97.0844 1.6144 3.4789 21.5156
96.9837 1.7636 4.4896 21.5156
96.8830 1.9128 4.2535 21.5156
96.7823 2.0620 2.6393 21.5156
96.6816 2.2112 1.9694 21.5156
96.5809 2.3604 0.9303 21.5156
96.4802 2.5097 0.0075 21.5156
96.3795 2.6589 0.6999 21.5156
96.2787 2.8081 0.8991 21.5156
98.2394 0.2219 0.0916 24.2990
98.1387 0.3711 0.8853 24.2990
98.0380 0.5203 0.8780 24.2990
97.9373 0.6695 2.0365 24.2990
97.8366 0.8187 3.0055 24.2990
97.7359 0.9680 7.2415 24.2990
97.6351 1.1172 9.3561 24.2990
97.5344 1.2664 6.8967 24.2990
97.4337 1.4156 2.8251 24.2990
97.3330 1.5648 1.5745 24.2990
97.2323 1.7140 2.4451 24.2990
97.1316 1.8633 3.4159 24.2990
97.0309 2.0125 1.7097 24.2990
96.9302 2.1617 1.4473 24.2990
96.8294 2.3109 3.5808 24.2990
96.7287 2.4601 3.4898 24.2990
96.6280 2.6093 1.5669 24.2990
96.5273 2.7585 0.5533 24.2990
96.4266 2.9078 0.8533 24.2990
98.3873 0.3216 0.0057 27.0825
98.2866 0.4708 0.5914 27.0825
98.1858 0.6200 0.0679 27.0825
98.0851 0.7692 0.8486 27.0825
97.9844 0.9184 0.0120 27.0825
97.8837 1.0676 2.5366 27.0825
97.7830 1.2168 4.4372 27.0825
97.6823 1.3661 2.9793 27.0825
97.5816 1.5153 0.0572 27.0825
97.4809 1.6645 1.2204 27.0825
97.3802 1.8137 3.4457 27.0825
97.2794 1.9629 4.5052 27.0825
97.1787 2.1121 3.5108 27.0825
97.0780 2.2613 3.6456 27.0825
96.9773 2.4106 4.5615 27.0825
96.8766 2.5598 4.6997 27.0825
96.7759 2.7090 3.5935 27.0825
96.6752 2.8582 0.6109 27.0825
96.5745 3.0074 0.7629 27.0825
98.5351 0.4212 0.0022 29.8660
98.4344 0.5704 0.8543 29.8660
98.3337 0.7197 0.0796 29.8660
98.2330 0.8689 0.0261 29.8660
98.1323 1.0181 0.0003 29.8660
98.0316 1.1673 0.0671 29.8660
97.9309 1.3165 0.3459 29.8660
97.8301 1.4657 1.1685 29.8660
97.7294 1.6149 0.0018 29.8660
97.6287 1.7642 2.0966 29.8660
97.5280 1.9134 5.5317 29.8660
97.4273 2.0626 6.6887 29.8660
97.3266 2.2118 5.9950 29.8660
97.2259 2.3610 4.4402 29.8660
97.1252 2.5102 3.8246 29.8660
97.0245 2.6594 4.2376 29.8660
96.9237 2.8087 3.0165 29.8660
96.8230 2.9579 0.4386 29.8660
96.7223 3.1071 0.9157 29.8660
98.6830 0.5209 0.7209 32.6494
98.5823 0.6701 0.5699 32.6494
98.4816 0.8193 0.1847 32.6494
98.3809 0.9685 0.0049 32.6494
98.2801 1.1177 0.0315 32.6494
98.1794 1.2670 0.0088 32.6494
98.0787 1.4162 0.0004 32.6494
97.9780 1.5654 0.0104 32.6494
97.8773 1.7146 0.8587 32.6494
97.7766 1.8638 0.5819 32.6494
97.6759 2.0130 4.4351 32.6494
97.5752 2.1623 5.9713 32.6494
97.4744 2.3115 5.0002 32.6494
97.3737 2.4607 3.2644 32.6494
97.2730 2.6099 2.7403 32.6494
97.1723 2.7591 2.5350 32.6494
97.0716 2.9083 0.0363 32.6494
96.9709 3.0575 0.0115 32.6494
96.8702 3.2068 0.9822 32.6494
98.8308 0.6206 0.9385 35.4329
98.7301 0.7698 0.4576 35.4329
98.6294 0.9190 0.0009 35.4329
98.5287 1.0682 0.8952 35.4329
98.4280 1.2174 1.0417 35.4329
98.3273 1.3666 0.0198 35.4329
98.2266 1.5158 0.0016 35.4329
98.1259 1.6651 0.0081 35.4329
98.0252 1.8143 0.0085 35.4329
97.9244 1.9635 0.7096 35.4329
97.8237 2.1127 0.0730 35.4329
97.7230 2.2619 0.0413 35.4329
97.6223 2.4111 0.0333 35.4329
97.5216 2.5603 0.5488 35.4329
97.4209 2.7096 1.1614 35.4329
97.3202 2.8588 0.0022 35.4329
97.2195 3.0080 0.0005 35.4329
97.1187 3.1572 0.6988 35.4329
97.0180 3.3064 0.9842 35.4329
98.9787 0.7202 0.8977 38.2164
98.8780 0.8694 0.8750 38.2164
98.7773 1.0187 0.7308 38.2164
98.6766 1.1679 1.4662 38.2164
98.5759 1.3171 1.8770 38.2164
98.4751 1.4663 1.2270 38.2164
98.3744 1.6155 0.0557 38.2164
98.2737 1.7647 0.0023 38.2164
98.1730 1.9139 0.0140 38.2164
98.0723 2.0632 0.0044 38.2164
97.9716 2.2124 1.3415 38.2164
97.8709 2.3616 0.8390 38.2164
97.7702 2.5108 0.6484 38.2164
97.6695 2.6600 1.0928 38.2164
97.5687 2.8092 1.3362 38.2164
97.4680 2.9584 0.4117 38.2164
97.3673 3.1077 0.0869 38.2164
97.2666 3.2569 1.3069 38.2164
97.1659 3.4061 0.9728 38.2164
99.1266 0.8199 0.9640 40.9998
99.0259 0.9691 0.9999 40.9998
98.9251 1.1183 0.9059 40.9998
98.8244 1.2675 0.9962 40.9998
98.7237 1.4168 0.9964 40.9998
98.6230 1.5660 0.9936 40.9998
98.5223 1.7152 0.9627 40.9998
98.4216 1.8644 0.0067 40.9998
98.3209 2.0136 0.0005 40.9998
98.2202 2.1628 0.0080 40.9998
98.1194 2.3120 0.9787 40.9998
98.0187 2.4613 0.9672 40.9998
97.9180 2.6105 0.9474 40.9998
97.8173 2.7597 0.0107 40.9998
97.7166 2.9089 0.6197 40.9998
97.6159 3.0581 0.8346 40.9998
97.5152 3.2073 0.7448 40.9998
97.4145 3.3565 0.9463 40.9998
97.3138 3.5058 0.9994 40.9998
