-75.8103 -14.4410 0.0768 31.5000
-75.8846 -14.3608 0.2487 31.5000
-75.9589 -14.2805 0.0776 31.5000
-76.0331 -14.2003 0.0911 31.5000
-76.1074 -14.1200 0.0639 31.5000
-76.1817 -14.0398 1.0488 31.5000
-76.2560 -13.9595 2.9695 31.5000
-76.3303 -13.8793 3.4576 31.5000
-76.4045 -13.7990 3.3588 31.5000
-76.4788 -13.7188 1.9452 31.5000
-76.5531 -13.6385 1.2585 31.5000
-76.6274 -13.5582 2.6472 31.5000
-76.7017 -13.4780 3.0585 31.5000
-76.7759 -13.3977 0.2474 31.5000
-76.8502 -13.3175 0.1187 31.5000
-76.9245 -13.2372 0.0258 31.5000
-75.7508 -14.3889 0.0354 36.5000
-75.8251 -14.3086 0.1192 36.5000
-75.8993 -14.2284 0.0154 36.5000
-75.9736 -14.1481 0.0904 36.5000
-76.0479 -14.0679 0.4209 36.5000
-76.1222 -13.9876 1.8658 36.5000
-76.1964 -13.9074 2.3201 36.5000
-76.2707 -13.8271 2.4217 36.5000
-76.3450 -13.7469 1.0792 36.5000
-76.4193 -13.6666 0.2489 36.5000
-76.4936 -13.5864 3.0625 36.5000
-76.5678 -13.5061 6.2864 36.5000
-76.6421 -13.4258 4.9340 36.5000
-76.7164 -13.3456 1.3851 36.5000
-76.7907 -13.2653 0.0152 36.5000
-76.8650 -13.1851 0.0217 36.5000
-75.6912 -14.3367 0.0358 41.5000
-75.7655 -14.2565 0.6372 41.5000
-75.8398 -14.1762 0.1338 41.5000
-75.9141 -14.0960 0.0597 41.5000
-75.9884 -14.0157 0.0763 41.5000
-76.0626 -13.9355 1.6323 41.5000
-76.1369 -13.8552 2.6860 41.5000
-76.2112 -13.7750 1.9913 41.5000
-76.2855 -13.6947 0.0113 41.5000
-76.3598 -13.6145 0.9022 41.5000
-76.4340 -13.5342 4.2838 41.5000
-76.5083 -13.4540 6.3792 41.5000
-76.5826 -13.3737 4.4480 41.5000
-76.6569 -13.2934 1.9299 41.5000
-76.7311 -13.2132 0.1147 41.5000
-76.8054 -13.1329 0.0613 41.5000
-75.6317 -14.2846 0.0321 46.5000
-75.7060 -14.2043 1.2683 46.5000
-75.7803 -14.1241 0.0238 46.5000
-75.8545 -14.0438 0.0048 46.5000
-75.9288 -13.9636 0.1666 46.5000
-76.0031 -13.8833 0.4713 46.5000
-76.0774 -13.8031 1.6628 46.5000
-76.1517 -13.7228 1.6257 46.5000
-76.2259 -13.6426 1.3022 46.5000
-76.3002 -13.5623 2.2009 46.5000
-76.3745 -13.4821 4.8495 46.5000
-76.4488 -13.4018 3.0744 46.5000
-76.5231 -13.3215 1.3112 46.5000
-76.5973 -13.2413 0.9814 46.5000
-76.6716 -13.1610 0.0129 46.5000
-76.7459 -13.0808 0.0299 46.5000
-75.5722 -14.2324 0.0477 51.5000
-75.6464 -14.1522 1.7433 51.5000
-75.7207 -14.0719 0.5857 51.5000
-75.7950 -13.9917 0.1859 51.5000
-75.8693 -13.9114 0.1806 51.5000
-75.9436 -13.8312 0.1572 51.5000
-76.0178 -13.7509 0.9074 51.5000
-76.0921 -13.6707 0.6936 51.5000
-76.1664 -13.5904 0.0686 51.5000
-76.2407 -13.5102 0.0316 51.5000
-76.3150 -13.4299 1.4342 51.5000
-76.3892 -13.3497 0.0737 51.5000
-76.4635 -13.2694 0.0325 51.5000
-76.5378 -13.1891 0.1191 51.5000
-76.6121 -13.1089 0.1202 51.5000
-76.6864 -13.0286 0.0562 51.5000
-75.5126 -14.1803 0.0163 56.5000
-75.5869 -14.1000 0.0382 56.5000
-75.6612 -14.0198 0.0344 56.5000
-75.7355 -13.9395 0.2793 56.5000
-75.8097 -13.8593 0.1215 56.5000
-75.8840 -13.7790 0.2035 56.5000
-75.9583 -13.6988 0.8087 56.5000
-76.0326 -13.6185 0.8662 56.5000
-76.1069 -13.5383 0.0462 56.5000
-76.1811 -13.4580 0.0154 56.5000
-76.2554 -13.3778 0.2872 56.5000
-76.3297 -13.2975 0.0514 56.5000
-76.4040 -13.2172 0.4791 56.5000
-76.4783 -13.1370 0.1408 56.5000
-76.5525 -13.0567 1.4620 56.5000
-76.6268 -12.9765 0.0241 56.5000
-75.4531 -14.1281 0.0234 61.5000
-75.5274 -14.0479 0.0281 61.5000
-75.6016 -13.9676 0.1013 61.5000
-75.6759 -13.8874 0.0080 61.5000
-75.7502 -13.8071 0.1233 61.5000
-75.8245 -13.7269 0.0115 61.5000
-75.8988 -13.6466 0.6572 61.5000
-75.9730 -13.5664 0.3636 61.5000
-76.0473 -13.4861 0.0322 61.5000
-76.1216 -13.4059 0.0169 61.5000
-76.1959 -13.3256 0.3205 61.5000
-76.2702 -13.2454 0.5071 61.5000
-76.3444 -13.1651 1.4377 61.5000
-76.4187 -13.0848 1.6040 61.5000
-76.4930 -13.0046 1.4702 61.5000
-76.5673 -12.9243 0.0627 61.5000
-75.3936 -14.0760 0.0034 66.5000
-75.4678 -13.9957 0.0437 66.5000
-75.5421 -13.9155 0.0818 66.5000
-75.6164 -13.8352 0.0970 66.5000
-75.6907 -13.7550 0.0940 66.5000
-75.7650 -13.6747 0.3539 66.5000
-75.8392 -13.5945 0.0083 66.5000
-75.9135 -13.5142 0.1119 66.5000
-75.9878 -13.4340 0.2324 66.5000
-76.0621 -13.3537 0.1328 66.5000
-76.1363 -13.2735 0.0790 66.5000
-76.2106 -13.1932 0.0240 66.5000
-76.2849 -13.1129 1.0381 66.5000
-76.3592 -13.0327 1.3927 66.5000
-76.4335 -12.9524 1.4651 66.5000
-76.5077 -12.8722 0.0141 66.5000
-75.3340 -14.0238 0.0503 71.5000
-75.4083 -13.9436 0.0006 71.5000
-75.4826 -13.8633 0.0014 71.5000
-75.5569 -13.7831 0.0283 71.5000
-75.6311 -13.7028 0.0433 71.5000
-75.7054 -13.6226 0.0909 71.5000
-75.7797 -13.5423 0.0132 71.5000
-75.8540 -13.4621 0.0261 71.5000
-75.9283 -13.3818 0.0671 71.5000
-76.0025 -13.3016 0.0036 71.5000
-76.0768 -13.2213 0.0583 71.5000
-76.1511 -13.1411 0.0188 71.5000
-76.2254 -13.0608 0.0125 71.5000
-76.2997 -12.9805 0.0443 71.5000
-76.3739 -12.9003 0.0367 71.5000
-76.4482 -12.8200 0.0843 71.5000
-76.2631 -14.8349 0.0933 7.5500
-76.3374 -14.7547 0.2769 7.5500
-76.4117 -14.6744 0.0246 7.5500
-76.4860 -14.5942 0.5001 7.5500
-76.5603 -14.5139 0.5768 7.5500
-76.6345 -14.4336 0.0117 7.5500
-76.7088 -14.3534 0.1246 7.5500
-76.7831 -14.2731 0.1679 7.5500
-76.8574 -14.1929 0.9476 7.5500
-76.9317 -14.1126 2.2810 7.5500
-77.0059 -14.0324 3.1900 7.5500
-77.0802 -13.9521 2.7173 7.5500
-77.1545 -13.8719 2.8022 7.5500
-77.2288 -13.7916 3.5897 7.5500
-77.3031 -13.7114 2.8129 7.5500
-77.3773 -13.6311 0.0299 7.5500
-76.1985 -14.7783 0.0171 10.9702
-76.2728 -14.6981 0.8719 10.9702
-76.3471 -14.6178 0.4029 10.9702
-76.4214 -14.5376 0.6255 10.9702
-76.4957 -14.4573 0.3460 10.9702
-76.5699 -14.3771 0.0703 10.9702
-76.6442 -14.2968 0.4754 10.9702
-76.7185 -14.2166 1.5762 10.9702
-76.7928 -14.1363 1.7029 10.9702
-76.8671 -14.0561 3.1253 10.9702
-76.9413 -13.9758 4.3022 10.9702
-77.0156 -13.8955 3.5753 10.9702
-77.0899 -13.8153 2.8885 10.9702
-77.1642 -13.7350 3.7928 10.9702
-77.2385 -13.6548 2.2954 10.9702
-77.3127 -13.5745 0.0795 10.9702
-76.1339 -14.7217 0.0601 14.3904
-76.2082 -14.6415 1.1524 14.3904
-76.2825 -14.5612 0.5617 14.3904
-76.3568 -14.4810 1.6469 14.3904
-76.4311 -14.4007 0.2824 14.3904
-76.5053 -14.3205 0.2897 14.3904
-76.5796 -14.2402 1.1486 14.3904
-76.6539 -14.1600 2.1820 14.3904
-76.7282 -14.0797 3.5652 14.3904
-76.8025 -13.9995 4.0326 14.3904
-76.8767 -13.9192 4.4622 14.3904
-76.9510 -13.8390 3.3319 14.3904
-77.0253 -13.7587 2.4548 14.3904
-77.0996 -13.6785 2.9282 14.3904
-77.1739 -13.5982 1.9960 14.3904
-77.2481 -13.5179 0.0577 14.3904
-76.0693 -14.6652 0.0034 17.8106
-76.1436 -14.5849 1.0802 17.8106
-76.2179 -14.5047 0.4714 17.8106
-76.2922 -14.4244 1.9331 17.8106
-76.3665 -14.3441 0.8926 17.8106
-76.4407 -14.2639 0.7156 17.8106
-76.5150 -14.1836 1.0532 17.8106
-76.5893 -14.1034 2.7634 17.8106
-76.6636 -14.0231 3.8436 17.8106
-76.7379 -13.9429 4.0300 17.8106
-76.8121 -13.8626 2.6370 17.8106
-76.8864 -13.7824 2.3907 17.8106
-76.9607 -13.7021 1.6814 17.8106
-77.0350 -13.6219 1.3940 17.8106
-77.1093 -13.5416 1.7277 17.8106
-77.1835 -13.4614 0.0014 17.8106
-76.0047 -14.6086 0.0805 21.2308
-76.0790 -14.5283 1.4738 21.2308
-76.1533 -14.4481 0.5294 21.2308
-76.2276 -14.3678 0.7512 21.2308
-76.3019 -14.2876 0.7620 21.2308
-76.3761 -14.2073 0.4376 21.2308
-76.4504 -14.1271 1.9143 21.2308
-76.5247 -14.0468 4.0828 21.2308
-76.5990 -13.9665 4.4599 21.2308
-76.6733 -13.8863 2.6381 21.2308
-76.7475 -13.8060 0.3011 21.2308
-76.8218 -13.7258 0.9467 21.2308
-76.8961 -13.6455 0.3056 21.2308
-76.9704 -13.5653 0.9709 21.2308
-77.0447 -13.4850 0.1225 21.2308
-77.1189 -13.4048 0.0871 21.2308
-75.9401 -14.5520 0.0069 24.6510
-76.0144 -14.4717 0.6372 24.6510
-76.0887 -14.3915 0.6543 24.6510
-76.1630 -14.3112 0.4675 24.6510
-76.2373 -14.2310 0.2623 24.6510
-76.3115 -14.1507 0.7537 24.6510
-76.3858 -14.0705 2.6782 24.6510
-76.4601 -13.9902 5.3178 24.6510
-76.5344 -13.9100 5.4500 24.6510
-76.6087 -13.8297 3.3721 24.6510
-76.6829 -13.7495 0.4534 24.6510
-76.7572 -13.6692 0.5965 24.6510
-76.8315 -13.5890 0.4064 24.6510
-76.9058 -13.5087 1.6730 24.6510
-76.9801 -13.4284 1.3040 24.6510
-77.0543 -13.3482 0.0692 24.6510
-75.8755 -14.4954 0.0407 28.0712
-75.9498 -14.4152 0.0528 28.0712
-76.0241 -14.3349 0.0322 28.0712
-76.0984 -14.2546 0.0399 28.0712
-76.1727 -14.1744 0.2747 28.0712
-76.2469 -14.0941 1.1023 28.0712
-76.3212 -14.0139 3.5268 28.0712
-76.3955 -13.9336 5.9178 28.0712
-76.4698 -13.8534 6.3263 28.0712
-76.5441 -13.7731 4.7809 28.0712
-76.6183 -13.6929 2.3449 28.0712
-76.6926 -13.6126 1.8935 28.0712
-76.7669 -13.5324 0.9980 28.0712
-76.8412 -13.4521 1.1223 28.0712
-76.9155 -13.3719 1.2851 28.0712
-76.9897 -13.2916 0.0402 28.0712
-76.6049 -15.1213 0.0890 2.6700
-76.6792 -15.0410 0.0071 2.6700
-76.7535 -14.9608 0.0585 2.6700
-76.8278 -14.8805 0.0432 2.6700
-76.9020 -14.8003 0.0953 2.6700
-76.9763 -14.7200 0.0046 2.6700
-77.0506 -14.6398 0.0751 2.6700
-77.1249 -14.5595 0.0420 2.6700
-77.1991 -14.4793 0.0050 2.6700
-77.2734 -14.3990 0.0772 2.6700
-77.3477 -14.3188 0.0134 2.6700
-77.4220 -14.2385 0.0350 2.6700
-77.4963 -14.1583 0.0092 2.6700
-77.5705 -14.0780 0.0579 2.6700
-77.6448 -13.9978 0.0140 2.6700
-77.7191 -13.9175 0.0030 2.6700
-76.5365 -15.0614 0.0143 3.7153
-76.6108 -14.9812 0.0753 3.7153
-76.6851 -14.9009 0.0079 3.7153
-76.7594 -14.8207 0.3897 3.7153
-76.8337 -14.7404 0.9144 3.7153
-76.9079 -14.6601 0.6973 3.7153
-76.9822 -14.5799 0.8731 3.7153
-77.0565 -14.4996 0.9823 3.7153
-77.1308 -14.4194 1.9757 3.7153
-77.2051 -14.3391 0.9917 3.7153
-77.2793 -14.2589 1.2336 3.7153
-77.3536 -14.1786 0.5326 3.7153
-77.4279 -14.0984 0.6104 3.7153
-77.5022 -14.0181 0.8926 3.7153
-77.5765 -13.9379 0.2287 3.7153
-77.6507 -13.8576 0.0708 3.7153
-76.4682 -15.0015 0.0501 4.7606
-76.5425 -14.9213 0.0997 4.7606
-76.6167 -14.8410 0.0441 4.7606
-76.6910 -14.7608 1.0036 4.7606
-76.7653 -14.6805 1.1185 4.7606
-76.8396 -14.6003 1.7542 4.7606
-76.9139 -14.5200 1.2324 4.7606
-76.9881 -14.4398 1.6131 4.7606
-77.0624 -14.3595 3.0965 4.7606
-77.1367 -14.2792 3.3922 4.7606
-77.2110 -14.1990 2.7455 4.7606
-77.2852 -14.1187 1.8033 4.7606
-77.3595 -14.0385 2.2748 4.7606
-77.4338 -13.9582 1.6039 4.7606
-77.5081 -13.8780 0.5436 4.7606
-77.5824 -13.7977 0.0445 4.7606
-76.3998 -14.9416 0.0722 5.8059
-76.4741 -14.8614 0.0575 5.8059
-76.5484 -14.7811 0.0478 5.8059
-76.6226 -14.7009 0.5221 5.8059
-76.6969 -14.6206 2.0085 5.8059
-76.7712 -14.5404 1.6148 5.8059
-76.8455 -14.4601 0.0800 5.8059
-76.9198 -14.3799 0.9830 5.8059
-76.9940 -14.2996 2.3606 5.8059
-77.0683 -14.2194 2.9119 5.8059
-77.1426 -14.1391 2.7029 5.8059
-77.2169 -14.0589 2.4747 5.8059
-77.2912 -13.9786 2.5654 5.8059
-77.3654 -13.8983 2.8007 5.8059
-77.4397 -13.8181 1.7301 5.8059
-77.5140 -13.7378 0.0763 5.8059
-76.3314 -14.8818 0.0077 6.8511
-76.4057 -14.8015 0.0967 6.8511
-76.4800 -14.7212 0.0385 6.8511
-76.5543 -14.6410 0.9174 6.8511
-76.6286 -14.5607 1.3962 6.8511
-76.7028 -14.4805 0.9004 6.8511
-76.7771 -14.4002 0.2257 6.8511
-76.8514 -14.3200 0.0015 6.8511
-76.9257 -14.2397 1.0736 6.8511
-76.9999 -14.1595 2.5139 6.8511
-77.0742 -14.0792 3.4203 6.8511
-77.1485 -13.9990 2.9550 6.8511
-77.2228 -13.9187 3.1913 6.8511
-77.2971 -13.8385 3.7168 6.8511
-77.3713 -13.7582 2.7693 6.8511
-77.4456 -13.6780 0.0566 6.8511
