-70.5213 -23.1709 0.0933 10.9300
-70.5247 -23.0809 0.0795 10.9300
-70.5281 -22.9910 0.0950 10.9300
-70.5315 -22.9011 0.0523 10.9300
-70.5349 -22.8111 0.0109 10.9300
-70.5383 -22.7212 0.0414 10.9300
-70.5417 -22.6313 0.0958 10.9300
-70.5451 -22.5413 0.0111 10.9300
-70.5485 -22.4514 0.0356 10.9300
-70.5519 -22.3614 0.0285 10.9300
-70.5553 -22.2715 0.0290 10.9300
-70.5587 -22.1816 0.0713 10.9300
-70.5621 -22.0916 0.0176 10.9300
-70.5655 -22.0017 0.0842 10.9300
-70.5688 -21.9118 0.0998 10.9300
-70.5722 -21.8218 0.0363 10.9300
-70.5756 -21.7319 0.0679 10.9300
-70.5790 -21.6419 0.0856 10.9300
-70.5824 -21.5520 0.0721 10.9300
-70.5858 -21.4621 0.0803 10.9300
-70.4431 -23.1684 0.0909 14.3489
-70.4465 -23.0784 0.0723 14.3489
-70.4499 -22.9885 0.0628 14.3489
-70.4533 -22.8985 1.3044 14.3489
-70.4566 -22.8086 0.1323 14.3489
-70.4600 -22.7187 0.2285 14.3489
-70.4634 -22.6287 0.2844 14.3489
-70.4668 -22.5388 0.2217 14.3489
-70.4702 -22.4488 0.1318 14.3489
-70.4736 -22.3589 0.0047 14.3489
-70.4770 -22.2690 0.1000 14.3489
-70.4804 -22.1790 0.0839 14.3489
-70.4838 -22.0891 0.1161 14.3489
-70.4872 -21.9992 0.3863 14.3489
-70.4906 -21.9092 0.6725 14.3489
-70.4940 -21.8193 0.4344 14.3489
-70.4974 -21.7293 0.3883 14.3489
-70.5008 -21.6394 0.0754 14.3489
-70.5042 -21.5495 0.0843 14.3489
-70.5075 -21.4595 0.0348 14.3489
-70.3648 -23.1658 0.0956 17.7678
-70.3682 -23.0759 0.0676 17.7678
-70.3716 -22.9859 0.0883 17.7678
-70.3750 -22.8960 0.6043 17.7678
-70.3784 -22.8061 0.0225 17.7678
-70.3818 -22.7161 0.3226 17.7678
-70.3852 -22.6262 0.5771 17.7678
-70.3886 -22.5363 0.4383 17.7678
-70.3920 -22.4463 0.5626 17.7678
-70.3953 -22.3564 0.1766 17.7678
-70.3987 -22.2664 0.6025 17.7678
-70.4021 -22.1765 0.3319 17.7678
-70.4055 -22.0866 0.0896 17.7678
-70.4089 -21.9966 0.0017 17.7678
-70.4123 -21.9067 0.0276 17.7678
-70.4157 -21.8168 0.1779 17.7678
-70.4191 -21.7268 0.6156 17.7678
-70.4225 -21.6369 0.0826 17.7678
-70.4259 -21.5469 0.0254 17.7678
-70.4293 -21.4570 0.0326 17.7678
-70.2865 -23.1633 0.0817 21.1867
-70.2899 -23.0734 0.0787 21.1867
-70.2933 -22.9834 0.0639 21.1867
-70.2967 -22.8935 0.0914 21.1867
-70.3001 -22.8035 0.2169 21.1867
-70.3035 -22.7136 0.8364 21.1867
-70.3069 -22.6237 1.1859 21.1867
-70.3103 -22.5337 0.9063 21.1867
-70.3137 -22.4438 0.6020 21.1867
-70.3171 -22.3539 0.2918 21.1867
-70.3205 -22.2639 0.0739 21.1867
-70.3239 -22.1740 0.0683 21.1867
-70.3273 -22.0840 0.0271 21.1867
-70.3307 -21.9941 0.0112 21.1867
-70.3340 -21.9042 0.0398 21.1867
-70.3374 -21.8142 0.0176 21.1867
-70.3408 -21.7243 0.1507 21.1867
-70.3442 -21.6343 0.0849 21.1867
-70.3476 -21.5444 0.0956 21.1867
-70.3510 -21.4545 0.0764 21.1867
-70.2083 -23.1608 0.0919 24.6056
-70.2117 -23.0708 0.0300 24.6056
-70.2151 -22.9809 0.0065 24.6056
-70.2185 -22.8909 0.7509 24.6056
-70.2218 -22.8010 1.1396 24.6056
-70.2252 -22.7111 1.3686 24.6056
-70.2286 -22.6211 1.1426 24.6056
-70.2320 -22.5312 0.6265 24.6056
-70.2354 -22.4413 0.2790 24.6056
-70.2388 -22.3513 0.4397 24.6056
-70.2422 -22.2614 0.0438 24.6056
-70.2456 -22.1714 0.0169 24.6056
-70.2490 -22.0815 0.0097 24.6056
-70.2524 -21.9916 0.0070 24.6056
-70.2558 -21.9016 0.0555 24.6056
-70.2592 -21.8117 0.3215 24.6056
-70.2626 -21.7218 0.0062 24.6056
-70.2660 -21.6318 0.8052 24.6056
-70.2694 -21.5419 0.0963 24.6056
-70.2727 -21.4519 0.0160 24.6056
-70.1300 -23.1582 0.0532 28.0245
-70.1334 -23.0683 0.0076 28.0245
-70.1368 -22.9784 0.4983 28.0245
-70.1402 -22.8884 1.8262 28.0245
-70.1436 -22.7985 2.4857 28.0245
-70.1470 -22.7085 1.6187 28.0245
-70.1504 -22.6186 0.7620 28.0245
-70.1538 -22.5287 0.7067 28.0245
-70.1571 -22.4387 0.4163 28.0245
-70.1605 -22.3488 0.5453 28.0245
-70.1639 -22.2589 0.3894 28.0245
-70.1673 -22.1689 0.7783 28.0245
-70.1707 -22.0790 0.7100 28.0245
-70.1741 -21.9890 0.0407 28.0245
-70.1775 -21.8991 0.0531 28.0245
-70.1809 -21.8092 0.1572 28.0245
-70.1843 -21.7192 0.0435 28.0245
-70.1877 -21.6293 0.9115 28.0245
-70.1911 -21.5393 0.0848 28.0245
-70.1945 -21.4494 0.0909 28.0245
-70.0517 -23.1557 0.0866 31.4434
-70.0551 -23.0658 0.0479 31.4434
-70.0585 -22.9758 0.7724 31.4434
-70.0619 -22.8859 2.1383 31.4434
-70.0653 -22.7960 2.4013 31.4434
-70.0687 -22.7060 1.6770 31.4434
-70.0721 -22.6161 0.5507 31.4434
-70.0755 -22.5261 0.5225 31.4434
-70.0789 -22.4362 0.7035 31.4434
-70.0823 -22.3463 0.9268 31.4434
-70.0857 -22.2563 1.3600 31.4434
-70.0891 -22.1664 2.1609 31.4434
-70.0925 -22.0764 1.7152 31.4434
-70.0958 -21.9865 0.9427 31.4434
-70.0992 -21.8966 0.0517 31.4434
-70.1026 -21.8066 0.0682 31.4434
-70.1060 -21.7167 0.0184 31.4434
-70.1094 -21.6268 0.1609 31.4434
-70.1128 -21.5368 0.0326 31.4434
-70.1162 -21.4469 0.0568 31.4434
-69.9735 -23.1532 0.0024 34.8623
-69.9769 -23.0632 0.0718 34.8623
-69.9803 -22.9733 0.6624 34.8623
-69.9836 -22.8834 1.9780 34.8623
-69.9870 -22.7934 2.1463 34.8623
-69.9904 -22.7035 1.2962 34.8623
-69.9938 -22.6135 0.0107 34.8623
-69.9972 -22.5236 0.2177 34.8623
-70.0006 -22.4337 0.6255 34.8623
-70.0040 -22.3437 1.6428 34.8623
-70.0074 -22.2538 2.6869 34.8623
-70.0108 -22.1639 3.1145 34.8623
-70.0142 -22.0739 2.9891 34.8623
-70.0176 -21.9840 1.6841 34.8623
-70.0210 -21.8940 0.3295 34.8623
-70.0244 -21.8041 0.0184 34.8623
-70.0278 -21.7142 0.0756 34.8623
-70.0312 -21.6242 0.0849 34.8623
-70.0345 -21.5343 0.0835 34.8623
-70.0379 -21.4444 0.0217 34.8623
-69.8952 -23.1506 0.0071 38.2812
-69.8986 -23.0607 0.0025 38.2812
-69.9020 -22.9708 0.5798 38.2812
-69.9054 -22.8808 1.5757 38.2812
-69.9088 -22.7909 1.8006 38.2812
-69.9122 -22.7010 0.8302 38.2812
-69.9156 -22.6110 0.1600 38.2812
-69.9190 -22.5211 0.5269 38.2812
-69.9223 -22.4311 0.3250 38.2812
-69.9257 -22.3412 1.5763 38.2812
-69.9291 -22.2513 3.2340 38.2812
-69.9325 -22.1613 3.6746 38.2812
-69.9359 -22.0714 3.0456 38.2812
-69.9393 -21.9815 1.7347 38.2812
-69.9427 -21.8915 0.6007 38.2812
-69.9461 -21.8016 0.0318 38.2812
-69.9495 -21.7116 0.0469 38.2812
-69.9529 -21.6217 0.0224 38.2812
-69.9563 -21.5318 0.0022 38.2812
-69.9597 -21.4418 0.0966 38.2812
-69.8169 -23.1481 0.0139 41.7001
-69.8203 -23.0582 0.0037 41.7001
-69.8237 -22.9682 0.5408 41.7001
-69.8271 -22.8783 1.3112 41.7001
-69.8305 -22.7884 1.2418 41.7001
-69.8339 -22.6984 0.5380 41.7001
-69.8373 -22.6085 0.4558 41.7001
-69.8407 -22.5185 0.3095 41.7001
-69.8441 -22.4286 0.3459 41.7001
-69.8475 -22.3387 1.2933 41.7001
-69.8509 -22.2487 2.3247 41.7001
-69.8543 -22.1588 2.5339 41.7001
-69.8577 -22.0689 2.3674 41.7001
-69.8610 -21.9789 1.5629 41.7001
-69.8644 -21.8890 0.4851 41.7001
-69.8678 -21.7990 0.0036 41.7001
-69.8712 -21.7091 0.0440 41.7001
-69.8746 -21.6192 0.0029 41.7001
-69.8780 -21.5292 0.0436 41.7001
-69.8814 -21.4393 0.0161 41.7001
-69.7387 -23.1456 0.0065 45.1190
-69.7421 -23.0556 0.0092 45.1190
-69.7455 -22.9657 0.4051 45.1190
-69.7488 -22.8758 1.3259 45.1190
-69.7522 -22.7858 1.1572 45.1190
-69.7556 -22.6959 0.5914 45.1190
-69.7590 -22.6060 0.6005 45.1190
-69.7624 -22.5160 0.4654 45.1190
-69.7658 -22.4261 0.3214 45.1190
-69.7692 -22.3361 0.8102 45.1190
-69.7726 -22.2462 1.1583 45.1190
-69.7760 -22.1563 1.2720 45.1190
-69.7794 -22.0663 1.2949 45.1190
-69.7828 -21.9764 1.1242 45.1190
-69.7862 -21.8865 0.0092 45.1190
-69.7896 -21.7965 0.0057 45.1190
-69.7930 -21.7066 0.0810 45.1190
-69.7964 -21.6166 0.0056 45.1190
-69.7997 -21.5267 0.0914 45.1190
-69.8031 -21.4368 0.0585 45.1190
-69.6604 -23.1431 0.0242 48.5379
-69.6638 -23.0531 0.0003 48.5379
-69.6672 -22.9632 0.0019 48.5379
-69.6706 -22.8732 0.8715 48.5379
-69.6740 -22.7833 0.7446 48.5379
-69.6774 -22.6934 0.6105 48.5379
-69.6808 -22.6034 0.7940 48.5379
-69.6842 -22.5135 0.0246 48.5379
-69.6875 -22.4236 0.0003 48.5379
-69.6909 -22.3336 0.0208 48.5379
-69.6943 -22.2437 0.0632 48.5379
-69.6977 -22.1537 0.2193 48.5379
-69.7011 -22.0638 0.3254 48.5379
-69.7045 -21.9739 0.3481 48.5379
-69.7079 -21.8839 0.0095 48.5379
-69.7113 -21.7940 0.0095 48.5379
-69.7147 -21.7040 0.0031 48.5379
-69.7181 -21.6141 0.0287 48.5379
-69.7215 -21.5242 0.0140 48.5379
-69.7249 -21.4342 0.0661 48.5379
-69.5821 -23.1405 0.0100 51.9568
-69.5855 -23.0506 0.0094 51.9568
-69.5889 -22.9607 0.0096 51.9568
-69.5923 -22.8707 0.0376 51.9568
-69.5957 -22.7808 0.5924 51.9568
-69.5991 -22.6908 0.7952 51.9568
-69.6025 -22.6009 0.8880 51.9568
-69.6059 -22.5110 0.1768 51.9568
-69.6093 -22.4210 0.0034 51.9568
-69.6127 -22.3311 0.0080 51.9568
-69.6161 -22.2411 0.0015 51.9568
-69.6195 -22.1512 0.2377 51.9568
-69.6229 -22.0613 0.0057 51.9568
-69.6262 -21.9713 0.0016 51.9568
-69.6296 -21.8814 0.0334 51.9568
-69.6330 -21.7915 0.0071 51.9568
-69.6364 -21.7015 0.0041 51.9568
-69.6398 -21.6116 0.0248 51.9568
-69.6432 -21.5216 0.0476 51.9568
-69.6466 -21.4317 0.0118 51.9568
-69.5039 -23.1380 0.0152 55.3757
-69.5073 -23.0481 0.0187 55.3757
-69.5106 -22.9581 0.0180 55.3757
-69.5140 -22.8682 0.0197 55.3757
-69.5174 -22.7782 0.0250 55.3757
-69.5208 -22.6883 0.0817 55.3757
-69.5242 -22.5984 0.0817 55.3757
-69.5276 -22.5084 0.0038 55.3757
-69.5310 -22.4185 0.0128 55.3757
-69.5344 -22.3286 0.0662 55.3757
-69.5378 -22.2386 0.0532 55.3757
-69.5412 -22.1487 0.0029 55.3757
-69.5446 -22.0587 0.0237 55.3757
-69.5480 -21.9688 0.0066 55.3757
-69.5514 -21.8789 0.0019 55.3757
-69.5548 -21.7889 0.0200 55.3757
-69.5582 -21.6990 0.0433 55.3757
-69.5615 -21.6091 0.0102 55.3757
-69.5649 -21.5191 0.0585 55.3757
-69.5683 -21.4292 0.0220 55.3757
