-75.7136 -14.3660 0.0000 31.0455
-75.7879 -14.2857 0.0000 31.0455
-75.8621 -14.2055 0.0000 31.0455
-75.9364 -14.1252 0.0000 31.0455
-76.0107 -14.0450 0.6429 31.0455
-76.0849 -13.9647 1.5000 31.0455
-76.1592 -13.8845 1.5000 31.0455
-76.2334 -13.8042 1.5000 31.0455
-76.3077 -13.7240 0.0000 31.0455
-76.3820 -13.6437 0.0000 31.0455
-76.4562 -13.5635 3.2143 31.0455
-76.5305 -13.4832 4.9286 31.0455
-76.6047 -13.4029 3.6429 31.0455
-76.6790 -13.3227 1.9286 31.0455
-76.7533 -13.2424 0.6429 31.0455
-76.8275 -13.1622 0.0000 31.0455
-75.6541 -14.3138 0.0000 36.0455
-75.7284 -14.2336 0.0000 36.0455
-75.8026 -14.1533 0.0000 36.0455
-75.8769 -14.0731 0.0000 36.0455
-75.9511 -13.9928 0.0000 36.0455
-76.0254 -13.9126 0.6429 36.0455
-76.0997 -13.8323 0.6429 36.0455
-76.1739 -13.7521 1.0714 36.0455
-76.2482 -13.6718 0.0000 36.0455
-76.3224 -13.5916 0.0000 36.0455
-76.3967 -13.5113 2.3571 36.0455
-76.4710 -13.4311 4.9286 36.0455
-76.5452 -13.3508 2.3571 36.0455
-76.6195 -13.2705 1.2857 36.0455
-76.6937 -13.1903 0.0000 36.0455
-76.7680 -13.1100 0.0000 36.0455
-75.5946 -14.2617 0.0000 41.0455
-75.6688 -14.1814 0.0000 41.0455
-75.7431 -14.1012 0.0000 41.0455
-75.8174 -14.0209 0.0000 41.0455
-75.8916 -13.9407 0.0000 41.0455
-75.9659 -13.8604 0.0000 41.0455
-76.0401 -13.7802 0.0000 41.0455
-76.1144 -13.6999 0.6429 41.0455
-76.1887 -13.6197 0.0000 41.0455
-76.2629 -13.5394 0.0000 41.0455
-76.3372 -13.4592 1.0714 41.0455
-76.4114 -13.3789 3.8571 41.0455
-76.4857 -13.2986 1.7143 41.0455
-76.5600 -13.2184 0.8571 41.0455
-76.6342 -13.1381 0.0000 41.0455
-76.7085 -13.0579 0.0000 41.0455
-75.5351 -14.2095 0.0000 46.0455
-75.6093 -14.1293 0.0000 46.0455
-75.6836 -14.0490 0.0000 46.0455
-75.7578 -13.9688 0.0000 46.0455
-75.8321 -13.8885 0.4286 46.0455
-75.9064 -13.8083 0.0000 46.0455
-75.9806 -13.7280 0.0000 46.0455
-76.0549 -13.6478 1.0714 46.0455
-76.1291 -13.5675 0.0000 46.0455
-76.2034 -13.4873 0.0000 46.0455
-76.2777 -13.4070 0.0000 46.0455
-76.3519 -13.3268 0.0000 46.0455
-76.4262 -13.2465 0.0000 46.0455
-76.5004 -13.1662 0.0000 46.0455
-76.5747 -13.0860 0.0000 46.0455
-76.6490 -13.0057 0.0000 46.0455
-75.4755 -14.1574 0.0000 51.0455
-75.5498 -14.0771 0.0000 51.0455
-75.6241 -13.9969 0.0000 51.0455
-75.6983 -13.9166 0.0000 51.0455
-75.7726 -13.8364 0.6429 51.0455
-75.8468 -13.7561 0.4286 51.0455
-75.9211 -13.6759 1.0714 51.0455
-75.9954 -13.5956 1.2857 51.0455
-76.0696 -13.5154 0.0000 51.0455
-76.1439 -13.4351 0.0000 51.0455
-76.2181 -13.3549 0.0000 51.0455
-76.2924 -13.2746 0.0000 51.0455
-76.3667 -13.1943 0.0000 51.0455
-76.4409 -13.1141 0.0000 51.0455
-76.5152 -13.0338 0.0000 51.0455
-76.5894 -12.9536 0.0000 51.0455
-75.4160 -14.1052 0.0000 56.0455
-75.4903 -14.0250 0.0000 56.0455
-75.5645 -13.9447 0.0000 56.0455
-75.6388 -13.8645 0.0000 56.0455
-75.7131 -13.7842 0.6429 56.0455
-75.7873 -13.7040 0.6429 56.0455
-75.8616 -13.6237 0.6429 56.0455
-75.9358 -13.5435 0.8571 56.0455
-76.0101 -13.4632 0.0000 56.0455
-76.0844 -13.3830 0.0000 56.0455
-76.1586 -13.3027 0.0000 56.0455
-76.2329 -13.2225 0.0000 56.0455
-76.3071 -13.1422 0.0000 56.0455
-76.3814 -13.0619 0.0000 56.0455
-76.4557 -12.9817 0.0000 56.0455
-76.5299 -12.9014 0.0000 56.0455
-75.3565 -14.0531 0.0000 61.0455
-75.4308 -13.9728 0.0000 61.0455
-75.5050 -13.8926 0.0000 61.0455
-75.5793 -13.8123 0.0000 61.0455
-75.6535 -13.7321 0.0000 61.0455
-75.7278 -13.6518 0.0000 61.0455
-75.8021 -13.5716 0.0000 61.0455
-75.8763 -13.4913 0.0000 61.0455
-75.9506 -13.4111 0.0000 61.0455
-76.0248 -13.3308 0.0000 61.0455
-76.0991 -13.2506 0.0000 61.0455
-76.1734 -13.1703 0.0000 61.0455
-76.2476 -13.0901 0.0000 61.0455
-76.3219 -13.0098 0.0000 61.0455
-76.3961 -12.9295 0.0000 61.0455
-76.4704 -12.8493 0.0000 61.0455
-75.2970 -14.0009 0.0000 66.0455
-75.3712 -13.9207 0.0000 66.0455
-75.4455 -13.8404 0.0000 66.0455
-75.5198 -13.7602 0.0000 66.0455
-75.5940 -13.6799 0.0000 66.0455
-75.6683 -13.5997 0.0000 66.0455
-75.7425 -13.5194 0.0000 66.0455
-75.8168 -13.4392 0.0000 66.0455
-75.8911 -13.3589 0.0000 66.0455
-75.9653 -13.2787 0.0000 66.0455
-76.0396 -13.1984 0.0000 66.0455
-76.1138 -13.1182 0.0000 66.0455
-76.1881 -13.0379 0.0000 66.0455
-76.2624 -12.9576 0.0000 66.0455
-76.3366 -12.8774 0.0000 66.0455
-76.4109 -12.7971 0.0000 66.0455
-75.2375 -13.9488 1.0000 71.0455
-75.3117 -13.8685 1.0000 71.0455
-75.3860 -13.7883 1.0000 71.0455
-75.4602 -13.7080 1.0000 71.0455
-75.5345 -13.6278 1.0000 71.0455
-75.6088 -13.5475 1.0000 71.0455
-75.6830 -13.4673 1.0000 71.0455
-75.7573 -13.3870 1.0000 71.0455
-75.8315 -13.3068 1.0000 71.0455
-75.9058 -13.2265 1.0000 71.0455
-75.9801 -13.1463 0.8000 71.0455
-76.0543 -13.0660 0.6000 71.0455
-76.1286 -12.9858 0.0000 71.0455
-76.2028 -12.9055 0.0000 71.0455
-76.2771 -12.8252 0.0000 71.0455
-76.3513 -12.7450 0.6000 71.0455
-76.1709 -14.7625 0.0000 7.2477
-76.2452 -14.6822 0.0000 7.2477
-76.3195 -14.6020 0.0000 7.2477
-76.3937 -14.5217 0.0000 7.2477
-76.4680 -14.4415 0.0000 7.2477
-76.5422 -14.3612 0.0000 7.2477
-76.6165 -14.2810 0.0000 7.2477
-76.6908 -14.2007 0.2143 7.2477
-76.7650 -14.1205 0.6429 7.2477
-76.8393 -14.0402 0.6429 7.2477
-76.9135 -13.9600 0.6429 7.2477
-76.9878 -13.8797 0.6429 7.2477
-77.0621 -13.7994 1.0714 7.2477
-77.1363 -13.7192 1.0714 7.2477
-77.2106 -13.6389 0.8571 7.2477
-77.2848 -13.5587 0.7000 7.2477
-76.1064 -14.7059 0.0000 10.6679
-76.1806 -14.6256 0.0000 10.6679
-76.2549 -14.5454 0.0000 10.6679
-76.3291 -14.4651 0.0000 10.6679
-76.4034 -14.3849 0.0000 10.6679
-76.4777 -14.3046 0.0000 10.6679
-76.5519 -14.2244 1.0714 10.6679
-76.6262 -14.1441 2.7857 10.6679
-76.7004 -14.0639 4.5000 10.6679
-76.7747 -13.9836 3.8571 10.6679
-76.8490 -13.9034 2.1429 10.6679
-76.9232 -13.8231 0.8571 10.6679
-76.9975 -13.7429 0.8571 10.6679
-77.0717 -13.6626 1.5000 10.6679
-77.1460 -13.5824 1.7143 10.6679
-77.2202 -13.5021 1.0000 10.6679
-76.0418 -14.6493 0.0000 14.0881
-76.1160 -14.5691 0.0000 14.0881
-76.1903 -14.4888 0.0000 14.0881
-76.2646 -14.4086 0.0000 14.0881
-76.3388 -14.3283 0.0000 14.0881
-76.4131 -14.2480 0.4286 14.0881
-76.4873 -14.1678 2.1429 14.0881
-76.5616 -14.0875 6.0000 14.0881
-76.6358 -14.0073 9.0000 14.0881
-76.7101 -13.9270 7.2857 14.0881
-76.7844 -13.8468 3.0000 14.0881
-76.8586 -13.7665 0.4286 14.0881
-76.9329 -13.6863 0.4286 14.0881
-77.0071 -13.6060 0.8571 14.0881
-77.0814 -13.5258 0.6429 14.0881
-77.1557 -13.4455 1.0000 14.0881
-75.9772 -14.5927 0.0000 17.5083
-76.0515 -14.5125 0.0000 17.5083
-76.1257 -14.4322 0.0000 17.5083
-76.2000 -14.3520 0.0000 17.5083
-76.2742 -14.2717 0.4286 17.5083
-76.3485 -14.1915 1.0714 17.5083
-76.4227 -14.1112 2.7857 17.5083
-76.4970 -14.0310 7.0714 17.5083
-76.5713 -13.9507 9.8571 17.5083
-76.6455 -13.8704 6.8571 17.5083
-76.7198 -13.7902 1.7143 17.5083
-76.7940 -13.7099 0.0000 17.5083
-76.8683 -13.6297 0.0000 17.5083
-76.9426 -13.5494 0.0000 17.5083
-77.0168 -13.4692 0.0000 17.5083
-77.0911 -13.3889 0.0000 17.5083
-75.9126 -14.5361 0.0000 20.9285
-75.9869 -14.4559 0.0000 20.9285
-76.0611 -14.3756 0.0000 20.9285
-76.1354 -14.2954 0.0000 20.9285
-76.2096 -14.2151 1.2857 20.9285
-76.2839 -14.1349 0.8571 20.9285
-76.3582 -14.0546 1.9286 20.9285
-76.4324 -13.9744 5.1429 20.9285
-76.5067 -13.8941 6.0000 20.9285
-76.5809 -13.8139 2.7857 20.9285
-76.6552 -13.7336 0.0000 20.9285
-76.7295 -13.6534 0.0000 20.9285
-76.8037 -13.5731 0.0000 20.9285
-76.8780 -13.4928 0.0000 20.9285
-76.9522 -13.4126 0.0000 20.9285
-77.0265 -13.3323 0.0000 20.9285
-75.8480 -14.4796 0.0000 24.3487
-75.9223 -14.3993 0.0000 24.3487
-75.9965 -14.3190 0.0000 24.3487
-76.0708 -14.2388 0.0000 24.3487
-76.1451 -14.1585 0.0000 24.3487
-76.2193 -14.0783 0.6429 24.3487
-76.2936 -13.9980 2.5714 24.3487
-76.3678 -13.9178 4.7143 24.3487
-76.4421 -13.8375 3.4286 24.3487
-76.5164 -13.7573 1.2857 24.3487
-76.5906 -13.6770 1.2857 24.3487
-76.6649 -13.5968 0.4286 24.3487
-76.7391 -13.5165 0.0000 24.3487
-76.8134 -13.4363 0.0000 24.3487
-76.8877 -13.3560 0.0000 24.3487
-76.9619 -13.2758 0.0000 24.3487
-75.7834 -14.4230 0.0000 27.7689
-75.8577 -14.3427 0.0000 27.7689
-75.9320 -14.2625 0.0000 27.7689
-76.0062 -14.1822 0.0000 27.7689
-76.0805 -14.1020 0.0000 27.7689
-76.1547 -14.0217 0.4286 27.7689
-76.2290 -13.9415 2.1429 27.7689
-76.3033 -13.8612 3.4286 27.7689
-76.3775 -13.7809 1.5000 27.7689
-76.4518 -13.7007 1.2857 27.7689
-76.5260 -13.6204 1.9286 27.7689
-76.6003 -13.5402 0.8571 27.7689
-76.6746 -13.4599 0.0000 27.7689
-76.7488 -13.3797 0.0000 27.7689
-76.8231 -13.2994 0.0000 27.7689
-76.8973 -13.2192 0.0000 27.7689
-76.5160 -15.0568 0.0000 2.3926
-76.5903 -14.9765 0.0000 2.3926
-76.6645 -14.8963 0.0000 2.3926
-76.7388 -14.8160 0.0000 2.3926
-76.8130 -14.7358 0.0000 2.3926
-76.8873 -14.6555 0.0000 2.3926
-76.9616 -14.5753 0.0000 2.3926
-77.0358 -14.4950 0.0000 2.3926
-77.1101 -14.4148 0.0000 2.3926
-77.1843 -14.3345 0.0000 2.3926
-77.2586 -14.2543 0.0000 2.3926
-77.3329 -14.1740 0.0000 2.3926
-77.4071 -14.0937 0.0000 2.3926
-77.4814 -14.0135 0.0000 2.3926
-77.5556 -13.9332 0.0000 2.3926
-77.6299 -13.8530 0.0000 2.3926
-76.4477 -14.9969 0.0000 3.4379
-76.5219 -14.9166 0.0000 3.4379
-76.5962 -14.8364 0.0000 3.4379
-76.6704 -14.7561 0.0000 3.4379
-76.7447 -14.6759 0.0000 3.4379
-76.8190 -14.5956 0.0000 3.4379
-76.8932 -14.5154 0.0000 3.4379
-76.9675 -14.4351 0.0000 3.4379
-77.0417 -14.3549 0.0000 3.4379
-77.1160 -14.2746 0.0000 3.4379
-77.1902 -14.1944 0.0000 3.4379
-77.2645 -14.1141 0.0000 3.4379
-77.3388 -14.0339 0.0000 3.4379
-77.4130 -13.9536 0.0000 3.4379
-77.4873 -13.8734 0.0000 3.4379
-77.5615 -13.7931 0.0000 3.4379
-76.3793 -14.9370 0.0000 4.4832
-76.4536 -14.8568 0.0000 4.4832
-76.5278 -14.7765 0.0000 4.4832
-76.6021 -14.6962 0.0000 4.4832
-76.6763 -14.6160 0.0000 4.4832
-76.7506 -14.5357 0.0000 4.4832
-76.8249 -14.4555 0.0000 4.4832
-76.8991 -14.3752 0.0000 4.4832
-76.9734 -14.2950 0.0000 4.4832
-77.0476 -14.2147 0.0000 4.4832
-77.1219 -14.1345 0.0000 4.4832
-77.1962 -14.0542 0.0000 4.4832
-77.2704 -13.9740 0.0000 4.4832
-77.3447 -13.8937 0.0000 4.4832
-77.4189 -13.8135 0.0000 4.4832
-77.4932 -13.7332 0.0000 4.4832
-76.3110 -14.8771 0.0000 5.5285
-76.3852 -14.7969 0.0000 5.5285
-76.4595 -14.7166 0.0000 5.5285
-76.5337 -14.6364 0.0000 5.5285
-76.6080 -14.5561 0.0000 5.5285
-76.6822 -14.4759 0.0000 5.5285
-76.7565 -14.3956 1.0000 5.5285
-76.8308 -14.3153 0.0000 5.5285
-76.9050 -14.2351 0.0000 5.5285
-76.9793 -14.1548 0.0000 5.5285
-77.0535 -14.0746 0.0000 5.5285
-77.1278 -13.9943 0.0000 5.5285
-77.2021 -13.9141 0.0000 5.5285
-77.2763 -13.8338 0.0000 5.5285
-77.3506 -13.7536 0.0000 5.5285
-77.4248 -13.6733 0.0000 5.5285
-76.2426 -14.8172 0.0000 6.5737
-76.3169 -14.7370 0.0000 6.5737
-76.3911 -14.6567 0.0000 6.5737
-76.4654 -14.5765 0.0000 6.5737
-76.5396 -14.4962 0.0000 6.5737
-76.6139 -14.4160 1.0000 6.5737
-76.6882 -14.3357 1.0000 6.5737
-76.7624 -14.2555 0.0000 6.5737
-76.8367 -14.1752 0.0000 6.5737
-76.9109 -14.0950 0.0000 6.5737
-76.9852 -14.0147 0.0000 6.5737
-77.0595 -13.9344 0.0000 6.5737
-77.1337 -13.8542 0.0000 6.5737
-77.2080 -13.7739 0.0000 6.5737
-77.2822 -13.6937 0.0000 6.5737
-77.3565 -13.6134 0.0000 6.5737
