-104.1336 17.9343 0.0221 1.3500
-104.1888 17.9695 0.0718 1.3500
-104.2439 18.0047 0.0657 1.3500
-104.2991 18.0399 0.0720 1.3500
-104.3542 18.0752 0.0795 1.3500
-104.4094 18.1104 0.0360 1.3500
-104.4646 18.1456 0.1052 1.3500
-104.5197 18.1808 0.0731 1.3500
-104.5749 18.2161 0.1616 1.3500
-104.6300 18.2513 0.0380 1.3500
-104.6852 18.2865 0.0394 1.3500
-104.7403 18.3217 0.0650 1.3500
-104.7955 18.3570 0.2193 1.3500
-104.8507 18.3922 0.2341 1.3500
-104.9058 18.4274 0.2381 1.3500
-104.1065 17.9723 0.0550 2.8109
-104.1617 18.0075 0.0747 2.8109
-104.2168 18.0427 0.0398 2.8109
-104.2720 18.0779 0.0454 2.8109
-104.3272 18.1132 0.0178 2.8109
-104.3823 18.1484 0.0080 2.8109
-104.4375 18.1836 0.0585 2.8109
-104.4926 18.2189 0.0153 2.8109
-104.5478 18.2541 0.1018 2.8109
-104.6030 18.2893 0.0115 2.8109
-104.6581 18.3245 0.0234 2.8109
-104.7133 18.3598 0.0311 2.8109
-104.7684 18.3950 0.0626 2.8109
-104.8236 18.4302 0.0115 2.8109
-104.8787 18.4654 0.0119 2.8109
-104.0794 18.0103 0.2274 4.2718
-104.1346 18.0455 0.0681 4.2718
-104.1898 18.0807 0.0088 4.2718
-104.2449 18.1160 0.0041 4.2718
-104.3001 18.1512 0.1511 4.2718
-104.3552 18.1864 0.1635 4.2718
-104.4104 18.2216 0.1465 4.2718
-104.4656 18.2569 0.1342 4.2718
-104.5207 18.2921 0.0945 4.2718
-104.5759 18.3273 0.0075 4.2718
-104.6310 18.3625 0.0040 4.2718
-104.6862 18.3978 0.1281 4.2718
-104.7413 18.4330 0.0390 4.2718
-104.7965 18.4682 0.0126 4.2718
-104.8517 18.5034 0.0533 4.2718
-104.0524 18.0483 0.0100 5.7326
-104.1075 18.0835 0.0225 5.7326
-104.1627 18.1187 0.1341 5.7326
-104.2178 18.1540 0.1111 5.7326
-104.2730 18.1892 0.1317 5.7326
-104.3282 18.2244 0.2049 5.7326
-104.3833 18.2596 0.0964 5.7326
-104.4385 18.2949 0.0551 5.7326
-104.4936 18.3301 0.1975 5.7326
-104.5488 18.3653 0.1352 5.7326
-104.6040 18.4006 0.0172 5.7326
-104.6591 18.4358 0.0791 5.7326
-104.7143 18.4710 0.0224 5.7326
-104.7694 18.5062 0.0137 5.7326
-104.8246 18.5415 0.0018 5.7326
-104.0253 18.0863 0.0612 7.1935
-104.0804 18.1215 0.1108 7.1935
-104.1356 18.1568 0.2749 7.1935
-104.1908 18.1920 0.2093 7.1935
-104.2459 18.2272 0.2674 7.1935
-104.3011 18.2624 0.1762 7.1935
-104.3562 18.2977 0.0058 7.1935
-104.4114 18.3329 0.0404 7.1935
-104.4666 18.3681 0.0097 7.1935
-104.5217 18.4033 0.0265 7.1935
-104.5769 18.4386 0.0229 7.1935
-104.6320 18.4738 0.0529 7.1935
-104.6872 18.5090 0.0230 7.1935
-104.7424 18.5442 0.1102 7.1935
-104.7975 18.5795 0.0444 7.1935
-103.9982 18.1243 0.1786 8.6544
-104.0534 18.1595 0.3674 8.6544
-104.1085 18.1948 0.4205 8.6544
-104.1637 18.2300 0.1766 8.6544
-104.2188 18.2652 0.0312 8.6544
-104.2740 18.3004 0.0487 8.6544
-104.3292 18.3357 0.0807 8.6544
-104.3843 18.3709 0.1332 8.6544
-104.4395 18.4061 0.0539 8.6544
-104.4946 18.4413 0.0326 8.6544
-104.5498 18.4766 0.0358 8.6544
-104.6050 18.5118 0.1391 8.6544
-104.6601 18.5470 0.0124 8.6544
-104.7153 18.5823 0.0779 8.6544
-104.7704 18.6175 0.0027 8.6544
-103.9711 18.1623 0.1326 10.1153
-104.0263 18.1975 0.3476 10.1153
-104.0815 18.2328 0.3566 10.1153
-104.1366 18.2680 0.0126 10.1153
-104.1918 18.3032 0.0286 10.1153
-104.2469 18.3385 0.0054 10.1153
-104.3021 18.3737 0.1052 10.1153
-104.3572 18.4089 0.0315 10.1153
-104.4124 18.4441 0.0948 10.1153
-104.4676 18.4794 0.0776 10.1153
-104.5227 18.5146 0.0293 10.1153
-104.5779 18.5498 0.0581 10.1153
-104.6330 18.5850 0.0258 10.1153
-104.6882 18.6203 0.1083 10.1153
-104.7434 18.6555 0.0157 10.1153
-103.9441 18.2003 0.2564 11.5761
-103.9992 18.2356 0.3299 11.5761
-104.0544 18.2708 0.1118 11.5761
-104.1095 18.3060 0.1851 11.5761
-104.1647 18.3412 0.1373 11.5761
-104.2198 18.3765 0.1209 11.5761
-104.2750 18.4117 0.0316 11.5761
-104.3302 18.4469 0.0065 11.5761
-104.3853 18.4821 0.0537 11.5761
-104.4405 18.5174 0.0286 11.5761
-104.4956 18.5526 0.0319 11.5761
-104.5508 18.5878 0.0288 11.5761
-104.6060 18.6230 0.0211 11.5761
-104.6611 18.6583 0.0509 11.5761
-104.7163 18.6935 0.0796 11.5761
-103.9170 18.2383 0.0564 13.0370
-103.9721 18.2736 0.0583 13.0370
-104.0273 18.3088 0.0864 13.0370
-104.0825 18.3440 0.1445 13.0370
-104.1376 18.3792 0.0132 13.0370
-104.1928 18.4145 0.0547 13.0370
-104.2479 18.4497 0.0252 13.0370
-104.3031 18.4849 0.0180 13.0370
-104.3582 18.5202 0.0377 13.0370
-104.4134 18.5554 0.0134 13.0370
-104.4686 18.5906 0.0045 13.0370
-104.5237 18.6258 0.0592 13.0370
-104.5789 18.6611 0.0157 13.0370
-104.6340 18.6963 0.0044 13.0370
-104.6892 18.7315 0.1071 13.0370
-103.8899 18.2763 0.1121 14.4979
-103.9451 18.3116 0.2761 14.4979
-104.0002 18.3468 0.2788 14.4979
-104.0554 18.3820 0.0816 14.4979
-104.1105 18.4173 0.0117 14.4979
-104.1657 18.4525 0.0033 14.4979
-104.2208 18.4877 0.0398 14.4979
-104.2760 18.5229 0.1171 14.4979
-104.3312 18.5582 0.0096 14.4979
-104.3863 18.5934 0.0454 14.4979
-104.4415 18.6286 0.0018 14.4979
-104.4966 18.6638 0.0076 14.4979
-104.5518 18.6991 0.0258 14.4979
-104.6070 18.7343 0.0143 14.4979
-104.6621 18.7695 0.0653 14.4979
-103.8628 18.3144 0.3542 15.9588
-103.9180 18.3496 0.3765 15.9588
-103.9731 18.3848 0.0457 15.9588
-104.0283 18.4200 0.0230 15.9588
-104.0835 18.4553 0.0292 15.9588
-104.1386 18.4905 0.0014 15.9588
-104.1938 18.5257 0.0021 15.9588
-104.2489 18.5609 0.0532 15.9588
-104.3041 18.5962 0.0010 15.9588
-104.3592 18.6314 0.0053 15.9588
-104.4144 18.6666 0.0173 15.9588
-104.4696 18.7018 0.0122 15.9588
-104.5247 18.7371 0.0862 15.9588
-104.5799 18.7723 0.0055 15.9588
-104.6350 18.8075 0.0140 15.9588
-103.8357 18.3524 0.4749 17.4197
-103.8909 18.3876 0.5347 17.4197
-103.9461 18.4228 0.0344 17.4197
-104.0012 18.4580 0.0743 17.4197
-104.0564 18.4933 0.0045 17.4197
-104.1115 18.5285 0.0424 17.4197
-104.1667 18.5637 0.3561 17.4197
-104.2219 18.5990 0.6952 17.4197
-104.2770 18.6342 0.3264 17.4197
-104.3322 18.6694 0.0102 17.4197
-104.3873 18.7046 0.0045 17.4197
-104.4425 18.7399 0.0776 17.4197
-104.4976 18.7751 0.0330 17.4197
-104.5528 18.8103 0.0069 17.4197
-104.6080 18.8455 0.0085 17.4197
-103.8087 18.3904 0.4353 18.8805
-103.8638 18.4256 0.4843 18.8805
-103.9190 18.4608 0.0362 18.8805
-103.9741 18.4961 0.0003 18.8805
-104.0293 18.5313 0.0321 18.8805
-104.0845 18.5665 0.4220 18.8805
-104.1396 18.6017 1.2337 18.8805
-104.1948 18.6370 1.5296 18.8805
-104.2499 18.6722 1.0459 18.8805
-104.3051 18.7074 0.5755 18.8805
-104.3602 18.7426 0.0658 18.8805
-104.4154 18.7779 0.0787 18.8805
-104.4706 18.8131 0.0073 18.8805
-104.5257 18.8483 0.0024 18.8805
-104.5809 18.8835 0.0092 18.8805
-103.7816 18.4284 0.2478 20.3414
-103.8367 18.4636 0.2173 20.3414
-103.8919 18.4988 0.0277 20.3414
-103.9471 18.5341 0.0178 20.3414
-104.0022 18.5693 0.5551 20.3414
-104.0574 18.6045 1.0081 20.3414
-104.1125 18.6397 1.7193 20.3414
-104.1677 18.6750 1.7538 20.3414
-104.2229 18.7102 1.3178 20.3414
-104.2780 18.7454 1.1183 20.3414
-104.3332 18.7807 0.5061 20.3414
-104.3883 18.8159 0.0439 20.3414
-104.4435 18.8511 0.0090 20.3414
-104.4986 18.8863 0.0214 20.3414
-104.5538 18.9216 0.0188 20.3414
-103.7545 18.4664 0.2094 21.8023
-103.8097 18.5016 0.2088 21.8023
-103.8648 18.5369 0.0221 21.8023
-103.9200 18.5721 0.0011 21.8023
-103.9751 18.6073 0.6719 21.8023
-104.0303 18.6425 1.1738 21.8023
-104.0855 18.6778 1.3745 21.8023
-104.1406 18.7130 1.1483 21.8023
-104.1958 18.7482 0.9591 21.8023
-104.2509 18.7834 1.1624 21.8023
-104.3061 18.8187 0.7960 21.8023
-104.3613 18.8539 0.5112 21.8023
-104.4164 18.8891 0.0446 21.8023
-104.4716 18.9243 0.0729 21.8023
-104.5267 18.9596 0.0137 21.8023
-103.7274 18.5044 0.1747 23.2632
-103.7826 18.5396 0.0668 23.2632
-103.8377 18.5749 0.0240 23.2632
-103.8929 18.6101 0.0022 23.2632
-103.9481 18.6453 0.1815 23.2632
-104.0032 18.6805 0.4093 23.2632
-104.0584 18.7158 0.2096 23.2632
-104.1135 18.7510 0.0129 23.2632
-104.1687 18.7862 0.1071 23.2632
-104.2239 18.8214 0.3193 23.2632
-104.2790 18.8567 0.3293 23.2632
-104.3342 18.8919 0.4823 23.2632
-104.3893 18.9271 0.0400 23.2632
-104.4445 18.9624 0.0074 23.2632
-104.4996 18.9976 0.0188 23.2632
-103.7004 18.5424 0.1733 24.7240
-103.7555 18.5776 0.0288 24.7240
-103.8107 18.6129 0.0154 24.7240
-103.8658 18.6481 0.0101 24.7240
-103.9210 18.6833 0.0211 24.7240
-103.9761 18.7186 0.0440 24.7240
-104.0313 18.7538 0.0833 24.7240
-104.0865 18.7890 0.0166 24.7240
-104.1416 18.8242 0.0308 24.7240
-104.1968 18.8595 0.0607 24.7240
-104.2519 18.8947 0.0481 24.7240
-104.3071 18.9299 0.2782 24.7240
-104.3623 18.9651 0.0253 24.7240
-104.4174 19.0004 0.0370 24.7240
-104.4726 19.0356 0.0153 24.7240
-103.6733 18.5804 0.0005 26.1849
-103.7284 18.6157 0.0035 26.1849
-103.7836 18.6509 0.0564 26.1849
-103.8387 18.6861 0.0584 26.1849
-103.8939 18.7213 0.0280 26.1849
-103.9491 18.7566 0.0211 26.1849
-104.0042 18.7918 0.5019 26.1849
-104.0594 18.8270 0.7714 26.1849
-104.1145 18.8622 0.6725 26.1849
-104.1697 18.8975 0.4515 26.1849
-104.2249 18.9327 0.1754 26.1849
-104.2800 18.9679 0.2420 26.1849
-104.3352 19.0031 0.0348 26.1849
-104.3903 19.0384 0.0109 26.1849
-104.4455 19.0736 0.0048 26.1849
-103.6462 18.6184 0.0400 27.6458
-103.7014 18.6537 0.0463 27.6458
-103.7565 18.6889 0.0478 27.6458
-103.8117 18.7241 0.0273 27.6458
-103.8668 18.7593 0.0039 27.6458
-103.9220 18.7946 0.7182 27.6458
-103.9771 18.8298 1.5265 27.6458
-104.0323 18.8650 1.8651 27.6458
-104.0875 18.9003 1.6942 27.6458
-104.1426 18.9355 0.9238 27.6458
-104.1978 18.9707 0.3368 27.6458
-104.2529 19.0059 0.3981 27.6458
-104.3081 19.0412 0.1213 27.6458
-104.3633 19.0764 0.0026 27.6458
-104.4184 19.1116 0.0070 27.6458
-103.6191 18.6565 0.0114 29.1067
-103.6743 18.6917 0.0133 29.1067
-103.7294 18.7269 0.0224 29.1067
-103.7846 18.7621 0.0080 29.1067
-103.8398 18.7974 0.0736 29.1067
-103.8949 18.8326 1.1609 29.1067
-103.9501 18.8678 2.2015 29.1067
-104.0052 18.9030 2.6651 29.1067
-104.0604 18.9383 2.3709 29.1067
-104.1155 18.9735 1.4098 29.1067
-104.1707 19.0087 0.9696 29.1067
-104.2259 19.0439 0.4974 29.1067
-104.2810 19.0792 0.0112 29.1067
-104.3362 19.1144 0.0181 29.1067
-104.3913 19.1496 0.0508 29.1067
-103.5920 18.6945 0.1087 30.5676
-103.6472 18.7297 0.0268 30.5676
-103.7024 18.7649 0.0132 30.5676
-103.7575 18.8001 0.0093 30.5676
-103.8127 18.8354 0.0211 30.5676
-103.8678 18.8706 0.8658 30.5676
-103.9230 18.9058 2.0967 30.5676
-103.9781 18.9410 2.8516 30.5676
-104.0333 18.9763 2.5931 30.5676
-104.0885 19.0115 1.8548 30.5676
-104.1436 19.0467 1.0666 30.5676
-104.1988 19.0820 0.3661 30.5676
-104.2539 19.1172 0.0015 30.5676
-104.3091 19.1524 0.0087 30.5676
-104.3643 19.1876 0.0200 30.5676
-103.5650 18.7325 0.0631 32.0284
-103.6201 18.7677 0.1847 32.0284
-103.6753 18.8029 0.1013 32.0284
-103.7304 18.8382 0.0108 32.0284
-103.7856 18.8734 0.0064 32.0284
-103.8408 18.9086 0.4732 32.0284
-103.8959 18.9438 1.4585 32.0284
-103.9511 18.9791 2.2788 32.0284
-104.0062 19.0143 2.0586 32.0284
-104.0614 19.0495 1.2004 32.0284
-104.1165 19.0847 0.4577 32.0284
-104.1717 19.1200 0.0031 32.0284
-104.2269 19.1552 0.0009 32.0284
-104.2820 19.1904 0.0215 32.0284
-104.3372 19.2256 0.0064 32.0284
-103.5379 18.7705 0.0000 33.4893
-103.5930 18.8057 0.1189 33.4893
-103.6482 18.8409 0.1619 33.4893
-103.7034 18.8762 0.0221 33.4893
-103.7585 18.9114 0.0130 33.4893
-103.8137 18.9466 0.0152 33.4893
-103.8688 18.9818 0.4846 33.4893
-103.9240 19.0171 1.1156 33.4893
-103.9792 19.0523 0.9604 33.4893
-104.0343 19.0875 0.1623 33.4893
-104.0895 19.1227 0.0024 33.4893
-104.1446 19.1580 0.0097 33.4893
-104.1998 19.1932 0.0010 33.4893
-104.2549 19.2284 0.2158 33.4893
-104.3101 19.2637 0.0106 33.4893
-103.5108 18.8085 0.0117 34.9502
-103.5660 18.8437 0.0320 34.9502
-103.6211 18.8789 0.0139 34.9502
-103.6763 18.9142 0.0348 34.9502
-103.7314 18.9494 0.0419 34.9502
-103.7866 18.9846 0.0017 34.9502
-103.8418 19.0198 0.0126 34.9502
-103.8969 19.0551 0.0053 34.9502
-103.9521 19.0903 0.0015 34.9502
-104.0072 19.1255 0.0013 34.9502
-104.0624 19.1608 0.0157 34.9502
-104.1175 19.1960 0.0465 34.9502
-104.1727 19.2312 0.0636 34.9502
-104.2279 19.2664 0.0688 34.9502
-104.2830 19.3017 0.0365 34.9502
-103.4837 18.8465 0.0883 36.4111
-103.5389 18.8817 0.1210 36.4111
-103.5940 18.9170 0.0157 36.4111
-103.6492 18.9522 0.1825 36.4111
-103.7044 18.9874 0.0399 36.4111
-103.7595 19.0226 0.1074 36.4111
-103.8147 19.0579 0.0053 36.4111
-103.8698 19.0931 0.0040 36.4111
-103.9250 19.1283 0.0116 36.4111
-103.9802 19.1635 0.0107 36.4111
-104.0353 19.1988 0.0278 36.4111
-104.0905 19.2340 0.0031 36.4111
-104.1456 19.2692 0.0338 36.4111
-104.2008 19.3044 0.0993 36.4111
-104.2559 19.3397 0.0581 36.4111
-103.4566 18.8845 0.0972 37.8719
-103.5118 18.9197 0.0178 37.8719
-103.5670 18.9550 0.1793 37.8719
-103.6221 18.9902 0.2567 37.8719
-103.6773 19.0254 0.0781 37.8719
-103.7324 19.0606 0.0471 37.8719
-103.7876 19.0959 0.0128 37.8719
-103.8428 19.1311 0.0939 37.8719
-103.8979 19.1663 0.0193 37.8719
-103.9531 19.2015 0.0303 37.8719
-104.0082 19.2368 0.0233 37.8719
-104.0634 19.2720 0.0232 37.8719
-104.1185 19.3072 0.0388 37.8719
-104.1737 19.3425 0.0950 37.8719
-104.2289 19.3777 0.0111 37.8719
-103.4296 18.9225 0.0360 39.3328
-103.4847 18.9577 0.0768 39.3328
-103.5399 18.9930 0.3290 39.3328
-103.5950 19.0282 0.4051 39.3328
-103.6502 19.0634 0.1031 39.3328
-103.7054 19.0987 0.0394 39.3328
-103.7605 19.1339 0.0234 39.3328
-103.8157 19.1691 0.0014 39.3328
-103.8708 19.2043 0.0492 39.3328
-103.9260 19.2396 0.1108 39.3328
-103.9812 19.2748 0.0460 39.3328
-104.0363 19.3100 0.0494 39.3328
-104.0915 19.3452 0.1394 39.3328
-104.1466 19.3805 0.0651 39.3328
-104.2018 19.4157 0.0724 39.3328
-103.4025 18.9605 0.2185 40.7937
-103.4576 18.9958 0.2418 40.7937
-103.5128 19.0310 0.1366 40.7937
-103.5680 19.0662 0.2492 40.7937
-103.6231 19.1014 0.2465 40.7937
-103.6783 19.1367 0.1013 40.7937
-103.7334 19.1719 0.0256 40.7937
-103.7886 19.2071 0.0712 40.7937
-103.8438 19.2423 0.0140 40.7937
-103.8989 19.2776 0.0064 40.7937
-103.9541 19.3128 0.0214 40.7937
-104.0092 19.3480 0.1269 40.7937
-104.0644 19.3832 0.1041 40.7937
-104.1196 19.4185 0.1194 40.7937
-104.1747 19.4537 0.0232 40.7937
-103.3754 18.9985 0.1423 42.2546
-103.4306 19.0338 0.0766 42.2546
-103.4857 19.0690 0.1762 42.2546
-103.5409 19.1042 0.1948 42.2546
-103.5960 19.1394 0.0491 42.2546
-103.6512 19.1747 0.0784 42.2546
-103.7064 19.2099 0.0342 42.2546
-103.7615 19.2451 0.0059 42.2546
-103.8167 19.2804 0.0025 42.2546
-103.8718 19.3156 0.0330 42.2546
-103.9270 19.3508 0.0035 42.2546
-103.9822 19.3860 0.0252 42.2546
-104.0373 19.4213 0.0414 42.2546
-104.0925 19.4565 0.0868 42.2546
-104.1476 19.4917 0.0200 42.2546
-103.3483 19.0366 0.0032 43.7155
-103.4035 19.0718 0.0044 43.7155
-103.4587 19.1070 0.0062 43.7155
-103.5138 19.1422 0.0071 43.7155
-103.5690 19.1775 0.0066 43.7155
-103.6241 19.2127 0.0106 43.7155
-103.6793 19.2479 0.0175 43.7155
-103.7344 19.2831 0.0024 43.7155
-103.7896 19.3184 0.0265 43.7155
-103.8448 19.3536 0.0332 43.7155
-103.8999 19.3888 0.0514 43.7155
-103.9551 19.4240 0.0048 43.7155
-104.0102 19.4593 0.0017 43.7155
-104.0654 19.4945 0.0945 43.7155
-104.1206 19.5297 0.0104 43.7155
-103.3213 19.0746 0.0981 45.1763
-103.3764 19.1098 0.0337 45.1763
-103.4316 19.1450 0.0022 45.1763
-103.4867 19.1802 0.0013 45.1763
-103.5419 19.2155 0.0166 45.1763
-103.5970 19.2507 0.0052 45.1763
-103.6522 19.2859 0.0317 45.1763
-103.7074 19.3211 0.0090 45.1763
-103.7625 19.3564 0.0516 45.1763
-103.8177 19.3916 0.0671 45.1763
-103.8728 19.4268 0.0688 45.1763
-103.9280 19.4621 0.0093 45.1763
-103.9832 19.4973 0.0125 45.1763
-104.0383 19.5325 0.0241 45.1763
-104.0935 19.5677 0.0057 45.1763
