157.1766 -8.8326 0.0585 3.9500
157.0871 -8.7707 1.4427 3.9500
156.9977 -8.7087 3.2687 3.9500
156.9083 -8.6468 4.4919 3.9500
156.8188 -8.5848 5.1417 3.9500
156.7294 -8.5229 5.2222 3.9500
156.6400 -8.4610 4.2804 3.9500
156.5505 -8.3990 2.8986 3.9500
156.4611 -8.3371 2.6356 3.9500
156.3717 -8.2751 3.0233 3.9500
156.2822 -8.2132 4.9147 3.9500
156.1928 -8.1513 5.9461 3.9500
156.1034 -8.0893 5.5019 3.9500
156.0139 -8.0274 4.5836 3.9500
155.9245 -7.9654 2.9028 3.9500
155.8351 -7.9035 2.1198 3.9500
155.7456 -7.8416 1.6142 3.9500
155.6562 -7.7796 0.7443 3.9500
155.5668 -7.7177 0.0376 3.9500
157.2272 -8.7611 0.0636 6.3692
157.1378 -8.6991 2.2012 6.3692
157.0483 -8.6372 4.6784 6.3692
156.9589 -8.5753 6.3179 6.3692
156.8695 -8.5133 7.4037 6.3692
156.7800 -8.4514 7.0172 6.3692
156.6906 -8.3894 4.6535 6.3692
156.6012 -8.3275 2.2878 6.3692
156.5117 -8.2656 2.0568 6.3692
156.4223 -8.2036 3.0237 6.3692
156.3329 -8.1417 6.3669 6.3692
156.2434 -8.0797 8.0801 6.3692
156.1540 -8.0178 7.9172 6.3692
156.0646 -7.9558 6.2100 6.3692
155.9751 -7.8939 4.1027 6.3692
155.8857 -7.8320 3.5322 6.3692
155.7963 -7.7700 2.6991 6.3692
155.7068 -7.7081 0.8895 6.3692
155.6174 -7.6461 0.0620 6.3692
157.2778 -8.6896 0.0122 8.7884
157.1884 -8.6276 1.1501 8.7884
157.0990 -8.5657 4.2691 8.7884
157.0095 -8.5037 6.2001 8.7884
156.9201 -8.4418 6.9528 8.7884
156.8307 -8.3799 5.9818 8.7884
156.7412 -8.3179 4.9330 8.7884
156.6518 -8.2560 2.7712 8.7884
156.5624 -8.1940 1.4100 8.7884
156.4729 -8.1321 1.6132 8.7884
156.3835 -8.0701 4.3856 8.7884
156.2941 -8.0082 7.0539 8.7884
156.2046 -7.9463 6.1954 8.7884
156.1152 -7.8843 4.9062 8.7884
156.0258 -7.8224 3.7252 8.7884
155.9363 -7.7604 3.6248 8.7884
155.8469 -7.6985 3.5041 8.7884
155.7575 -7.6366 1.7220 8.7884
155.6680 -7.5746 0.0019 8.7884
157.3285 -8.6180 0.0837 11.2077
157.2390 -8.5561 0.9466 11.2077
157.1496 -8.4941 3.9161 11.2077
157.0602 -8.4322 6.1423 11.2077
156.9707 -8.3703 6.3669 11.2077
156.8813 -8.3083 4.8741 11.2077
156.7919 -8.2464 4.0452 11.2077
156.7024 -8.1844 2.7673 11.2077
156.6130 -8.1225 1.3731 11.2077
156.5236 -8.0606 1.5531 11.2077
156.4341 -7.9986 3.5695 11.2077
156.3447 -7.9367 5.8011 11.2077
156.2553 -7.8747 4.6596 11.2077
156.1658 -7.8128 4.2590 11.2077
156.0764 -7.7509 3.9450 11.2077
155.9870 -7.6889 3.3794 11.2077
155.8975 -7.6270 3.0316 11.2077
155.8081 -7.5650 1.5592 11.2077
155.7187 -7.5031 0.0993 11.2077
157.3791 -8.5465 0.0304 13.6269
157.2897 -8.4846 1.2827 13.6269
157.2003 -8.4226 4.3236 13.6269
157.1108 -8.3607 5.5953 13.6269
157.0214 -8.2987 5.9088 13.6269
156.9319 -8.2368 4.2363 13.6269
156.8425 -8.1749 3.3991 13.6269
156.7531 -8.1129 1.9254 13.6269
156.6636 -8.0510 0.4858 13.6269
156.5742 -7.9890 0.4574 13.6269
156.4848 -7.9271 2.5148 13.6269
156.3953 -7.8651 3.5215 13.6269
156.3059 -7.8032 3.3599 13.6269
156.2165 -7.7413 3.5094 13.6269
156.1270 -7.6793 3.3842 13.6269
156.0376 -7.6174 2.1782 13.6269
155.9482 -7.5554 1.1165 13.6269
155.8587 -7.4935 0.3977 13.6269
155.7693 -7.4316 0.0744 13.6269
157.4298 -8.4750 0.0276 16.0461
157.3403 -8.4130 0.3057 16.0461
157.2509 -8.3511 2.6139 16.0461
157.1615 -8.2891 3.9312 16.0461
157.0720 -8.2272 4.1525 16.0461
156.9826 -8.1653 3.0502 16.0461
156.8931 -8.1033 2.2229 16.0461
156.8037 -8.0414 1.1134 16.0461
156.7143 -7.9794 0.1436 16.0461
156.6248 -7.9175 0.0039 16.0461
156.5354 -7.8556 0.8023 16.0461
156.4460 -7.7936 2.1601 16.0461
156.3565 -7.7317 2.5133 16.0461
156.2671 -7.6697 2.6342 16.0461
156.1777 -7.6078 2.2933 16.0461
156.0882 -7.5459 1.5390 16.0461
155.9988 -7.4839 0.9770 16.0461
155.9094 -7.4220 0.0249 16.0461
155.8199 -7.3600 0.0368 16.0461
157.4804 -8.4034 0.0542 18.4653
157.3910 -8.3415 0.5211 18.4653
157.3015 -8.2796 1.7847 18.4653
157.2121 -8.2176 2.9094 18.4653
157.1227 -8.1557 2.8269 18.4653
157.0332 -8.0937 2.7118 18.4653
156.9438 -8.0318 1.7611 18.4653
156.8543 -7.9699 1.0585 18.4653
156.7649 -7.9079 0.4788 18.4653
156.6755 -7.8460 0.5662 18.4653
156.5860 -7.7840 0.8738 18.4653
156.4966 -7.7221 1.7540 18.4653
156.4072 -7.6601 2.5512 18.4653
156.3177 -7.5982 2.4494 18.4653
156.2283 -7.5363 1.5834 18.4653
156.1389 -7.4743 0.8308 18.4653
156.0494 -7.4124 1.0395 18.4653
155.9600 -7.3504 0.6991 18.4653
155.8706 -7.2885 0.0427 18.4653
156.9924 -7.9645 1.7662 20.8800
156.9030 -7.9026 2.4078 20.8800
156.8136 -7.8406 2.5048 20.8800
156.7241 -7.7787 3.5215 20.8800
156.6347 -7.7167 4.6864 20.8800
156.5453 -7.6548 5.1279 20.8800
156.4558 -7.5929 3.9506 20.8800
156.3664 -7.5309 1.1304 20.8800
156.2770 -7.4690 0.6737 20.8800
156.1875 -7.4070 0.0424 20.8800
156.0981 -7.3451 0.0588 20.8800
156.0087 -7.2831 0.1187 20.8800
155.9192 -7.2212 0.0161 20.8800
157.0376 -7.9007 1.0103 25.8800
156.9482 -7.8387 1.4986 25.8800
156.8588 -7.7768 1.2248 25.8800
156.7693 -7.7148 3.7441 25.8800
156.6799 -7.6529 5.0306 25.8800
156.5905 -7.5909 4.2842 25.8800
156.5010 -7.5290 2.5462 25.8800
156.4116 -7.4671 0.2310 25.8800
156.3221 -7.4051 0.0742 25.8800
156.2327 -7.3432 0.0162 25.8800
156.1433 -7.2812 0.1832 25.8800
156.0538 -7.2193 0.4038 25.8800
155.9644 -7.1574 0.0200 25.8800
157.0828 -7.8368 0.5801 30.8800
156.9934 -7.7749 0.8150 30.8800
156.9040 -7.7129 0.2927 30.8800
156.8145 -7.6510 1.5656 30.8800
156.7251 -7.5890 2.1334 30.8800
156.6356 -7.5271 1.7208 30.8800
156.5462 -7.4652 1.4074 30.8800
156.4568 -7.4032 0.6553 30.8800
156.3673 -7.3413 0.3634 30.8800
156.2779 -7.2793 0.0775 30.8800
156.1885 -7.2174 0.6008 30.8800
156.0990 -7.1555 1.2568 30.8800
156.0096 -7.0935 0.0051 30.8800
157.1280 -7.7730 0.5266 35.8800
157.0386 -7.7110 0.9425 35.8800
156.9491 -7.6491 0.0495 35.8800
156.8597 -7.5871 0.5398 35.8800
156.7703 -7.5252 0.7533 35.8800
156.6808 -7.4633 0.2986 35.8800
156.5914 -7.4013 0.4115 35.8800
156.5020 -7.3394 0.1720 35.8800
156.4125 -7.2774 0.2283 35.8800
156.3231 -7.2155 0.2159 35.8800
156.2337 -7.1536 0.2158 35.8800
156.1442 -7.0916 1.1055 35.8800
156.0548 -7.0297 0.0274 35.8800
157.1732 -7.7091 0.9786 40.8800
157.0838 -7.6472 1.0261 40.8800
156.9943 -7.5852 0.1998 40.8800
156.9049 -7.5233 0.0911 40.8800
156.8155 -7.4614 0.3673 40.8800
156.7260 -7.3994 0.2658 40.8800
156.6366 -7.3375 0.6544 40.8800
156.5472 -7.2755 0.0133 40.8800
156.4577 -7.2136 0.1494 40.8800
156.3683 -7.1517 0.2778 40.8800
156.2789 -7.0897 0.2810 40.8800
156.1894 -7.0278 1.1765 40.8800
156.1000 -6.9658 0.0698 40.8800
157.2184 -7.6453 1.6997 45.8800
157.1290 -7.5833 1.9034 45.8800
157.0395 -7.5214 0.6373 45.8800
156.9501 -7.4595 0.6736 45.8800
156.8607 -7.3975 0.7951 45.8800
156.7712 -7.3356 0.6349 45.8800
156.6818 -7.2736 0.8041 45.8800
156.5924 -7.2117 0.2171 45.8800
156.5029 -7.1498 0.1975 45.8800
156.4135 -7.0878 0.3580 45.8800
156.3241 -7.0259 0.7347 45.8800
156.2346 -6.9639 1.6861 45.8800
156.1452 -6.9020 0.0499 45.8800
