138.9960 37.3563 0.4914 1.1000
138.9840 37.3410 0.0675 1.1000
138.9720 37.3258 0.2736 1.1000
138.9600 37.3105 0.5774 1.1000
138.9481 37.2952 0.9483 1.1000
138.9361 37.2800 0.1771 1.1000
138.9241 37.2647 0.1632 1.1000
138.9121 37.2495 0.2298 1.1000
138.9001 37.2342 0.2158 1.1000
138.8881 37.2189 0.2930 1.1000
138.8761 37.2037 0.2442 1.1000
138.8641 37.1884 0.1772 1.1000
138.8521 37.1731 0.3103 1.1000
138.8401 37.1579 0.2898 1.1000
138.9829 37.3628 0.3535 2.5627
138.9709 37.3475 0.3836 2.5627
138.9589 37.3323 0.3943 2.5627
138.9470 37.3170 0.4330 2.5627
138.9350 37.3018 0.6648 2.5627
138.9230 37.2865 0.3644 2.5627
138.9110 37.2712 0.3054 2.5627
138.8990 37.2560 0.4273 2.5627
138.8870 37.2407 0.2097 2.5627
138.8750 37.2254 0.3586 2.5627
138.8630 37.2102 0.1929 2.5627
138.8510 37.1949 0.1088 2.5627
138.8390 37.1796 0.2902 2.5627
138.8270 37.1644 0.2699 2.5627
138.9698 37.3693 1.1507 4.0254
138.9578 37.3540 0.7149 4.0254
138.9459 37.3388 0.6550 4.0254
138.9339 37.3235 1.1894 4.0254
138.9219 37.3083 0.9803 4.0254
138.9099 37.2930 1.3572 4.0254
138.8979 37.2777 1.1976 4.0254
138.8859 37.2625 0.7442 4.0254
138.8739 37.2472 0.5034 4.0254
138.8619 37.2319 0.2864 4.0254
138.8499 37.2167 0.2971 4.0254
138.8379 37.2014 0.2466 4.0254
138.8259 37.1861 0.2461 4.0254
138.8140 37.1709 0.1946 4.0254
138.9568 37.3758 0.7681 5.4881
138.9448 37.3606 0.4110 5.4881
138.9328 37.3453 0.7062 5.4881
138.9208 37.3300 0.8940 5.4881
138.9088 37.3148 1.2105 5.4881
138.8968 37.2995 1.7623 5.4881
138.8848 37.2842 1.2880 5.4881
138.8728 37.2690 1.2787 5.4881
138.8608 37.2537 0.9307 5.4881
138.8488 37.2384 0.9259 5.4881
138.8368 37.2232 0.9510 5.4881
138.8249 37.2079 0.6463 5.4881
138.8129 37.1927 0.2248 5.4881
138.8009 37.1774 0.2961 5.4881
138.9437 37.3823 0.3658 6.9508
138.9317 37.3671 0.2523 6.9508
138.9197 37.3518 0.2250 6.9508
138.9077 37.3365 0.8437 6.9508
138.8957 37.3213 0.9204 6.9508
138.8837 37.3060 1.0615 6.9508
138.8717 37.2907 1.4865 6.9508
138.8597 37.2755 1.5288 6.9508
138.8477 37.2602 1.1983 6.9508
138.8357 37.2449 1.2446 6.9508
138.8238 37.2297 1.6063 6.9508
138.8118 37.2144 0.7891 6.9508
138.7998 37.1992 0.3641 6.9508
138.7878 37.1839 0.6712 6.9508
138.9306 37.3888 0.3594 8.4135
138.9186 37.3736 0.3201 8.4135
138.9066 37.3583 0.1092 8.4135
138.8946 37.3430 1.0238 8.4135
138.8826 37.3278 0.6939 8.4135
138.8706 37.3125 1.4317 8.4135
138.8586 37.2972 1.0943 8.4135
138.8466 37.2820 1.1191 8.4135
138.8346 37.2667 1.0569 8.4135
138.8227 37.2515 1.1928 8.4135
138.8107 37.2362 1.3404 8.4135
138.7987 37.2209 0.8005 8.4135
138.7867 37.2057 0.2614 8.4135
138.7747 37.1904 0.3519 8.4135
138.9175 37.3953 0.2455 9.8762
138.9055 37.3801 0.5874 9.8762
138.8935 37.3648 0.2691 9.8762
138.8815 37.3495 0.8596 9.8762
138.8695 37.3343 0.5531 9.8762
138.8575 37.3190 1.9428 9.8762
138.8455 37.3037 3.0766 9.8762
138.8336 37.2885 1.0467 9.8762
138.8216 37.2732 0.7709 9.8762
138.8096 37.2580 0.7913 9.8762
138.7976 37.2427 0.9060 9.8762
138.7856 37.2274 0.6393 9.8762
138.7736 37.2122 0.3064 9.8762
138.7616 37.1969 0.4875 9.8762
138.9044 37.4018 0.4825 11.3390
138.8924 37.3866 0.8023 11.3390
138.8804 37.3713 0.7807 11.3390
138.8684 37.3560 0.3569 11.3390
138.8564 37.3408 0.6304 11.3390
138.8444 37.3255 1.1265 11.3390
138.8325 37.3103 1.2223 11.3390
138.8205 37.2950 0.6366 11.3390
138.8085 37.2797 0.4278 11.3390
138.7965 37.2645 0.3237 11.3390
138.7845 37.2492 0.4363 11.3390
138.7725 37.2339 0.5305 11.3390
138.7605 37.2187 0.5339 11.3390
138.7485 37.2034 0.5884 11.3390
138.8913 37.4083 1.6177 12.8017
138.8793 37.3931 0.8574 12.8017
138.8673 37.3778 0.6961 12.8017
138.8553 37.3625 0.6178 12.8017
138.8434 37.3473 0.2875 12.8017
138.8314 37.3320 0.2757 12.8017
138.8194 37.3168 0.1286 12.8017
138.8074 37.3015 0.1814 12.8017
138.7954 37.2862 0.1954 12.8017
138.7834 37.2710 0.3694 12.8017
138.7714 37.2557 0.8720 12.8017
138.7594 37.2404 0.8422 12.8017
138.7474 37.2252 0.4450 12.8017
138.7354 37.2099 0.1937 12.8017
