100.0287 -3.6579 0.0000 7.5364
99.9636 -3.5717 0.0000 7.5364
99.8985 -3.4854 0.0000 7.5364
99.8335 -3.3992 0.0000 7.5364
99.7684 -3.3129 0.2400 7.5364
99.7033 -3.2267 0.3200 7.5364
99.6383 -3.1405 0.2400 7.5364
99.5732 -3.0542 0.0000 7.5364
99.5081 -2.9680 0.0000 7.5364
99.4431 -2.8817 0.0000 7.5364
99.3780 -2.7955 0.0000 7.5364
99.3129 -2.7092 0.0000 7.5364
99.2479 -2.6230 0.0000 7.5364
99.1828 -2.5367 0.2600 7.5364
99.1177 -2.4505 0.5600 7.5364
99.0527 -2.3642 0.6800 7.5364
98.9876 -2.2780 0.6200 7.5364
98.9225 -2.1917 0.5800 7.5364
98.8575 -2.1055 0.6800 7.5364
98.7924 -2.0193 0.3200 7.5364
100.0982 -3.6056 0.0000 10.1246
100.0331 -3.5194 0.0000 10.1246
99.9680 -3.4331 0.0000 10.1246
99.9030 -3.3469 0.0000 10.1246
99.8379 -3.2606 0.0000 10.1246
99.7728 -3.1744 0.0000 10.1246
99.7078 -3.0881 0.2000 10.1246
99.6427 -3.0019 0.0000 10.1246
99.5776 -2.9156 0.0000 10.1246
99.5126 -2.8294 0.0000 10.1246
99.4475 -2.7432 0.0000 10.1246
99.3824 -2.6569 0.0000 10.1246
99.3174 -2.5707 0.0000 10.1246
99.2523 -2.4844 0.0000 10.1246
99.1872 -2.3982 0.0000 10.1246
99.1222 -2.3119 0.0000 10.1246
99.0571 -2.2257 0.0000 10.1246
98.9920 -2.1394 0.0000 10.1246
98.9270 -2.0532 0.0000 10.1246
98.8619 -1.9669 0.0000 10.1246
100.1677 -3.5533 0.0000 12.7128
100.1026 -3.4671 0.0000 12.7128
100.0375 -3.3808 0.0000 12.7128
99.9725 -3.2946 0.0000 12.7128
99.9074 -3.2083 0.0000 12.7128
99.8423 -3.1221 0.0000 12.7128
99.7773 -3.0358 0.4000 12.7128
99.7122 -2.9496 0.2000 12.7128
99.6471 -2.8633 0.0000 12.7128
99.5821 -2.7771 0.0000 12.7128
99.5170 -2.6908 0.0000 12.7128
99.4519 -2.6046 0.0000 12.7128
99.3869 -2.5183 0.0000 12.7128
99.3218 -2.4321 0.0000 12.7128
99.2567 -2.3459 0.0000 12.7128
99.1917 -2.2596 0.0000 12.7128
99.1266 -2.1734 0.0000 12.7128
99.0615 -2.0871 0.0000 12.7128
98.9965 -2.0009 0.0000 12.7128
98.9314 -1.9146 0.1600 12.7128
100.2372 -3.5010 0.0000 15.3010
100.1721 -3.4147 0.0000 15.3010
100.1070 -3.3285 0.0000 15.3010
100.0420 -3.2422 0.0000 15.3010
99.9769 -3.1560 0.0000 15.3010
99.9118 -3.0698 0.0000 15.3010
99.8468 -2.9835 0.0000 15.3010
99.7817 -2.8973 0.0000 15.3010
99.7166 -2.8110 0.0000 15.3010
99.6516 -2.7248 0.0000 15.3010
99.5865 -2.6385 0.0000 15.3010
99.5214 -2.5523 0.0000 15.3010
99.4564 -2.4660 0.0000 15.3010
99.3913 -2.3798 0.6000 15.3010
99.3263 -2.2935 0.0000 15.3010
99.2612 -2.2073 0.0000 15.3010
99.1961 -2.1211 0.0000 15.3010
99.1311 -2.0348 0.0000 15.3010
99.0660 -1.9486 0.0000 15.3010
99.0009 -1.8623 0.4000 15.3010
100.3067 -3.4487 0.0000 17.8892
100.2416 -3.3624 0.2000 17.8892
100.1766 -3.2762 0.0000 17.8892
100.1115 -3.1899 0.0000 17.8892
100.0464 -3.1037 0.0000 17.8892
99.9814 -3.0174 0.0000 17.8892
99.9163 -2.9312 0.0000 17.8892
99.8512 -2.8450 0.0000 17.8892
99.7862 -2.7587 0.0000 17.8892
99.7211 -2.6725 0.0000 17.8892
99.6560 -2.5862 0.0000 17.8892
99.5910 -2.5000 0.0000 17.8892
99.5259 -2.4137 0.4000 17.8892
99.4608 -2.3275 1.0000 17.8892
99.3958 -2.2412 0.6000 17.8892
99.3307 -2.1550 0.8000 17.8892
99.2656 -2.0687 0.4000 17.8892
99.2006 -1.9825 0.0000 17.8892
99.1355 -1.8962 0.0000 17.8892
99.0704 -1.8100 0.2000 17.8892
100.3762 -3.3964 0.0000 20.4774
100.3111 -3.3101 0.6000 20.4774
100.2461 -3.2239 1.2000 20.4774
100.1810 -3.1376 1.0000 20.4774
100.1159 -3.0514 0.4000 20.4774
100.0509 -2.9651 0.0000 20.4774
99.9858 -2.8789 0.0000 20.4774
99.9207 -2.7926 0.0000 20.4774
99.8557 -2.7064 0.0000 20.4774
99.7906 -2.6201 0.0000 20.4774
99.7255 -2.5339 0.0000 20.4774
99.6605 -2.4477 0.0000 20.4774
99.5954 -2.3614 0.0000 20.4774
99.5303 -2.2752 1.0000 20.4774
99.4653 -2.1889 1.4000 20.4774
99.4002 -2.1027 1.2000 20.4774
99.3351 -2.0164 0.4000 20.4774
99.2701 -1.9302 0.0000 20.4774
99.2050 -1.8439 0.0000 20.4774
99.1399 -1.7577 0.0000 20.4774
100.4457 -3.3440 0.0800 23.0656
100.3806 -3.2578 0.4000 23.0656
100.3156 -3.1716 0.4000 23.0656
100.2505 -3.0853 0.0000 23.0656
100.1854 -2.9991 0.0000 23.0656
100.1204 -2.9128 0.0000 23.0656
100.0553 -2.8266 0.0000 23.0656
99.9902 -2.7403 0.0000 23.0656
99.9252 -2.6541 0.0000 23.0656
99.8601 -2.5678 0.0000 23.0656
99.7950 -2.4816 0.0000 23.0656
99.7300 -2.3953 0.0000 23.0656
99.6649 -2.3091 0.0000 23.0656
99.5998 -2.2228 0.0000 23.0656
99.5348 -2.1366 0.4000 23.0656
99.4697 -2.0504 0.4000 23.0656
99.4046 -1.9641 0.0000 23.0656
99.3396 -1.8779 0.0000 23.0656
99.2745 -1.7916 0.0000 23.0656
99.2094 -1.7054 0.0000 23.0656
100.5152 -3.2917 0.0000 25.6538
100.4501 -3.2055 0.0000 25.6538
100.3851 -3.1192 0.0000 25.6538
100.3200 -3.0330 0.0000 25.6538
100.2549 -2.9467 0.0000 25.6538
100.1899 -2.8605 0.0000 25.6538
100.1248 -2.7743 0.0000 25.6538
100.0597 -2.6880 0.0000 25.6538
99.9947 -2.6018 0.0000 25.6538
99.9296 -2.5155 0.0000 25.6538
99.8645 -2.4293 0.0000 25.6538
99.7995 -2.3430 0.0000 25.6538
99.7344 -2.2568 0.0000 25.6538
99.6693 -2.1705 0.0000 25.6538
99.6043 -2.0843 0.0000 25.6538
99.5392 -1.9980 0.0000 25.6538
99.4741 -1.9118 0.0000 25.6538
99.4091 -1.8256 0.0000 25.6538
99.3440 -1.7393 0.0000 25.6538
99.2789 -1.6531 0.2000 25.6538
100.5847 -3.2394 0.0000 28.2419
100.5196 -3.1532 0.0000 28.2419
100.4546 -3.0669 0.0000 28.2419
100.3895 -2.9807 0.0000 28.2419
100.3244 -2.8944 0.0000 28.2419
100.2594 -2.8082 0.0000 28.2419
100.1943 -2.7219 0.0000 28.2419
100.1292 -2.6357 0.0000 28.2419
100.0642 -2.5495 0.0000 28.2419
99.9991 -2.4632 0.0000 28.2419
99.9340 -2.3770 0.0000 28.2419
99.8690 -2.2907 0.0000 28.2419
99.8039 -2.2045 0.4000 28.2419
99.7388 -2.1182 0.6000 28.2419
99.6738 -2.0320 1.4000 28.2419
99.6087 -1.9457 1.6000 28.2419
99.5436 -1.8595 1.4000 28.2419
99.4786 -1.7732 0.8000 28.2419
99.4135 -1.6870 0.0000 28.2419
99.3484 -1.6007 0.2800 28.2419
100.6542 -3.1871 0.0000 30.8301
100.5891 -3.1009 0.0000 30.8301
100.5241 -3.0146 0.0000 30.8301
100.4590 -2.9284 0.4000 30.8301
100.3939 -2.8421 2.0000 30.8301
100.3289 -2.7559 1.0000 30.8301
100.2638 -2.6696 0.0000 30.8301
100.1987 -2.5834 0.0000 30.8301
100.1337 -2.4971 0.0000 30.8301
100.0686 -2.4109 0.0000 30.8301
100.0035 -2.3246 0.0000 30.8301
99.9385 -2.2384 0.0000 30.8301
99.8734 -2.1522 0.6000 30.8301
99.8083 -2.0659 1.2000 30.8301
99.7433 -1.9797 2.0000 30.8301
99.6782 -1.8934 2.4000 30.8301
99.6131 -1.8072 2.0000 30.8301
99.5481 -1.7209 1.0000 30.8301
99.4830 -1.6347 0.0000 30.8301
99.4179 -1.5484 0.2000 30.8301
100.7237 -3.1348 0.0000 33.4183
100.6586 -3.0485 0.0000 33.4183
100.5936 -2.9623 0.2000 33.4183
100.5285 -2.8761 2.2000 33.4183
100.4634 -2.7898 4.6000 33.4183
100.3984 -2.7036 3.0000 33.4183
100.3333 -2.6173 1.0000 33.4183
100.2682 -2.5311 0.0000 33.4183
100.2032 -2.4448 0.0000 33.4183
100.1381 -2.3586 0.0000 33.4183
100.0730 -2.2723 0.0000 33.4183
100.0080 -2.1861 0.0000 33.4183
99.9429 -2.0998 0.2000 33.4183
99.8778 -2.0136 0.6000 33.4183
99.8128 -1.9273 1.4000 33.4183
99.7477 -1.8411 2.0000 33.4183
99.6826 -1.7549 1.8000 33.4183
99.6176 -1.6686 0.8000 33.4183
99.5525 -1.5824 0.0000 33.4183
99.4874 -1.4961 0.0000 33.4183
100.7932 -3.0825 0.0000 36.0065
100.7281 -2.9962 0.0000 36.0065
100.6631 -2.9100 0.8000 36.0065
100.5980 -2.8237 3.0000 36.0065
100.5329 -2.7375 6.0000 36.0065
100.4679 -2.6512 5.0000 36.0065
100.4028 -2.5650 2.2000 36.0065
100.3377 -2.4788 0.4000 36.0065
100.2727 -2.3925 0.0000 36.0065
100.2076 -2.3063 0.0000 36.0065
100.1425 -2.2200 0.2000 36.0065
100.0775 -2.1338 0.4000 36.0065
100.0124 -2.0475 0.0000 36.0065
99.9473 -1.9613 0.0000 36.0065
99.8823 -1.8750 0.6000 36.0065
99.8172 -1.7888 1.4000 36.0065
99.7521 -1.7025 1.4000 36.0065
99.6871 -1.6163 0.8000 36.0065
99.6220 -1.5301 0.0000 36.0065
99.5569 -1.4438 0.0000 36.0065
100.8627 -3.0302 0.0000 38.5947
100.7976 -2.9439 0.0000 38.5947
100.7326 -2.8577 1.0000 38.5947
100.6675 -2.7714 3.0000 38.5947
100.6024 -2.6852 5.2000 38.5947
100.5374 -2.5989 4.8000 38.5947
100.4723 -2.5127 2.6000 38.5947
100.4072 -2.4264 0.8000 38.5947
100.3422 -2.3402 0.2000 38.5947
100.2771 -2.2540 0.0000 38.5947
100.2120 -2.1677 0.4000 38.5947
100.1470 -2.0815 0.6000 38.5947
100.0819 -1.9952 0.0000 38.5947
100.0168 -1.9090 0.0000 38.5947
99.9518 -1.8227 0.4000 38.5947
99.8867 -1.7365 1.2000 38.5947
99.8216 -1.6502 1.4000 38.5947
99.7566 -1.5640 0.8000 38.5947
99.6915 -1.4777 0.2000 38.5947
99.6264 -1.3915 0.0000 38.5947
100.9322 -2.9778 0.0000 41.1829
100.8671 -2.8916 0.0000 41.1829
100.8021 -2.8054 0.4000 41.1829
100.7370 -2.7191 1.4000 41.1829
100.6719 -2.6329 2.4000 41.1829
100.6069 -2.5466 2.6000 41.1829
100.5418 -2.4604 1.8000 41.1829
100.4767 -2.3741 0.8000 41.1829
100.4117 -2.2879 0.2000 41.1829
100.3466 -2.2016 0.0000 41.1829
100.2815 -2.1154 0.4000 41.1829
100.2165 -2.0291 0.6000 41.1829
100.1514 -1.9429 0.0000 41.1829
100.0863 -1.8567 0.0000 41.1829
100.0213 -1.7704 0.4000 41.1829
99.9562 -1.6842 1.4000 41.1829
99.8912 -1.5979 1.6000 41.1829
99.8261 -1.5117 1.2000 41.1829
99.7610 -1.4254 0.4000 41.1829
99.6960 -1.3392 0.0000 41.1829
101.0017 -2.9255 0.0000 43.7711
100.9367 -2.8393 0.0000 43.7711
100.8716 -2.7530 0.0000 43.7711
100.8065 -2.6668 0.4000 43.7711
100.7415 -2.5806 0.8000 43.7711
100.6764 -2.4943 1.2000 43.7711
100.6113 -2.4081 1.0000 43.7711
100.5463 -2.3218 0.6000 43.7711
100.4812 -2.2356 0.0000 43.7711
100.4161 -2.1493 0.0000 43.7711
100.3511 -2.0631 0.4000 43.7711
100.2860 -1.9768 0.4000 43.7711
100.2209 -1.8906 0.0000 43.7711
100.1559 -1.8043 0.0000 43.7711
100.0908 -1.7181 0.4000 43.7711
100.0257 -1.6318 1.6000 43.7711
99.9607 -1.5456 2.0000 43.7711
99.8956 -1.4594 1.4000 43.7711
99.8305 -1.3731 0.6000 43.7711
99.7655 -1.2869 0.0400 43.7711
101.0712 -2.8732 0.0000 46.3593
101.0062 -2.7870 0.0000 46.3593
100.9411 -2.7007 0.0000 46.3593
100.8760 -2.6145 0.0000 46.3593
100.8110 -2.5282 0.4000 46.3593
100.7459 -2.4420 0.6000 46.3593
100.6808 -2.3557 0.4000 46.3593
100.6158 -2.2695 0.2000 46.3593
100.5507 -2.1833 0.0000 46.3593
100.4856 -2.0970 0.0000 46.3593
100.4206 -2.0108 0.0000 46.3593
100.3555 -1.9245 0.0000 46.3593
100.2904 -1.8383 0.0000 46.3593
100.2254 -1.7520 0.0000 46.3593
100.1603 -1.6658 0.2000 46.3593
100.0952 -1.5795 1.2000 46.3593
100.0302 -1.4933 1.8000 46.3593
99.9651 -1.4070 1.6000 46.3593
99.9000 -1.3208 0.8000 46.3593
99.8350 -1.2346 0.2800 46.3593
101.1407 -2.8209 0.0000 48.9475
101.0757 -2.7347 0.0000 48.9475
101.0106 -2.6484 0.0000 48.9475
100.9455 -2.5622 0.0000 48.9475
100.8805 -2.4759 0.0000 48.9475
100.8154 -2.3897 0.0000 48.9475
100.7503 -2.3034 0.0000 48.9475
100.6853 -2.2172 0.0000 48.9475
100.6202 -2.1309 0.0000 48.9475
100.5551 -2.0447 0.0000 48.9475
100.4901 -1.9585 0.0000 48.9475
100.4250 -1.8722 0.0000 48.9475
100.3599 -1.7860 0.0000 48.9475
100.2949 -1.6997 0.0000 48.9475
100.2298 -1.6135 0.0000 48.9475
100.1647 -1.5272 0.6000 48.9475
100.0997 -1.4410 1.0000 48.9475
100.0346 -1.3547 0.8000 48.9475
99.9695 -1.2685 0.4000 48.9475
99.9045 -1.1822 0.2800 48.9475
101.2102 -2.7686 0.0000 51.5357
101.1452 -2.6823 0.0000 51.5357
101.0801 -2.5961 0.0000 51.5357
101.0150 -2.5099 0.0000 51.5357
100.9500 -2.4236 0.0000 51.5357
100.8849 -2.3374 0.0000 51.5357
100.8198 -2.2511 0.0000 51.5357
100.7548 -2.1649 0.0000 51.5357
100.6897 -2.0786 0.0000 51.5357
100.6246 -1.9924 0.0000 51.5357
100.5596 -1.9061 0.0000 51.5357
100.4945 -1.8199 0.0000 51.5357
100.4294 -1.7336 0.0000 51.5357
100.3644 -1.6474 0.0000 51.5357
100.2993 -1.5612 0.0000 51.5357
100.2342 -1.4749 0.2000 51.5357
100.1692 -1.3887 0.2000 51.5357
100.1041 -1.3024 0.0000 51.5357
100.0390 -1.2162 0.0000 51.5357
99.9740 -1.1299 0.0000 51.5357
101.2797 -2.7163 0.0000 54.1239
101.2147 -2.6300 0.0000 54.1239
101.1496 -2.5438 0.0000 54.1239
101.0845 -2.4575 0.0000 54.1239
101.0195 -2.3713 0.0000 54.1239
100.9544 -2.2851 0.0000 54.1239
100.8893 -2.1988 0.0000 54.1239
100.8243 -2.1126 0.0000 54.1239
100.7592 -2.0263 0.0000 54.1239
100.6941 -1.9401 0.0000 54.1239
100.6291 -1.8538 0.2400 54.1239
100.5640 -1.7676 0.4000 54.1239
100.4989 -1.6813 0.4000 54.1239
100.4339 -1.5951 0.3600 54.1239
100.3688 -1.5088 0.3200 54.1239
100.3037 -1.4226 0.2000 54.1239
100.2387 -1.3363 0.0000 54.1239
100.1736 -1.2501 0.0000 54.1239
100.1085 -1.1639 0.0000 54.1239
100.0435 -1.0776 0.0000 54.1239
