132.7899 34.1562 0.2800 40.0000
132.7899 34.1292 0.2300 40.0000
132.7899 34.1022 0.2600 40.0000
132.7899 34.0752 0.1300 40.0000
132.7899 34.0482 0.2300 40.0000
132.7899 34.0212 0.7600 40.0000
132.7899 33.9942 0.7100 40.0000
132.7899 33.9672 0.7600 40.0000
132.7899 33.9402 0.6300 40.0000
132.7899 33.9132 1.1900 40.0000
132.7729 34.1562 0.5200 42.5579
132.7729 34.1292 0.0400 42.5579
132.7729 34.1022 0.2400 42.5579
132.7729 34.0752 1.2400 42.5579
132.7729 34.0482 0.8600 42.5579
132.7729 34.0212 1.1100 42.5579
132.7729 33.9942 0.4800 42.5579
132.7729 33.9672 0.2800 42.5579
132.7729 33.9402 0.5000 42.5579
132.7729 33.9132 0.4900 42.5579
132.7558 34.1562 0.1200 45.1158
132.7558 34.1292 0.0300 45.1158
132.7558 34.1022 0.5400 45.1158
132.7558 34.0752 0.6300 45.1158
132.7558 34.0482 0.4400 45.1158
132.7558 34.0212 0.6800 45.1158
132.7558 33.9942 1.2400 45.1158
132.7558 33.9672 0.1600 45.1158
132.7558 33.9402 0.1200 45.1158
132.7558 33.9132 0.3900 45.1158
132.7388 34.1562 0.5400 47.6738
132.7388 34.1292 0.5900 47.6738
132.7388 34.1022 0.3900 47.6738
132.7388 34.0752 0.7900 47.6738
132.7388 34.0482 0.6300 47.6738
132.7388 34.0212 0.3800 47.6738
132.7388 33.9942 0.8800 47.6738
132.7388 33.9672 2.2100 47.6738
132.7388 33.9402 0.2300 47.6738
132.7388 33.9132 0.1300 47.6738
132.7218 34.1562 0.5700 50.2317
132.7218 34.1292 1.1600 50.2317
132.7218 34.1022 0.3300 50.2317
132.7218 34.0752 0.2900 50.2317
132.7218 34.0482 0.6000 50.2317
132.7218 34.0212 0.5900 50.2317
132.7218 33.9942 1.4000 50.2317
132.7218 33.9672 2.9700 50.2317
132.7218 33.9402 0.0300 50.2317
132.7218 33.9132 0.7800 50.2317
132.7047 34.1562 0.9800 52.7896
132.7047 34.1292 1.9700 52.7896
132.7047 34.1022 0.6800 52.7896
132.7047 34.0752 0.5700 52.7896
132.7047 34.0482 1.5900 52.7896
132.7047 34.0212 1.0700 52.7896
132.7047 33.9942 0.9900 52.7896
132.7047 33.9672 1.5200 52.7896
132.7047 33.9402 0.0200 52.7896
132.7047 33.9132 0.7100 52.7896
132.6877 34.1562 1.0000 55.3475
132.6877 34.1292 2.0300 55.3475
132.6877 34.1022 1.4600 55.3475
132.6877 34.0752 2.0200 55.3475
132.6877 34.0482 1.2300 55.3475
132.6877 34.0212 2.8200 55.3475
132.6877 33.9942 1.9000 55.3475
132.6877 33.9672 2.0700 55.3475
132.6877 33.9402 1.6500 55.3475
132.6877 33.9132 1.1300 55.3475
