144.7621 42.1522 1.5900 23.3000
144.6696 42.0944 1.6500 23.3000
144.5772 42.0365 1.5700 23.3000
144.4847 41.9787 1.5200 23.3000
144.3923 41.9208 2.1600 23.3000
144.2998 41.8630 2.2500 23.3000
144.2074 41.8052 2.2400 23.3000
144.1149 41.7473 2.7500 23.3000
144.0225 41.6895 2.1200 23.3000
143.9301 41.6316 2.6500 23.3000
143.8376 41.5738 2.7400 23.3000
143.7452 41.5159 2.3400 23.3000
144.6892 42.2170 1.9700 26.7202
144.5967 42.1592 2.0500 26.7202
144.5043 42.1013 1.6300 26.7202
144.4118 42.0435 1.8600 26.7202
144.3194 41.9856 2.7200 26.7202
144.2269 41.9278 2.8900 26.7202
144.1345 41.8699 3.2900 26.7202
144.0421 41.8121 4.1300 26.7202
143.9496 41.7542 4.5900 26.7202
143.8572 41.6964 3.5000 26.7202
143.7647 41.6386 3.4600 26.7202
143.6723 41.5807 3.0200 26.7202
144.6163 42.2818 2.5100 30.1404
144.5238 42.2239 2.3100 30.1404
144.4314 42.1661 1.7800 30.1404
144.3389 42.1083 1.9000 30.1404
144.2465 42.0504 2.5800 30.1404
144.1541 41.9926 3.7100 30.1404
144.0616 41.9347 4.5200 30.1404
143.9692 41.8769 5.1200 30.1404
143.8767 41.8190 4.8500 30.1404
143.7843 41.7612 3.4800 30.1404
143.6918 41.7033 3.2800 30.1404
143.5994 41.6455 2.9100 30.1404
144.5434 42.3466 2.9100 33.5606
144.4509 42.2887 2.6100 33.5606
144.3585 42.2309 2.0700 33.5606
144.2661 42.1730 1.8000 33.5606
144.1736 42.1152 2.7200 33.5606
144.0812 42.0573 4.9400 33.5606
143.9887 41.9995 5.9600 33.5606
143.8963 41.9417 5.8900 33.5606
143.8038 41.8838 4.8900 33.5606
143.7114 41.8260 3.3000 33.5606
143.6189 41.7681 3.1700 33.5606
143.5265 41.7103 2.7500 33.5606
144.4705 42.4114 2.9900 36.9808
144.3781 42.3535 2.8700 36.9808
144.2856 42.2957 2.4400 36.9808
144.1932 42.2378 1.8100 36.9808
144.1007 42.1800 2.8300 36.9808
144.0083 42.1221 5.6200 36.9808
143.9158 42.0643 7.0600 36.9808
143.8234 42.0064 6.8200 36.9808
143.7309 41.9486 5.1600 36.9808
143.6385 41.8907 3.1400 36.9808
143.5460 41.8329 3.0800 36.9808
143.4536 41.7750 2.5100 36.9808
144.3976 42.4761 2.7200 40.4010
144.3052 42.4183 2.8500 40.4010
144.2127 42.3604 2.4700 40.4010
144.1203 42.3026 1.8400 40.4010
144.0278 42.2448 2.6100 40.4010
143.9354 42.1869 5.0100 40.4010
143.8429 42.1291 6.7600 40.4010
143.7505 42.0712 6.5700 40.4010
143.6580 42.0134 4.7700 40.4010
143.5656 41.9555 3.0000 40.4010
143.4731 41.8977 2.6400 40.4010
143.3807 41.8398 2.0900 40.4010
144.3247 42.5409 2.2400 43.8212
144.2323 42.4831 2.5800 43.8212
144.1398 42.4252 2.1500 43.8212
144.0474 42.3674 2.0200 43.8212
143.9549 42.3095 2.6000 43.8212
143.8625 42.2517 3.7800 43.8212
143.7700 42.1938 5.0100 43.8212
143.6776 42.1360 5.1600 43.8212
143.5851 42.0781 3.9900 43.8212
143.4927 42.0203 2.3600 43.8212
143.4002 41.9625 2.1700 43.8212
143.3078 41.9046 1.6700 43.8212
144.2518 42.6057 1.7800 47.2414
144.1594 42.5479 2.4300 47.2414
144.0669 42.4900 2.3200 47.2414
143.9745 42.4322 2.5900 47.2414
143.8820 42.3743 3.3400 47.2414
143.7896 42.3165 3.7000 47.2414
143.6971 42.2586 3.9200 47.2414
143.6047 42.2008 4.2300 47.2414
143.5122 42.1429 3.2900 47.2414
143.4198 42.0851 2.4000 47.2414
143.3274 42.0272 2.5200 47.2414
143.2349 41.9694 2.1100 47.2414
144.1789 42.6705 1.9300 50.6616
144.0865 42.6126 3.1300 50.6616
143.9940 42.5548 3.0500 50.6616
143.9016 42.4969 3.1400 50.6616
143.8091 42.4391 3.3200 50.6616
143.7167 42.3812 3.4000 50.6616
143.6242 42.3234 3.4900 50.6616
143.5318 42.2656 3.7200 50.6616
143.4394 42.2077 3.3900 50.6616
143.3469 42.1499 3.2700 50.6616
143.2545 42.0920 3.4400 50.6616
143.1620 42.0342 2.7600 50.6616
144.1060 42.7353 2.1600 54.0818
144.0136 42.6774 2.9200 54.0818
143.9211 42.6196 2.7000 54.0818
143.8287 42.5617 2.5100 54.0818
143.7362 42.5039 2.3400 54.0818
143.6438 42.4460 1.9600 54.0818
143.5514 42.3882 2.8300 54.0818
143.4589 42.3303 3.5000 54.0818
143.3665 42.2725 3.5900 54.0818
143.2740 42.2146 3.0700 54.0818
143.1816 42.1568 2.8900 54.0818
143.0891 42.0990 1.8800 54.0818
