90.1902 36.0442 0.0000 0.0000
90.1902 36.0442 0.4406 5.0000
90.1902 36.0442 0.8655 10.0000
90.1902 36.0442 1.0505 15.0000
90.2465 36.0129 0.6981 0.0000
90.2465 36.0129 1.2568 5.0000
90.2465 36.0129 1.7643 10.0000
90.2465 36.0129 1.8584 15.0000
90.3044 35.9854 1.7811 0.0000
90.3044 35.9854 2.0040 5.0000
90.3044 35.9854 2.3761 10.0000
90.3044 35.9854 2.3625 15.0000
90.3582 35.9608 2.1652 0.0000
90.3582 35.9608 2.4652 5.0000
90.3582 35.9608 2.6802 10.0000
90.3582 35.9608 2.4149 15.0000
90.4135 35.9387 4.4238 0.0000
90.4135 35.9387 4.0509 5.0000
90.4135 35.9387 3.0730 10.0000
90.4135 35.9387 2.2343 15.0000
90.4773 35.9221 5.1466 0.0000
90.4773 35.9221 4.8746 5.0000
90.4773 35.9221 3.5661 10.0000
90.4773 35.9221 2.5147 15.0000
90.5381 35.9146 4.0078 0.0000
90.5381 35.9146 3.8920 5.0000
90.5381 35.9146 3.3018 10.0000
90.5381 35.9146 2.8535 15.0000
90.6019 35.9138 2.4940 0.0000
90.6019 35.9138 2.9679 5.0000
90.6019 35.9138 3.0861 10.0000
90.6019 35.9138 3.0813 15.0000
90.6656 35.9158 1.2343 0.0000
90.6656 35.9158 2.1066 5.0000
90.6656 35.9158 2.8436 10.0000
90.6656 35.9158 3.2217 15.0000
90.7281 35.9225 0.9307 0.0000
90.7281 35.9225 1.9406 5.0000
90.7281 35.9225 2.8175 10.0000
90.7281 35.9225 3.2848 15.0000
90.7940 35.9304 1.5775 0.0000
90.7940 35.9304 2.3350 5.0000
90.7940 35.9304 2.9131 10.0000
90.7940 35.9304 3.2118 15.0000
90.8540 35.9384 1.6284 0.0000
90.8540 35.9384 2.1317 5.0000
90.8540 35.9384 2.6112 10.0000
90.8540 35.9384 2.8935 15.0000
90.9119 35.9454 1.2134 0.0000
90.9119 35.9454 1.6046 5.0000
90.9119 35.9454 2.1412 10.0000
90.9119 35.9454 2.4996 15.0000
90.9686 35.9566 0.6316 0.0000
90.9686 35.9566 0.9783 5.0000
90.9686 35.9566 1.7705 10.0000
90.9686 35.9566 2.3822 15.0000
91.0269 35.9741 0.6910 0.0000
91.0269 35.9741 1.0463 5.0000
91.0269 35.9741 1.9395 10.0000
91.0269 35.9741 2.6567 15.0000
91.0857 35.9954 0.8127 0.0000
91.0857 35.9954 1.2709 5.0000
91.0857 35.9954 2.2306 10.0000
91.0857 35.9954 3.0208 15.0000
91.1253 36.0179 0.8451 0.0000
91.1253 36.0179 1.2913 5.0000
91.1253 36.0179 2.2458 10.0000
91.1253 36.0179 2.9744 15.0000
90.6923 36.1713 0.6024 0.0000
90.6923 36.1713 0.1223 5.0000
90.6923 36.1713 0.0000 10.0000
90.6923 36.1713 0.0000 15.0000
90.7548 36.1504 0.5173 0.0000
90.7548 36.1504 0.1584 5.0000
90.7548 36.1504 0.0000 10.0000
90.7548 36.1504 0.0000 15.0000
90.8194 36.1321 0.5210 0.0000
90.8194 36.1321 0.3922 5.0000
90.8194 36.1321 0.1510 10.0000
90.8194 36.1321 0.0228 15.0000
90.8823 36.1134 0.4773 0.0000
90.8823 36.1134 0.6782 5.0000
90.8823 36.1134 0.2803 10.0000
90.8823 36.1134 0.0257 15.0000
90.9439 36.0913 0.2918 0.0000
90.9439 36.0913 0.2600 5.0000
90.9439 36.0913 0.0811 10.0000
90.9439 36.0913 0.0000 15.0000
91.0060 36.0704 0.1103 0.0000
91.0060 36.0704 0.0217 5.0000
91.0060 36.0704 0.0000 10.0000
91.0060 36.0704 0.0000 15.0000
91.0669 36.0525 0.1732 0.0000
91.0669 36.0525 0.0149 5.0000
91.0669 36.0525 0.0000 10.0000
91.0669 36.0525 0.0000 15.0000
91.1269 36.0387 0.2980 0.0000
91.1269 36.0387 0.1305 5.0000
91.1269 36.0387 0.0439 10.0000
91.1269 36.0387 0.0593 15.0000
91.1898 36.0316 0.5615 0.0000
91.1898 36.0316 0.5597 5.0000
91.1898 36.0316 0.6603 10.0000
91.1898 36.0316 0.6619 15.0000
91.2548 36.0250 0.9323 0.0000
91.2548 36.0250 1.1931 5.0000
91.2548 36.0250 1.3345 10.0000
91.2548 36.0250 1.2461 15.0000
91.3206 36.0158 1.3256 0.0000
91.3206 36.0158 1.6969 5.0000
91.3206 36.0158 1.7122 10.0000
91.3206 36.0158 1.4618 15.0000
91.3898 36.0050 1.7131 0.0000
91.3898 36.0050 1.7106 5.0000
91.3898 36.0050 1.2270 10.0000
91.3898 36.0050 0.6165 15.0000
91.4531 35.9942 2.3425 0.0000
91.4531 35.9942 1.8359 5.0000
91.4531 35.9942 0.9772 10.0000
91.4531 35.9942 0.2196 15.0000
91.5115 35.9859 2.9100 0.0000
91.5115 35.9859 2.0107 5.0000
91.5115 35.9859 0.7956 10.0000
91.5115 35.9859 0.0308 15.0000
91.5640 35.9792 3.2651 0.0000
91.5640 35.9792 2.1905 5.0000
91.5640 35.9792 0.8552 10.0000
91.5640 35.9792 0.0211 15.0000
91.6181 35.9717 3.6412 0.0000
91.6181 35.9717 2.2830 5.0000
91.6181 35.9717 0.7283 10.0000
91.6181 35.9717 0.0000 15.0000
91.6782 35.9625 3.8744 0.0000
91.6782 35.9625 2.5743 5.0000
91.6782 35.9625 1.0048 10.0000
91.6782 35.9625 0.0000 15.0000
91.7381 35.9516 3.8366 0.0000
91.7381 35.9516 2.6560 5.0000
91.7381 35.9516 1.0006 10.0000
91.7381 35.9516 0.0000 15.0000
91.8014 35.9400 4.0936 0.0000
91.8014 35.9400 3.2152 5.0000
91.8014 35.9400 1.8525 10.0000
91.8014 35.9400 0.5662 15.0000
91.8590 35.9309 4.8299 0.0000
91.8590 35.9309 4.0411 5.0000
91.8590 35.9309 2.9151 10.0000
91.8590 35.9309 1.8961 15.0000
91.9198 35.9242 6.2814 0.0000
91.9198 35.9242 5.7065 5.0000
91.9198 35.9242 4.6869 10.0000
91.9198 35.9242 3.6995 15.0000
91.9889 35.9184 6.5569 0.0000
91.9889 35.9184 6.0149 5.0000
91.9889 35.9184 4.6209 10.0000
91.9889 35.9184 3.4505 15.0000
92.0498 35.9116 5.2420 0.0000
92.0498 35.9116 5.0772 5.0000
92.0498 35.9116 3.8972 10.0000
92.0498 35.9116 2.8280 15.0000
92.1122 35.9025 3.3268 0.0000
92.1122 35.9025 3.8609 5.0000
92.1122 35.9025 3.1075 10.0000
92.1122 35.9025 2.1110 15.0000
92.1823 35.8933 1.0963 0.0000
92.1823 35.8933 0.3936 5.0000
92.1823 35.8933 0.0000 10.0000
92.1823 35.8933 0.0000 15.0000
92.2423 35.8825 0.1083 0.0000
92.2423 35.8825 0.9033 5.0000
92.2423 35.8825 0.6400 10.0000
92.2423 35.8825 0.0128 15.0000
92.2915 35.8725 1.7780 0.0000
92.2915 35.8725 1.6432 5.0000
92.2915 35.8725 0.7664 10.0000
92.2915 35.8725 0.0000 15.0000
92.3498 35.8659 2.8337 0.0000
92.3498 35.8659 2.6714 5.0000
92.3498 35.8659 1.4581 10.0000
92.3498 35.8659 0.4250 15.0000
92.4156 35.8575 4.1180 0.0000
92.4156 35.8575 2.9433 5.0000
92.4156 35.8575 1.6591 10.0000
92.4156 35.8575 0.9873 15.0000
92.4781 35.8508 5.9785 0.0000
92.4781 35.8508 4.1273 5.0000
92.4781 35.8508 2.8652 10.0000
92.4781 35.8508 2.4847 15.0000
92.5456 35.8450 7.7288 0.0000
92.5456 35.8450 4.8031 5.0000
92.5456 35.8450 2.8933 10.0000
92.5456 35.8450 2.3864 15.0000
92.6156 35.8383 7.9946 0.0000
92.6156 35.8383 4.1130 5.0000
92.6156 35.8383 1.8180 10.0000
92.6156 35.8383 1.3343 15.0000
92.6839 35.8317 8.0549 0.0000
92.6839 35.8317 5.5816 5.0000
92.6839 35.8317 2.6131 10.0000
92.6839 35.8317 1.6080 15.0000
92.7448 35.8258 6.8980 0.0000
92.7448 35.8258 5.3177 5.0000
92.7448 35.8258 2.9134 10.0000
92.7448 35.8258 1.8868 15.0000
92.8015 35.8225 6.7968 0.0000
92.8015 35.8225 2.8953 5.0000
92.8015 35.8225 1.1340 10.0000
92.8015 35.8225 0.7893 15.0000
92.8640 35.8200 6.0957 0.0000
92.8640 35.8200 3.0123 5.0000
92.8640 35.8200 1.9529 10.0000
92.8640 35.8200 1.7504 15.0000
92.9290 35.8158 5.3918 0.0000
92.9290 35.8158 1.7239 5.0000
92.9290 35.8158 1.4789 10.0000
92.9290 35.8158 1.6753 15.0000
92.9948 35.8083 5.7676 0.0000
92.9948 35.8083 2.4491 5.0000
92.9948 35.8083 1.6232 10.0000
92.9948 35.8083 1.5365 15.0000
93.0548 35.8000 5.2995 0.0000
93.0548 35.8000 3.3240 5.0000
93.0548 35.8000 2.2120 10.0000
93.0548 35.8000 1.8103 15.0000
93.1181 35.7917 5.0228 0.0000
93.1181 35.7917 4.4366 5.0000
93.1181 35.7917 3.3065 10.0000
93.1181 35.7917 2.4111 15.0000
93.1790 35.7842 5.5428 0.0000
93.1790 35.7842 4.5708 5.0000
93.1790 35.7842 3.3615 10.0000
93.1790 35.7842 2.3707 15.0000
93.2339 35.7775 5.8763 0.0000
93.2339 35.7775 4.3834 5.0000
93.2339 35.7775 2.8644 10.0000
93.2339 35.7775 1.6006 15.0000
93.2915 35.7700 6.5970 0.0000
93.2915 35.7700 5.2837 5.0000
93.2915 35.7700 2.8943 10.0000
93.2915 35.7700 1.2370 15.0000
93.3465 35.7650 7.6447 0.0000
93.3465 35.7650 6.4141 5.0000
93.3465 35.7650 3.3163 10.0000
93.3465 35.7650 1.3715 15.0000
93.4056 35.7608 7.8002 0.0000
93.4056 35.7608 5.3633 5.0000
93.4056 35.7608 2.5609 10.0000
93.4056 35.7608 0.9143 15.0000
93.4632 35.7541 7.4481 0.0000
93.4632 35.7541 4.9509 5.0000
93.4632 35.7541 2.5615 10.0000
93.4632 35.7541 1.2976 15.0000
93.5157 35.7467 7.5352 0.0000
93.5157 35.7467 5.0264 5.0000
93.5157 35.7467 2.9291 10.0000
93.5157 35.7467 2.0552 15.0000
93.5673 35.7400 6.6388 0.0000
93.5673 35.7400 4.4232 5.0000
93.5673 35.7400 3.3223 10.0000
93.5673 35.7400 2.9754 15.0000
93.6206 35.7325 5.8172 0.0000
93.6206 35.7325 4.1100 5.0000
93.6206 35.7325 3.8623 10.0000
93.6206 35.7325 3.9163 15.0000
93.6765 35.7233 3.9953 0.0000
93.6765 35.7233 3.3320 5.0000
93.6765 35.7233 3.8278 10.0000
93.6765 35.7233 4.2711 15.0000
93.7348 35.7117 1.4512 0.0000
93.7348 35.7117 0.8226 5.0000
93.7348 35.7117 2.6002 10.0000
93.7348 35.7117 3.7006 15.0000
93.7915 35.7009 2.8462 0.0000
93.7915 35.7009 1.6402 5.0000
93.7915 35.7009 2.4243 10.0000
93.7915 35.7009 3.3514 15.0000
93.8547 35.6942 1.5877 0.0000
93.8547 35.6942 1.3505 5.0000
93.8547 35.6942 2.5417 10.0000
93.8547 35.6942 3.5125 15.0000
93.9198 35.6900 2.5202 0.0000
93.9198 35.6900 1.7497 5.0000
93.9198 35.6900 2.6507 10.0000
93.9198 35.6900 3.4255 15.0000
93.9781 35.6841 3.6468 0.0000
93.9781 35.6841 2.5405 5.0000
93.9781 35.6841 2.8027 10.0000
93.9781 35.6841 3.3657 15.0000
94.0431 35.6741 3.6631 0.0000
94.0431 35.6741 2.5700 5.0000
94.0431 35.6741 3.0397 10.0000
94.0431 35.6741 3.6136 15.0000
94.1098 35.6616 3.0504 0.0000
94.1098 35.6616 2.4399 5.0000
94.1098 35.6616 3.3053 10.0000
94.1098 35.6616 3.8646 15.0000
94.1773 35.6484 3.4353 0.0000
94.1773 35.6484 3.1301 5.0000
94.1773 35.6484 3.5341 10.0000
94.1773 35.6484 3.8280 15.0000
94.2464 35.6333 2.9065 0.0000
94.2464 35.6333 2.7707 5.0000
94.2464 35.6333 3.0575 10.0000
94.2464 35.6333 3.2521 15.0000
94.2982 35.6216 2.0786 0.0000
94.2982 35.6216 2.3514 5.0000
94.2982 35.6216 2.5915 10.0000
94.2982 35.6216 2.7554 15.0000
94.3515 35.6125 1.2418 0.0000
94.3515 35.6125 1.5951 5.0000
94.3515 35.6125 1.9854 10.0000
94.3515 35.6125 2.1753 15.0000
94.4206 35.6017 0.0000 0.0000
94.4206 35.6017 0.1061 5.0000
94.4206 35.6017 0.4616 10.0000
94.4206 35.6017 0.6112 15.0000
94.4856 35.5917 0.0000 0.0000
94.4856 35.5917 0.0462 5.0000
94.4856 35.5917 0.1039 10.0000
94.4856 35.5917 0.1265 15.0000
94.5465 35.5834 0.0000 0.0000
94.5465 35.5834 0.0000 5.0000
94.5465 35.5834 0.0000 10.0000
94.5465 35.5834 0.0000 15.0000
94.6123 35.5741 0.0000 0.0000
94.6123 35.5741 0.0000 5.0000
94.6123 35.5741 0.0000 10.0000
94.6123 35.5741 0.0000 15.0000
94.6682 35.5633 0.0000 0.0000
94.6682 35.5633 0.0000 5.0000
94.6682 35.5633 0.0000 10.0000
94.6682 35.5633 0.0000 15.0000
94.7074 35.5550 0.0000 0.0000
94.7074 35.5550 0.0000 5.0000
94.7074 35.5550 0.0000 10.0000
94.7074 35.5550 0.0000 15.0000
94.7449 35.5492 0.0000 0.0000
94.7449 35.5492 0.0000 5.0000
94.7449 35.5492 0.0000 10.0000
94.7449 35.5492 0.0000 15.0000
94.7989 35.5404 0.0000 0.0000
94.7989 35.5404 0.0000 5.0000
94.7989 35.5404 0.0000 10.0000
94.7989 35.5404 0.0000 15.0000
94.8656 35.5275 0.0000 0.0000
94.8656 35.5275 0.0000 5.0000
94.8656 35.5275 0.0000 10.0000
94.8656 35.5275 0.0000 15.0000
94.9294 35.5137 0.0000 0.0000
94.9294 35.5137 0.0000 5.0000
94.9294 35.5137 0.0000 10.0000
94.9294 35.5137 0.0000 15.0000
94.9910 35.4988 0.0000 0.0000
94.9910 35.4988 0.0000 5.0000
94.9910 35.4988 0.0000 10.0000
94.9910 35.4988 0.0000 15.0000
