141.2457 38.4613 1.6597 1.5000
141.2403 38.4513 1.7183 1.5000
141.2349 38.4414 1.1587 1.5000
141.2295 38.4315 0.6292 1.5000
141.2241 38.4215 0.2338 1.5000
141.2187 38.4116 0.0584 1.5000
141.2134 38.4016 0.0151 1.5000
141.2080 38.3917 0.1097 1.5000
141.2026 38.3818 0.2706 1.5000
141.1972 38.3718 0.0729 1.5000
141.2375 38.4640 1.7192 2.4193
141.2321 38.4541 1.9637 2.4193
141.2267 38.4441 1.5003 2.4193
141.2214 38.4342 1.0177 2.4193
141.2160 38.4242 0.6306 2.4193
141.2106 38.4143 0.3208 2.4193
141.2052 38.4044 0.1054 2.4193
141.1998 38.3944 0.0672 2.4193
141.1944 38.3845 0.1200 2.4193
141.1891 38.3745 0.0318 2.4193
141.2294 38.4667 1.2875 3.3385
141.2240 38.4568 1.6148 3.3385
141.2186 38.4468 1.4052 3.3385
141.2132 38.4369 1.1726 3.3385
141.2078 38.4269 0.9604 3.3385
141.2024 38.4170 0.6658 3.3385
141.1971 38.4071 0.3485 3.3385
141.1917 38.3971 0.1386 3.3385
141.1863 38.3872 0.0328 3.3385
141.1809 38.3772 0.0036 3.3385
141.2212 38.4694 1.0117 4.2578
141.2158 38.4595 1.2519 4.2578
141.2104 38.4495 1.0967 4.2578
141.2051 38.4396 1.0150 4.2578
141.1997 38.4297 0.9755 4.2578
141.1943 38.4197 0.8130 4.2578
141.1889 38.4098 0.5409 4.2578
141.1835 38.3998 0.2840 4.2578
141.1781 38.3899 0.1088 4.2578
141.1727 38.3800 0.0187 4.2578
141.2130 38.4721 0.9222 5.1770
141.2077 38.4622 0.9702 5.1770
141.2023 38.4523 0.6935 5.1770
141.1969 38.4423 0.6397 5.1770
141.1915 38.4324 0.6729 5.1770
141.1861 38.4224 0.6046 5.1770
141.1807 38.4125 0.4328 5.1770
141.1754 38.4025 0.2394 5.1770
141.1700 38.3926 0.0923 5.1770
141.1646 38.3827 0.0153 5.1770
141.2049 38.4748 0.9056 6.0963
141.1995 38.4649 0.7514 6.0963
141.1941 38.4550 0.3261 6.0963
141.1887 38.4450 0.2393 6.0963
141.1834 38.4351 0.2612 6.0963
141.1780 38.4251 0.2366 6.0963
141.1726 38.4152 0.1661 6.0963
141.1672 38.4053 0.0802 6.0963
141.1618 38.3953 0.0166 6.0963
141.1564 38.3854 0.0010 6.0963
141.1967 38.4776 0.5759 7.0155
141.1914 38.4676 0.4080 7.0155
141.1860 38.4577 0.1031 7.0155
141.1806 38.4477 0.0208 7.0155
141.1752 38.4378 0.0228 7.0155
141.1698 38.4279 0.0206 7.0155
141.1644 38.4179 0.0142 7.0155
141.1591 38.4080 0.0071 7.0155
141.1537 38.3980 0.0014 7.0155
141.1483 38.3881 0.0000 7.0155
141.1886 38.4803 0.1636 7.9348
141.1832 38.4703 0.1129 7.9348
141.1778 38.4604 0.0256 7.9348
141.1724 38.4504 0.0010 7.9348
141.1671 38.4405 0.0000 7.9348
141.1617 38.4306 0.0000 7.9348
141.1563 38.4206 0.0000 7.9348
141.1509 38.4107 0.0000 7.9348
141.1455 38.4007 0.0000 7.9348
141.1401 38.3908 0.0000 7.9348
