95.0240 2.1380 3.2125 5.9200
94.9371 2.2414 5.2114 5.9200
94.8501 2.3448 5.6762 5.9200
94.7632 2.4482 5.1029 5.9200
94.6763 2.5517 4.1761 5.9200
94.5894 2.6551 3.8364 5.9200
94.5025 2.7585 3.7357 5.9200
94.4156 2.8619 4.1799 5.9200
94.3287 2.9653 4.9352 5.9200
94.2418 3.0687 5.9385 5.9200
94.1548 3.1721 6.7385 5.9200
94.0679 3.2755 6.8794 5.9200
93.9810 3.3789 6.0043 5.9200
93.8941 3.4823 5.3233 5.9200
93.8072 3.5857 3.9939 5.9200
93.7203 3.6891 2.7599 5.9200
93.6334 3.7925 2.1434 5.9200
93.5464 3.8960 2.1982 5.9200
93.4595 3.9994 2.3309 5.9200
93.3726 4.1028 2.6817 5.9200
93.2857 4.2062 3.0759 5.9200
93.1988 4.3096 3.7010 5.9200
93.1119 4.4130 4.7699 5.9200
93.0250 4.5164 5.2729 5.9200
92.9381 4.6198 5.4565 5.9200
92.8511 4.7232 5.1808 5.9200
92.7642 4.8266 4.6294 5.9200
92.6773 4.9300 3.5367 5.9200
92.5904 5.0334 2.6829 5.9200
92.5035 5.1368 1.5879 5.9200
95.1053 2.2062 4.9728 8.2097
95.0184 2.3096 8.2170 8.2097
94.9315 2.4130 8.9935 8.2097
94.8446 2.5164 8.0565 8.2097
94.7577 2.6198 6.7722 8.2097
94.6707 2.7232 6.3602 8.2097
94.5838 2.8266 6.0734 8.2097
94.4969 2.9300 6.9192 8.2097
94.4100 3.0334 8.4797 8.2097
94.3231 3.1368 9.9822 8.2097
94.2362 3.2402 11.8593 8.2097
94.1493 3.3437 12.3260 8.2097
94.0624 3.4471 11.7133 8.2097
93.9754 3.5505 9.8473 8.2097
93.8885 3.6539 7.6332 8.2097
93.8016 3.7573 5.3425 8.2097
93.7147 3.8607 4.2640 8.2097
93.6278 3.9641 3.9161 8.2097
93.5409 4.0675 4.1928 8.2097
93.4540 4.1709 4.8245 8.2097
93.3670 4.2743 5.5936 8.2097
93.2801 4.3777 6.9537 8.2097
93.1932 4.4811 8.5364 8.2097
93.1063 4.5845 9.5615 8.2097
93.0194 4.6880 10.1615 8.2097
92.9325 4.7914 10.1544 8.2097
92.8456 4.8948 9.0066 8.2097
92.7587 4.9982 6.9421 8.2097
92.6717 5.1016 4.8512 8.2097
92.5848 5.2050 2.8361 8.2097
95.1867 2.2743 5.6380 10.4994
95.0997 2.3777 9.0944 10.4994
95.0128 2.4811 9.5007 10.4994
94.9259 2.5845 8.7139 10.4994
94.8390 2.6879 8.0906 10.4994
94.7521 2.7913 7.5919 10.4994
94.6652 2.8948 7.1090 10.4994
94.5783 2.9982 8.0253 10.4994
94.4914 3.1016 9.5741 10.4994
94.4044 3.2050 11.7487 10.4994
94.3175 3.3084 14.3108 10.4994
94.2306 3.4118 15.8017 10.4994
94.1437 3.5152 15.8234 10.4994
94.0568 3.6186 13.9322 10.4994
93.9699 3.7220 10.8808 10.4994
93.8830 3.8254 7.8846 10.4994
93.7960 3.9288 6.3185 10.4994
93.7091 4.0322 5.3239 10.4994
93.6222 4.1356 5.4911 10.4994
93.5353 4.2391 6.3025 10.4994
93.4484 4.3425 7.2465 10.4994
93.3615 4.4459 8.7243 10.4994
93.2746 4.5493 10.6321 10.4994
93.1876 4.6527 12.3483 10.4994
93.1007 4.7561 13.2740 10.4994
93.0138 4.8595 13.3497 10.4994
92.9269 4.9629 12.2052 10.4994
92.8400 5.0663 9.9088 10.4994
92.7531 5.1697 7.1685 10.4994
92.6662 5.2731 3.7496 10.4994
95.2680 2.3424 4.7229 12.7891
95.1811 2.4459 7.5749 12.7891
95.0942 2.5493 7.9089 12.7891
95.0073 2.6527 8.0254 12.7891
94.9203 2.7561 7.9947 12.7891
94.8334 2.8595 7.6287 12.7891
94.7465 2.9629 7.6689 12.7891
94.6596 3.0663 8.3283 12.7891
94.5727 3.1697 9.6387 12.7891
94.4858 3.2731 11.8940 12.7891
94.3989 3.3765 15.4797 12.7891
94.3120 3.4799 18.0506 12.7891
94.2250 3.5833 18.5974 12.7891
94.1381 3.6867 17.1886 12.7891
94.0512 3.7902 14.2193 12.7891
93.9643 3.8936 10.6346 12.7891
93.8774 3.9970 8.3898 12.7891
93.7905 4.1004 6.8865 12.7891
93.7036 4.2038 6.5836 12.7891
93.6166 4.3072 7.2111 12.7891
93.5297 4.4106 7.8128 12.7891
93.4428 4.5140 9.2900 12.7891
93.3559 4.6174 11.0733 12.7891
93.2690 4.7208 12.8040 12.7891
93.1821 4.8242 13.9323 12.7891
93.0952 4.9276 14.1733 12.7891
93.0082 5.0310 13.1174 12.7891
92.9213 5.1345 10.9823 12.7891
92.8344 5.2379 7.7506 12.7891
92.7475 5.3413 4.2688 12.7891
95.3493 2.4106 2.8211 15.0788
95.2624 2.5140 5.1521 15.0788
95.1755 2.6174 6.2527 15.0788
95.0886 2.7208 7.2115 15.0788
95.0017 2.8242 7.2397 15.0788
94.9148 2.9276 7.5607 15.0788
94.8279 3.0310 8.0517 15.0788
94.7409 3.1344 8.1950 15.0788
94.6540 3.2378 8.8984 15.0788
94.5671 3.3413 10.7032 15.0788
94.4802 3.4447 14.9240 15.0788
94.3933 3.5481 18.3951 15.0788
94.3064 3.6515 19.8239 15.0788
94.2195 3.7549 19.1590 15.0788
94.1326 3.8583 16.2428 15.0788
94.0456 3.9617 12.3764 15.0788
93.9587 4.0651 9.1753 15.0788
93.8718 4.1685 7.3100 15.0788
93.7849 4.2719 6.5812 15.0788
93.6980 4.3753 6.1284 15.0788
93.6111 4.4787 6.7219 15.0788
93.5242 4.5821 8.1432 15.0788
93.4372 4.6856 9.7803 15.0788
93.3503 4.7890 11.5087 15.0788
93.2634 4.8924 12.8230 15.0788
93.1765 4.9958 13.0024 15.0788
93.0896 5.0992 11.8911 15.0788
93.0027 5.2026 9.6714 15.0788
92.9158 5.3060 7.1675 15.0788
92.8288 5.4094 4.1091 15.0788
95.4307 2.4787 1.7193 17.3685
95.3438 2.5821 3.5629 17.3685
95.2569 2.6855 4.9683 17.3685
95.1699 2.7889 5.7861 17.3685
95.0830 2.8924 5.8302 17.3685
94.9961 2.9958 6.6573 17.3685
94.9092 3.0992 7.2941 17.3685
94.8223 3.2026 7.6122 17.3685
94.7354 3.3060 7.4262 17.3685
94.6485 3.4094 8.6003 17.3685
94.5615 3.5128 12.6568 17.3685
94.4746 3.6162 16.7629 17.3685
94.3877 3.7196 19.3824 17.3685
94.3008 3.8230 19.8149 17.3685
94.2139 3.9264 17.4916 17.3685
94.1270 4.0298 13.7456 17.3685
94.0401 4.1332 9.7576 17.3685
93.9532 4.2367 6.9853 17.3685
93.8662 4.3401 5.5452 17.3685
93.7793 4.4435 4.3476 17.3685
93.6924 4.5469 4.4894 17.3685
93.6055 4.6503 5.5485 17.3685
93.5186 4.7537 7.1330 17.3685
93.4317 4.8571 8.7128 17.3685
93.3448 4.9605 9.7949 17.3685
93.2578 5.0639 9.7019 17.3685
93.1709 5.1673 8.8526 17.3685
93.0840 5.2707 7.1229 17.3685
92.9971 5.3741 5.4788 17.3685
92.9102 5.4775 3.1360 17.3685
95.5120 2.5469 1.5108 19.6582
95.4251 2.6503 2.7081 19.6582
95.3382 2.7537 3.1977 19.6582
95.2513 2.8571 3.4040 19.6582
95.1644 2.9605 3.4522 19.6582
95.0775 3.0639 4.8530 19.6582
94.9905 3.1673 6.0031 19.6582
94.9036 3.2707 6.6127 19.6582
94.8167 3.3741 6.5548 19.6582
94.7298 3.4775 7.2158 19.6582
94.6429 3.5809 9.9186 19.6582
94.5560 3.6844 14.8166 19.6582
94.4691 3.7878 18.2402 19.6582
94.3821 3.8912 19.2118 19.6582
94.2952 3.9946 17.9507 19.6582
94.2083 4.0980 14.3181 19.6582
94.1214 4.2014 9.9611 19.6582
94.0345 4.3048 6.5987 19.6582
93.9476 4.4082 4.3577 19.6582
93.8607 4.5116 2.5865 19.6582
93.7738 4.6150 2.3518 19.6582
93.6868 4.7184 2.9832 19.6582
93.5999 4.8218 4.4623 19.6582
93.5130 4.9252 5.8300 19.6582
93.4261 5.0287 6.4782 19.6582
93.3392 5.1321 6.2141 19.6582
93.2523 5.2355 5.6477 19.6582
93.1654 5.3389 4.2294 19.6582
93.0784 5.4423 2.9685 19.6582
92.9915 5.5457 1.9087 19.6582
95.5934 2.6150 1.0252 21.9480
95.5065 2.7184 1.7696 21.9480
95.4195 2.8218 1.4771 21.9480
95.3326 2.9252 0.9961 21.9480
95.2457 3.0286 1.2890 21.9480
95.1588 3.1320 2.8669 21.9480
95.0719 3.2355 4.3329 21.9480
94.9850 3.3389 5.2793 21.9480
94.8981 3.4423 5.6137 21.9480
94.8111 3.5457 6.1328 21.9480
94.7242 3.6491 8.1335 21.9480
94.6373 3.7525 12.8010 21.9480
94.5504 3.8559 16.8346 21.9480
94.4635 3.9593 18.4223 21.9480
94.3766 4.0627 17.8314 21.9480
94.2897 4.1661 14.4363 21.9480
94.2027 4.2695 9.6542 21.9480
94.1158 4.3729 5.8944 21.9480
94.0289 4.4763 3.5925 21.9480
93.9420 4.5798 1.7785 21.9480
93.8551 4.6832 0.8615 21.9480
93.7682 4.7866 1.1282 21.9480
93.6813 4.8900 2.2022 21.9480
93.5944 4.9934 3.4385 21.9480
93.5074 5.0968 3.8391 21.9480
93.4205 5.2002 3.4225 21.9480
93.3336 5.3036 2.8963 21.9480
93.2467 5.4070 1.8752 21.9480
93.1598 5.5104 1.1070 21.9480
93.0729 5.6138 0.4807 21.9480
95.6747 2.6831 1.2969 24.2377
95.5878 2.7866 1.6864 24.2377
95.5009 2.8900 1.3563 24.2377
95.4140 2.9934 0.2814 24.2377
95.3271 3.0968 0.4240 24.2377
95.2401 3.2002 1.1428 24.2377
95.1532 3.3036 2.3008 24.2377
95.0663 3.4070 3.4400 24.2377
94.9794 3.5104 4.2663 24.2377
94.8925 3.6138 4.8922 24.2377
94.8056 3.7172 6.8268 24.2377
94.7187 3.8206 11.0982 24.2377
94.6317 3.9240 15.1994 24.2377
94.5448 4.0274 17.2395 24.2377
94.4579 4.1309 17.1570 24.2377
94.3710 4.2343 14.1811 24.2377
94.2841 4.3377 9.7212 24.2377
94.1972 4.4411 5.7738 24.2377
94.1103 4.5445 3.5612 24.2377
94.0233 4.6479 2.1569 24.2377
93.9364 4.7513 1.4901 24.2377
93.8495 4.8547 0.5901 24.2377
93.7626 4.9581 1.2546 24.2377
93.6757 5.0615 2.0926 24.2377
93.5888 5.1649 1.9183 24.2377
93.5019 5.2683 1.2588 24.2377
93.4150 5.3717 0.6298 24.2377
93.3280 5.4752 0.6567 24.2377
93.2411 5.5786 0.5002 24.2377
93.1542 5.6820 0.1228 24.2377
95.7560 2.7513 2.1897 26.5274
95.6691 2.8547 3.0380 26.5274
95.5822 2.9581 2.0655 26.5274
95.4953 3.0615 0.6396 26.5274
95.4084 3.1649 0.7260 26.5274
95.3215 3.2683 0.4215 26.5274
95.2346 3.3717 0.3052 26.5274
95.1477 3.4751 1.4557 26.5274
95.0607 3.5785 2.4121 26.5274
94.9738 3.6820 3.3801 26.5274
94.8869 3.7854 5.9589 26.5274
94.8000 3.8888 9.5386 26.5274
94.7131 3.9922 13.5118 26.5274
94.6262 4.0956 16.1361 26.5274
94.5393 4.1990 16.3290 26.5274
94.4523 4.3024 13.9996 26.5274
94.3654 4.4058 10.0475 26.5274
94.2785 4.5092 6.5625 26.5274
94.1916 4.6126 4.8007 26.5274
94.1047 4.7160 3.6122 26.5274
94.0178 4.8194 3.0316 26.5274
93.9309 4.9228 1.9898 26.5274
93.8439 5.0263 2.0025 26.5274
93.7570 5.1297 2.0802 26.5274
93.6701 5.2331 1.2520 26.5274
93.5832 5.3365 0.7461 26.5274
93.4963 5.4399 0.1833 26.5274
93.4094 5.5433 0.2627 26.5274
93.3225 5.6467 0.1391 26.5274
93.2356 5.7501 0.1648 26.5274
95.8374 2.8194 3.4703 28.8171
95.7505 2.9228 4.0600 28.8171
95.6636 3.0262 2.5442 28.8171
95.5766 3.1296 1.1663 28.8171
95.4897 3.2331 1.5926 28.8171
95.4028 3.3365 1.1301 28.8171
95.3159 3.4399 0.0688 28.8171
95.2290 3.5433 0.0485 28.8171
95.1421 3.6467 0.8976 28.8171
95.0552 3.7501 3.3565 28.8171
94.9683 3.8535 6.4696 28.8171
94.8813 3.9569 9.5032 28.8171
94.7944 4.0603 12.7960 28.8171
94.7075 4.1637 14.8289 28.8171
94.6206 4.2671 14.8390 28.8171
94.5337 4.3705 13.1278 28.8171
94.4468 4.4740 10.2557 28.8171
94.3599 4.5774 7.9815 28.8171
94.2729 4.6808 7.1091 28.8171
94.1860 4.7842 6.8994 28.8171
94.0991 4.8876 6.6750 28.8171
94.0122 4.9910 5.5460 28.8171
93.9253 5.0944 4.7012 28.8171
93.8384 5.1978 3.4621 28.8171
93.7515 5.3012 1.8695 28.8171
93.6646 5.4046 1.0447 28.8171
93.5776 5.5080 0.8394 28.8171
93.4907 5.6114 0.7598 28.8171
93.4038 5.7148 0.3042 28.8171
93.3169 5.8183 0.0273 28.8171
95.9187 2.8876 4.9871 31.1068
95.8318 2.9910 5.9525 31.1068
95.7449 3.0944 3.7586 31.1068
95.6580 3.1978 1.5882 31.1068
95.5711 3.3012 2.1086 31.1068
95.4842 3.4046 2.4197 31.1068
95.3972 3.5080 1.2295 31.1068
95.3103 3.6114 0.0341 31.1068
95.2234 3.7148 0.5429 31.1068
95.1365 3.8182 3.7514 31.1068
95.0496 3.9216 7.9108 31.1068
94.9627 4.0251 11.0015 31.1068
94.8758 4.1285 12.7418 31.1068
94.7889 4.2319 14.0893 31.1068
94.7019 4.3353 13.3932 31.1068
94.6150 4.4387 11.6591 31.1068
94.5281 4.5421 10.2265 31.1068
94.4412 4.6455 9.5255 31.1068
94.3543 4.7489 9.7787 31.1068
94.2674 4.8523 10.4915 31.1068
94.1805 4.9557 10.0951 31.1068
94.0935 5.0591 8.9901 31.1068
94.0066 5.1625 7.5135 31.1068
93.9197 5.2659 5.9603 31.1068
93.8328 5.3694 3.7074 31.1068
93.7459 5.4728 2.6665 31.1068
93.6590 5.5762 2.5306 31.1068
93.5721 5.6796 2.1165 31.1068
93.4852 5.7830 1.4363 31.1068
93.3982 5.8864 0.8428 31.1068
96.0001 2.9557 7.3380 33.3965
95.9132 3.0591 8.2908 33.3965
95.8262 3.1625 5.1310 33.3965
95.7393 3.2659 2.2532 33.3965
95.6524 3.3693 3.0924 33.3965
95.5655 3.4727 4.2201 33.3965
95.4786 3.5762 3.3703 33.3965
95.3917 3.6796 1.3298 33.3965
95.3048 3.7830 1.1070 33.3965
95.2178 3.8864 4.3900 33.3965
95.1309 3.9898 9.7324 33.3965
95.0440 4.0932 12.7625 33.3965
94.9571 4.1966 13.4445 33.3965
94.8702 4.3000 12.9946 33.3965
94.7833 4.4034 11.4003 33.3965
94.6964 4.5068 9.9799 33.3965
94.6095 4.6102 9.7226 33.3965
94.5225 4.7136 10.1744 33.3965
94.4356 4.8170 11.4284 33.3965
94.3487 4.9205 12.3645 33.3965
94.2618 5.0239 12.1040 33.3965
94.1749 5.1273 10.4590 33.3965
94.0880 5.2307 8.9574 33.3965
94.0011 5.3341 7.1387 33.3965
93.9141 5.4375 4.9971 33.3965
93.8272 5.5409 4.1429 33.3965
93.7403 5.6443 3.9202 33.3965
93.6534 5.7477 3.3703 33.3965
93.5665 5.8511 2.6591 33.3965
93.4796 5.9545 1.6838 33.3965
96.0814 3.0238 8.2396 35.6862
95.9945 3.1273 10.0154 35.6862
95.9076 3.2307 6.5926 35.6862
95.8207 3.3341 3.9736 35.6862
95.7338 3.4375 4.0716 35.6862
95.6468 3.5409 5.3436 35.6862
95.5599 3.6443 4.1081 35.6862
95.4730 3.7477 2.5255 35.6862
95.3861 3.8511 2.1555 35.6862
95.2992 3.9545 5.6332 35.6862
95.2123 4.0579 10.5952 35.6862
95.1254 4.1613 12.8201 35.6862
95.0384 4.2647 12.9156 35.6862
94.9515 4.3681 11.5349 35.6862
94.8646 4.4716 9.0839 35.6862
94.7777 4.5750 7.7525 35.6862
94.6908 4.6784 8.5089 35.6862
94.6039 4.7818 9.9226 35.6862
94.5170 4.8852 11.2363 35.6862
94.4301 4.9886 11.6391 35.6862
94.3431 5.0920 11.3853 35.6862
94.2562 5.1954 10.0589 35.6862
94.1693 5.2988 8.4996 35.6862
94.0824 5.4022 6.7599 35.6862
93.9955 5.5056 5.4219 35.6862
93.9086 5.6090 4.3099 35.6862
93.8217 5.7124 3.9287 35.6862
93.7347 5.8159 3.4244 35.6862
93.6478 5.9193 3.1395 35.6862
93.5609 6.0227 2.0750 35.6862
96.1628 3.0920 6.4995 37.9759
96.0758 3.1954 8.1586 37.9759
95.9889 3.2988 6.0750 37.9759
95.9020 3.4022 4.3860 37.9759
95.8151 3.5056 3.6001 37.9759
95.7282 3.6090 4.3582 37.9759
95.6413 3.7124 3.4638 37.9759
95.5544 3.8158 1.9068 37.9759
95.4674 3.9192 1.3789 37.9759
95.3805 4.0227 3.4036 37.9759
95.2936 4.1261 7.4186 37.9759
95.2067 4.2295 8.9739 37.9759
95.1198 4.3329 8.8460 37.9759
95.0329 4.4363 7.6253 37.9759
94.9460 4.5397 5.8421 37.9759
94.8590 4.6431 4.5660 37.9759
94.7721 4.7465 5.3769 37.9759
94.6852 4.8499 6.7130 37.9759
94.5983 4.9533 7.3381 37.9759
94.5114 5.0567 7.4902 37.9759
94.4245 5.1601 7.1564 37.9759
94.3376 5.2635 6.1676 37.9759
94.2507 5.3670 5.1664 37.9759
94.1637 5.4704 4.5272 37.9759
94.0768 5.5738 3.9266 37.9759
93.9899 5.6772 3.2388 37.9759
93.9030 5.7806 2.7323 37.9759
93.8161 5.8840 2.4292 37.9759
93.7292 5.9874 2.0375 37.9759
93.6423 6.0908 1.2787 37.9759
