99.5745 -0.7081 0.0287 49.2959
99.6171 -0.6937 0.0087 49.2959
99.6598 -0.6793 0.0090 49.2959
99.7024 -0.6649 0.0706 49.2959
99.7450 -0.6505 0.0112 49.2959
99.7877 -0.6361 0.0318 49.2959
99.8303 -0.6218 0.0054 49.2959
99.8729 -0.6074 0.0108 49.2959
99.9156 -0.5930 0.0385 49.2959
99.9582 -0.5786 0.0070 49.2959
100.0008 -0.5642 0.0112 49.2959
100.0435 -0.5498 0.0028 49.2959
100.0861 -0.5354 0.0690 49.2959
99.5824 -0.7317 0.0118 53.0263
99.6251 -0.7173 0.0373 53.0263
99.6677 -0.7029 0.0142 53.0263
99.7103 -0.6885 0.0065 53.0263
99.7530 -0.6741 0.0002 53.0263
99.7956 -0.6597 0.0179 53.0263
99.8383 -0.6453 0.0133 53.0263
99.8809 -0.6309 0.0142 53.0263
99.9235 -0.6165 0.0606 53.0263
99.9662 -0.6021 0.0033 53.0263
100.0088 -0.5877 0.0415 53.0263
100.0514 -0.5733 0.0053 53.0263
100.0941 -0.5589 0.0423 53.0263
99.5904 -0.7552 0.0155 56.7567
99.6330 -0.7408 0.0127 56.7567
99.6757 -0.7264 0.0012 56.7567
99.7183 -0.7120 0.0463 56.7567
99.7609 -0.6976 0.0350 56.7567
99.8036 -0.6832 0.0197 56.7567
99.8462 -0.6688 0.0078 56.7567
99.8888 -0.6544 0.0424 56.7567
99.9315 -0.6400 0.0632 56.7567
99.9741 -0.6256 0.0126 56.7567
100.0167 -0.6112 0.0024 56.7567
100.0594 -0.5968 0.0005 56.7567
100.1020 -0.5824 0.0131 56.7567
99.5983 -0.7787 0.0111 60.4870
99.6410 -0.7643 0.0045 60.4870
99.6836 -0.7499 0.0280 60.4870
99.7262 -0.7355 0.0063 60.4870
99.7689 -0.7211 0.1407 60.4870
99.8115 -0.7067 0.0024 60.4870
99.8541 -0.6923 0.1430 60.4870
99.8968 -0.6779 0.1793 60.4870
99.9394 -0.6635 0.0265 60.4870
99.9820 -0.6491 0.1045 60.4870
100.0247 -0.6347 0.0757 60.4870
100.0673 -0.6203 0.0858 60.4870
100.1100 -0.6060 0.0211 60.4870
99.6063 -0.8022 0.0085 64.2174
99.6489 -0.7878 0.0078 64.2174
99.6915 -0.7734 0.0237 64.2174
99.7342 -0.7590 0.0738 64.2174
99.7768 -0.7447 0.0398 64.2174
99.8195 -0.7303 0.0898 64.2174
99.8621 -0.7159 0.0554 64.2174
99.9047 -0.7015 0.3940 64.2174
99.9474 -0.6871 0.3882 64.2174
99.9900 -0.6727 0.0694 64.2174
100.0326 -0.6583 0.0071 64.2174
100.0753 -0.6439 0.0159 64.2174
100.1179 -0.6295 0.0127 64.2174
99.6142 -0.8258 0.0253 67.9478
99.6569 -0.8114 0.0639 67.9478
99.6995 -0.7970 0.0388 67.9478
99.7421 -0.7826 0.0312 67.9478
99.7848 -0.7682 0.0192 67.9478
99.8274 -0.7538 0.0445 67.9478
99.8700 -0.7394 0.1209 67.9478
99.9127 -0.7250 0.1453 67.9478
99.9553 -0.7106 0.3181 67.9478
99.9979 -0.6962 0.0957 67.9478
100.0406 -0.6818 0.0653 67.9478
100.0832 -0.6674 0.0078 67.9478
100.1258 -0.6530 0.0061 67.9478
99.6222 -0.8493 0.0322 71.6782
99.6648 -0.8349 0.0575 71.6782
99.7074 -0.8205 0.1156 71.6782
99.7501 -0.8061 0.3382 71.6782
99.7927 -0.7917 0.4783 71.6782
99.8353 -0.7773 0.6230 71.6782
99.8780 -0.7629 0.8751 71.6782
99.9206 -0.7485 1.2800 71.6782
99.9633 -0.7341 0.9349 71.6782
100.0059 -0.7197 0.4935 71.6782
100.0485 -0.7053 0.2034 71.6782
100.0912 -0.6909 0.0802 71.6782
100.1338 -0.6765 0.0018 71.6782
99.6301 -0.8728 0.0441 75.4086
99.6728 -0.8584 0.0011 75.4086
99.7154 -0.8440 0.4387 75.4086
99.7580 -0.8296 1.1751 75.4086
99.8007 -0.8152 1.8144 75.4086
99.8433 -0.8008 3.2314 75.4086
99.8859 -0.7864 4.7031 75.4086
99.9286 -0.7720 4.3033 75.4086
99.9712 -0.7576 2.9031 75.4086
100.0138 -0.7432 1.1557 75.4086
100.0565 -0.7288 0.0525 75.4086
100.0991 -0.7145 0.0168 75.4086
100.1417 -0.7001 0.0418 75.4086
99.6381 -0.8963 0.0435 79.1389
99.6807 -0.8819 0.0687 79.1389
99.7233 -0.8676 0.7739 79.1389
99.7660 -0.8532 1.8812 79.1389
99.8086 -0.8388 3.3991 79.1389
99.8512 -0.8244 5.8759 79.1389
99.8939 -0.8100 8.2610 79.1389
99.9365 -0.7956 7.6659 79.1389
99.9791 -0.7812 5.1341 79.1389
100.0218 -0.7668 1.4956 79.1389
100.0644 -0.7524 0.1034 79.1389
100.1070 -0.7380 0.0358 79.1389
100.1497 -0.7236 0.0183 79.1389
99.6460 -0.9199 0.0181 82.8693
99.6886 -0.9055 0.0010 82.8693
99.7313 -0.8911 0.5021 82.8693
99.7739 -0.8767 2.0638 82.8693
99.8165 -0.8623 4.1138 82.8693
99.8592 -0.8479 7.0009 82.8693
99.9018 -0.8335 9.1596 82.8693
99.9445 -0.8191 8.2201 82.8693
99.9871 -0.8047 4.5468 82.8693
100.0297 -0.7903 1.2909 82.8693
100.0724 -0.7759 0.0742 82.8693
100.1150 -0.7615 0.0892 82.8693
100.1576 -0.7471 0.0155 82.8693
99.6540 -0.9434 0.0214 86.5997
99.6966 -0.9290 0.0242 86.5997
99.7392 -0.9146 0.0141 86.5997
99.7819 -0.9002 1.4528 86.5997
99.8245 -0.8858 3.4614 86.5997
99.8671 -0.8714 4.7714 86.5997
99.9098 -0.8570 6.0414 86.5997
99.9524 -0.8426 4.7797 86.5997
99.9950 -0.8282 1.9575 86.5997
100.0377 -0.8138 0.3815 86.5997
100.0803 -0.7994 0.0176 86.5997
100.1229 -0.7850 0.0058 86.5997
100.1656 -0.7706 0.0174 86.5997
99.6619 -0.9669 0.0070 90.3301
99.7045 -0.9525 0.0055 90.3301
99.7472 -0.9381 0.0055 90.3301
99.7898 -0.9237 0.1096 90.3301
99.8324 -0.9093 1.4723 90.3301
99.8751 -0.8949 1.4360 90.3301
99.9177 -0.8805 1.8458 90.3301
99.9603 -0.8661 1.4164 90.3301
100.0030 -0.8517 0.3740 90.3301
100.0456 -0.8374 0.0142 90.3301
100.0883 -0.8230 0.0115 90.3301
100.1309 -0.8086 0.0225 90.3301
100.1735 -0.7942 0.0179 90.3301
99.6698 -0.9904 0.0442 94.0604
99.7125 -0.9761 0.0109 94.0604
99.7551 -0.9617 0.0009 94.0604
99.7978 -0.9473 0.0059 94.0604
99.8404 -0.9329 0.0104 94.0604
99.8830 -0.9185 0.0086 94.0604
99.9257 -0.9041 0.0016 94.0604
99.9683 -0.8897 0.1165 94.0604
100.0109 -0.8753 0.0057 94.0604
100.0536 -0.8609 0.0107 94.0604
100.0962 -0.8465 0.0166 94.0604
100.1388 -0.8321 0.0013 94.0604
100.1815 -0.8177 0.0014 94.0604
99.6778 -1.0140 0.0754 97.7908
99.7204 -0.9996 0.0124 97.7908
99.7631 -0.9852 0.0071 97.7908
99.8057 -0.9708 0.0060 97.7908
99.8483 -0.9564 0.0010 97.7908
99.8910 -0.9420 0.0287 97.7908
99.9336 -0.9276 0.0051 97.7908
99.9762 -0.9132 0.0297 97.7908
100.0189 -0.8988 0.0017 97.7908
100.0615 -0.8844 0.0130 97.7908
100.1041 -0.8700 0.0255 97.7908
100.1468 -0.8556 0.0247 97.7908
100.1894 -0.8412 0.0336 97.7908
99.6857 -1.0375 0.0016 101.5212
99.7284 -1.0231 0.0567 101.5212
99.7710 -1.0087 0.0040 101.5212
99.8136 -0.9943 0.0014 101.5212
99.8563 -0.9799 0.0046 101.5212
99.8989 -0.9655 0.0199 101.5212
99.9415 -0.9511 0.0029 101.5212
99.9842 -0.9367 0.0080 101.5212
100.0268 -0.9223 0.0183 101.5212
100.0695 -0.9079 0.0110 101.5212
100.1121 -0.8935 0.0063 101.5212
100.1547 -0.8791 0.0303 101.5212
100.1974 -0.8647 0.0302 101.5212
