85.3607 32.4956 0.0100 0.0000
85.3562 32.4875 0.0300 0.0000
85.3517 32.4793 0.0400 0.0000
85.3472 32.4712 0.0200 0.0000
85.3427 32.4630 0.0000 0.0000
85.3381 32.4548 0.0000 0.0000
85.3336 32.4467 0.0600 0.0000
85.3291 32.4385 0.0900 0.0000
85.3246 32.4304 0.0700 0.0000
85.3201 32.4222 0.0200 0.0000
85.3156 32.4141 0.0000 0.0000
85.3111 32.4059 0.0000 0.0000
85.3066 32.3978 0.0100 0.0000
85.3021 32.3896 0.0100 0.0000
85.2976 32.3814 0.0000 0.0000
85.3534 32.4985 0.0300 1.0000
85.3489 32.4903 0.0500 1.0000
85.3444 32.4822 0.0700 1.0000
85.3399 32.4740 0.0700 1.0000
85.3354 32.4659 0.0800 1.0000
85.3309 32.4577 0.1600 1.0000
85.3264 32.4496 0.2800 1.0000
85.3218 32.4414 0.3400 1.0000
85.3173 32.4332 0.3400 1.0000
85.3128 32.4251 0.2800 1.0000
85.3083 32.4169 0.1900 1.0000
85.3038 32.4088 0.1000 1.0000
85.2993 32.4006 0.0500 1.0000
85.2948 32.3925 0.0200 1.0000
85.2903 32.3843 0.0100 1.0000
85.3461 32.5014 0.0500 2.0000
85.3416 32.4932 0.1000 2.0000
85.3371 32.4850 0.1700 2.0000
85.3326 32.4769 0.2600 2.0000
85.3281 32.4687 0.3800 2.0000
85.3236 32.4606 0.5400 2.0000
85.3191 32.4524 0.6700 2.0000
85.3146 32.4443 0.7300 2.0000
85.3101 32.4361 0.6900 2.0000
85.3056 32.4280 0.5700 2.0000
85.3010 32.4198 0.4100 2.0000
85.2965 32.4116 0.2400 2.0000
85.2920 32.4035 0.1000 2.0000
85.2875 32.3953 0.0300 2.0000
85.2830 32.3872 0.0000 2.0000
85.3388 32.5042 0.0700 3.0000
85.3343 32.4961 0.1500 3.0000
85.3298 32.4879 0.2500 3.0000
85.3253 32.4798 0.4000 3.0000
85.3208 32.4716 0.5600 3.0000
85.3163 32.4634 0.7300 3.0000
85.3118 32.4553 0.8500 3.0000
85.3073 32.4471 0.8800 3.0000
85.3028 32.4390 0.8000 3.0000
85.2983 32.4308 0.6500 3.0000
85.2938 32.4227 0.4600 3.0000
85.2893 32.4145 0.2700 3.0000
85.2847 32.4064 0.1100 3.0000
85.2802 32.3982 0.0300 3.0000
85.2757 32.3900 0.0000 3.0000
85.3315 32.5071 0.0700 4.0000
85.3270 32.4989 0.1500 4.0000
85.3225 32.4908 0.2500 4.0000
85.3180 32.4826 0.3800 4.0000
85.3135 32.4745 0.5300 4.0000
85.3090 32.4663 0.6600 4.0000
85.3045 32.4582 0.7400 4.0000
85.3000 32.4500 0.7400 4.0000
85.2955 32.4418 0.6600 4.0000
85.2910 32.4337 0.5200 4.0000
85.2865 32.4255 0.3500 4.0000
85.2820 32.4174 0.1900 4.0000
85.2775 32.4092 0.0700 4.0000
85.2730 32.4011 0.0100 4.0000
85.2685 32.3929 0.0000 4.0000
85.3243 32.5100 0.0500 5.0000
85.3198 32.5018 0.1000 5.0000
85.3153 32.4936 0.1800 5.0000
85.3107 32.4855 0.2700 5.0000
85.3062 32.4773 0.3600 5.0000
85.3017 32.4692 0.4400 5.0000
85.2972 32.4610 0.4700 5.0000
85.2927 32.4529 0.4600 5.0000
85.2882 32.4447 0.3900 5.0000
85.2837 32.4366 0.2900 5.0000
85.2792 32.4284 0.1800 5.0000
85.2747 32.4202 0.0800 5.0000
85.2702 32.4121 0.0200 5.0000
85.2657 32.4039 0.0000 5.0000
85.2612 32.3958 0.0000 5.0000
85.3170 32.5128 0.0200 6.0000
85.3125 32.5047 0.0500 6.0000
85.3080 32.4965 0.0900 6.0000
85.3035 32.4884 0.1300 6.0000
85.2990 32.4802 0.1800 6.0000
85.2944 32.4720 0.2100 6.0000
85.2899 32.4639 0.2200 6.0000
85.2854 32.4557 0.2000 6.0000
85.2809 32.4476 0.1600 6.0000
85.2764 32.4394 0.1000 6.0000
85.2719 32.4313 0.0500 6.0000
85.2674 32.4231 0.0100 6.0000
85.2629 32.4150 0.0000 6.0000
85.2584 32.4068 0.0000 6.0000
85.2539 32.3986 0.0000 6.0000
85.3097 32.5157 0.0100 7.0000
85.3052 32.5075 0.0100 7.0000
85.3007 32.4994 0.0300 7.0000
85.2962 32.4912 0.0400 7.0000
85.2917 32.4831 0.0600 7.0000
85.2872 32.4749 0.0700 7.0000
85.2827 32.4668 0.0700 7.0000
85.2782 32.4586 0.0500 7.0000
85.2736 32.4504 0.0300 7.0000
85.2691 32.4423 0.0100 7.0000
85.2646 32.4341 0.0000 7.0000
85.2601 32.4260 0.0000 7.0000
85.2556 32.4178 0.0000 7.0000
85.2511 32.4097 0.0000 7.0000
85.2466 32.4015 0.0000 7.0000
