-104.0043 18.3763 1.2900 12.0000
-104.0454 18.3988 1.3300 12.0000
-104.0866 18.4213 0.6720 12.0000
-104.1277 18.4438 1.0050 12.0000
-104.1688 18.4663 0.8130 12.0000
-104.2100 18.4888 0.6250 12.0000
-104.2511 18.5113 0.6490 12.0000
-104.2923 18.5338 0.7350 12.0000
-104.3334 18.5563 0.8520 12.0000
-104.3746 18.5788 0.1710 12.0000
-104.4157 18.6013 0.8800 12.0000
-104.4568 18.6238 1.2050 12.0000
-104.4980 18.6463 0.3100 12.0000
-104.5391 18.6688 0.9930 12.0000
-103.9823 18.4124 0.7640 13.8730
-104.0234 18.4349 0.5920 13.8730
-104.0645 18.4574 0.2920 13.8730
-104.1057 18.4799 0.6990 13.8730
-104.1468 18.5024 0.7760 13.8730
-104.1880 18.5249 1.0370 13.8730
-104.2291 18.5474 1.7370 13.8730
-104.2702 18.5699 2.4230 13.8730
-104.3114 18.5924 1.6110 13.8730
-104.3525 18.6149 0.3540 13.8730
-104.3937 18.6374 0.0820 13.8730
-104.4348 18.6599 0.2000 13.8730
-104.4760 18.6824 0.0930 13.8730
-104.5171 18.7049 0.7680 13.8730
-103.9602 18.4486 0.1730 15.7461
-104.0014 18.4711 0.1950 15.7461
-104.0425 18.4936 0.2520 15.7461
-104.0837 18.5160 0.4410 15.7461
-104.1248 18.5385 0.4610 15.7461
-104.1659 18.5610 0.7510 15.7461
-104.2071 18.5835 1.8790 15.7461
-104.2482 18.6060 3.0180 15.7461
-104.2894 18.6285 2.9440 15.7461
-104.3305 18.6510 1.6760 15.7461
-104.3717 18.6735 0.4630 15.7461
-104.4128 18.6960 0.4620 15.7461
-104.4539 18.7185 0.1360 15.7461
-104.4951 18.7410 0.2090 15.7461
-103.9382 18.4847 0.0880 17.6191
-103.9793 18.5072 0.1980 17.6191
-104.0205 18.5297 0.1620 17.6191
-104.0616 18.5522 0.2600 17.6191
-104.1028 18.5747 0.3400 17.6191
-104.1439 18.5972 0.4620 17.6191
-104.1851 18.6197 1.3530 17.6191
-104.2262 18.6422 2.2790 17.6191
-104.2673 18.6647 2.2970 17.6191
-104.3085 18.6872 1.4300 17.6191
-104.3496 18.7097 0.5580 17.6191
-104.3908 18.7322 0.1760 17.6191
-104.4319 18.7547 0.2770 17.6191
-104.4731 18.7772 0.0470 17.6191
-103.9162 18.5208 0.1690 19.4921
-103.9573 18.5433 0.3300 19.4921
-103.9985 18.5658 0.1130 19.4921
-104.0396 18.5883 0.2150 19.4921
-104.0808 18.6108 0.3740 19.4921
-104.1219 18.6333 0.3330 19.4921
-104.1630 18.6558 0.4060 19.4921
-104.2042 18.6783 1.1990 19.4921
-104.2453 18.7008 1.7000 19.4921
-104.2865 18.7233 0.9090 19.4921
-104.3276 18.7458 0.4370 19.4921
-104.3687 18.7683 0.0530 19.4921
-104.4099 18.7908 0.1020 19.4921
-104.4510 18.8133 0.1150 19.4921
-103.8942 18.5569 0.1790 21.3652
-103.9353 18.5794 0.1790 21.3652
-103.9764 18.6019 0.0840 21.3652
-104.0176 18.6244 0.2130 21.3652
-104.0587 18.6469 0.3270 21.3652
-104.0999 18.6694 0.4990 21.3652
-104.1410 18.6919 0.4650 21.3652
-104.1822 18.7144 0.9670 21.3652
-104.2233 18.7369 2.0050 21.3652
-104.2644 18.7594 1.0280 21.3652
-104.3056 18.7819 0.2800 21.3652
-104.3467 18.8044 0.1760 21.3652
-104.3879 18.8269 0.0970 21.3652
-104.4290 18.8494 0.0760 21.3652
-103.8721 18.5931 0.2740 23.2382
-103.9133 18.6156 0.1470 23.2382
-103.9544 18.6381 0.0830 23.2382
-103.9956 18.6606 0.0510 23.2382
-104.0367 18.6831 0.2770 23.2382
-104.0778 18.7056 0.3830 23.2382
-104.1190 18.7281 0.4970 23.2382
-104.1601 18.7506 1.7560 23.2382
-104.2013 18.7731 2.5400 23.2382
-104.2424 18.7956 1.0650 23.2382
-104.2836 18.8181 0.2020 23.2382
-104.3247 18.8406 0.0370 23.2382
-104.3658 18.8631 0.1110 23.2382
-104.4070 18.8856 0.1480 23.2382
-103.8501 18.6292 0.2490 25.1112
-103.8913 18.6517 0.1240 25.1112
-103.9324 18.6742 0.1430 25.1112
-103.9735 18.6967 0.1550 25.1112
-104.0147 18.7192 0.4210 25.1112
-104.0558 18.7417 0.9400 25.1112
-104.0970 18.7642 1.7850 25.1112
-104.1381 18.7867 3.1430 25.1112
-104.1792 18.8092 2.7580 25.1112
-104.2204 18.8317 1.1320 25.1112
-104.2615 18.8542 0.2770 25.1112
-104.3027 18.8767 0.0080 25.1112
-104.3438 18.8992 0.0680 25.1112
-104.3850 18.9217 0.2330 25.1112
-103.8281 18.6653 0.2130 26.9843
-103.8692 18.6878 0.1110 26.9843
-103.9104 18.7103 0.0970 26.9843
-103.9515 18.7328 0.0770 26.9843
-103.9927 18.7553 0.2230 26.9843
-104.0338 18.7778 0.7880 26.9843
-104.0749 18.8003 1.9210 26.9843
-104.1161 18.8228 2.9010 26.9843
-104.1572 18.8453 2.2300 26.9843
-104.1984 18.8678 0.7070 26.9843
-104.2395 18.8903 0.2570 26.9843
-104.2807 18.9128 0.1440 26.9843
-104.3218 18.9353 0.0480 26.9843
-104.3629 18.9578 0.2460 26.9843
-103.8061 18.7015 0.2190 28.8573
-103.8472 18.7240 0.1830 28.8573
-103.8883 18.7465 0.1820 28.8573
-103.9295 18.7690 0.0880 28.8573
-103.9706 18.7915 0.1490 28.8573
-104.0118 18.8140 0.4570 28.8573
-104.0529 18.8365 1.4050 28.8573
-104.0941 18.8590 2.2470 28.8573
-104.1352 18.8815 1.5850 28.8573
-104.1763 18.9040 0.4790 28.8573
-104.2175 18.9264 0.1790 28.8573
-104.2586 18.9489 0.1150 28.8573
-104.2998 18.9714 0.2440 28.8573
-104.3409 18.9939 0.2760 28.8573
-103.7840 18.7376 0.0170 30.7303
-103.8252 18.7601 0.0690 30.7303
-103.8663 18.7826 0.1970 30.7303
-103.9075 18.8051 0.1290 30.7303
-103.9486 18.8276 0.1740 30.7303
-103.9898 18.8501 0.3410 30.7303
-104.0309 18.8726 1.1440 30.7303
-104.0720 18.8951 1.6880 30.7303
-104.1132 18.9176 1.0380 30.7303
-104.1543 18.9401 0.6530 30.7303
-104.1955 18.9626 0.1780 30.7303
-104.2366 18.9851 0.0410 30.7303
-104.2777 19.0076 0.5760 30.7303
-104.3189 19.0301 0.2770 30.7303
-103.7620 18.7737 0.1920 32.6034
-103.8032 18.7962 0.4230 32.6034
-103.8443 18.8187 0.5950 32.6034
-103.8854 18.8412 0.4170 32.6034
-103.9266 18.8637 0.7700 32.6034
-103.9677 18.8862 1.3620 32.6034
-104.0089 18.9087 2.1610 32.6034
-104.0500 18.9312 2.0380 32.6034
-104.0912 18.9537 0.9410 32.6034
-104.1323 18.9762 0.0490 32.6034
-104.1734 18.9987 0.0260 32.6034
-104.2146 19.0212 0.0930 32.6034
-104.2557 19.0437 0.5010 32.6034
-104.2969 19.0662 0.1560 32.6034
-103.7400 18.8099 0.4890 34.4764
-103.7811 18.8324 0.7100 34.4764
-103.8223 18.8549 0.5260 34.4764
-103.8634 18.8774 0.3450 34.4764
-103.9046 18.8999 0.8220 34.4764
-103.9457 18.9224 1.4750 34.4764
-103.9868 18.9448 1.9320 34.4764
-104.0280 18.9673 1.6230 34.4764
-104.0691 18.9898 0.6150 34.4764
-104.1103 19.0123 0.2620 34.4764
-104.1514 19.0348 0.1540 34.4764
-104.1926 19.0573 0.5390 34.4764
-104.2337 19.0798 0.2550 34.4764
-104.2748 19.1023 0.3990 34.4764
-103.7180 18.8460 0.7580 36.3494
-103.7591 18.8685 0.9200 36.3494
-103.8003 18.8910 0.8610 36.3494
-103.8414 18.9135 0.3930 36.3494
-103.8825 18.9360 0.2190 36.3494
-103.9237 18.9585 0.3410 36.3494
-103.9648 18.9810 0.3610 36.3494
-104.0060 19.0035 0.2000 36.3494
-104.0471 19.0260 0.0550 36.3494
-104.0882 19.0485 0.2040 36.3494
-104.1294 19.0710 0.1100 36.3494
-104.1705 19.0935 0.3470 36.3494
-104.2117 19.1160 0.0300 36.3494
-104.2528 19.1385 0.3570 36.3494
-103.6959 18.8821 0.4160 38.2225
-103.7371 18.9046 0.3150 38.2225
-103.7782 18.9271 0.2150 38.2225
-103.8194 18.9496 0.1270 38.2225
-103.8605 18.9721 0.2780 38.2225
-103.9017 18.9946 0.2650 38.2225
-103.9428 19.0171 0.1730 38.2225
-103.9839 19.0396 0.1280 38.2225
-104.0251 19.0621 0.0480 38.2225
-104.0662 19.0846 0.1570 38.2225
-104.1074 19.1071 0.2240 38.2225
-104.1485 19.1296 0.0950 38.2225
-104.1897 19.1521 0.2690 38.2225
-104.2308 19.1746 1.1310 38.2225
-103.6739 18.9183 0.0460 40.0955
-103.7151 18.9407 0.1730 40.0955
-103.7562 18.9632 0.1440 40.0955
-103.7973 18.9857 0.2810 40.0955
-103.8385 19.0082 1.0360 40.0955
-103.8796 19.0307 0.9190 40.0955
-103.9208 19.0532 0.7470 40.0955
-103.9619 19.0757 0.3120 40.0955
-104.0031 19.0982 0.2810 40.0955
-104.0442 19.1207 0.4110 40.0955
-104.0853 19.1432 0.0490 40.0955
-104.1265 19.1657 0.0390 40.0955
-104.1676 19.1882 1.0320 40.0955
-104.2088 19.2107 0.8220 40.0955
-103.6519 18.9544 0.0300 41.9685
-103.6930 18.9769 0.1460 41.9685
-103.7342 18.9994 0.0510 41.9685
-103.7753 19.0219 0.2090 41.9685
-103.8165 19.0444 0.4600 41.9685
-103.8576 19.0669 0.6720 41.9685
-103.8987 19.0894 1.4520 41.9685
-103.9399 19.1119 0.5560 41.9685
-103.9810 19.1344 0.3560 41.9685
-104.0222 19.1569 0.1740 41.9685
-104.0633 19.1794 0.0160 41.9685
-104.1045 19.2019 0.8730 41.9685
-104.1456 19.2244 1.1990 41.9685
-104.1867 19.2469 0.6500 41.9685
