145.3515 43.3372 2.8773 74.8500
145.1911 43.2662 1.1413 74.4800
145.0308 43.1953 0.9679 73.7000
144.8707 43.1243 1.3204 72.4900
144.7106 43.0533 0.6234 70.8100
144.5516 42.9820 1.1389 68.7200
144.3939 42.9104 1.3592 66.3200
144.2372 42.8384 0.8532 63.7900
144.0817 42.7662 0.9560 61.2200
143.9268 42.6936 0.7483 58.7700
143.7731 42.6204 0.2225 56.6000
143.6207 42.5472 0.2653 54.7100
143.4689 42.4742 0.1190 53.1000
143.3178 42.4013 0.1196 51.7900
143.1676 42.3287 1.0232 50.7500
143.0189 42.2567 2.0005 50.0900
142.8712 42.1851 2.3273 49.8200
145.4410 43.2291 1.5584 65.0300
145.2805 43.1582 0.8619 64.5800
145.1202 43.0871 1.0450 63.7200
144.9604 43.0160 1.9147 62.3900
144.8009 42.9446 1.1854 60.6900
144.6429 42.8729 0.5173 58.7200
144.4862 42.8009 0.8104 56.6500
144.3302 42.7285 0.8719 54.6000
144.1751 42.6557 1.7120 52.6500
144.0210 42.5831 3.7863 50.8300
143.8676 42.5106 2.6034 49.1700
143.7150 42.4382 0.9360 47.6600
143.5630 42.3657 0.2504 46.3500
143.4120 42.2935 0.6721 45.2800
143.2622 42.2213 0.9105 44.4900
143.1132 42.1495 0.8406 43.9900
142.9654 42.0781 1.2733 43.8200
145.5307 43.1193 1.3395 55.9100
145.3703 43.0484 0.8144 55.4100
145.2105 42.9771 1.4716 54.5500
145.0508 42.9057 1.2196 53.3400
144.8926 42.8341 1.1804 51.9000
144.7354 42.7623 0.4165 50.3200
144.5790 42.6905 0.6715 48.6800
144.4231 42.6184 4.2743 47.0500
144.2683 42.5464 0.8182 45.4600
144.1143 42.4744 2.8359 43.9800
143.9609 42.4023 1.7268 42.6300
143.8083 42.3300 0.3763 41.4400
143.6567 42.2578 1.0633 40.4100
143.5058 42.1857 1.3793 39.6000
143.3558 42.1137 1.2607 38.9900
143.2071 42.0421 0.5014 38.6400
143.0595 41.9710 0.4510 38.6000
145.6213 43.0104 0.5225 47.0600
145.4615 42.9393 1.3876 46.7500
145.3020 42.8679 0.9971 46.1500
145.1432 42.7964 1.1126 45.2600
144.9851 42.7247 1.1870 44.1800
144.8278 42.6531 1.0514 42.9400
144.6714 42.5815 1.1549 41.6500
144.5160 42.5097 1.1346 40.3500
144.3613 42.4379 1.6709 39.0900
144.2074 42.3660 1.8143 37.9200
144.0542 42.2942 1.6334 36.8400
143.9018 42.2222 2.0386 35.9000
143.7502 42.1503 4.3121 35.1100
143.5995 42.0785 3.9772 34.4700
143.4499 42.0068 2.8597 34.0700
143.3012 41.9354 0.9649 33.9000
143.1540 41.8647 0.4879 34.0200
145.7124 42.9012 0.7574 38.8800
145.5531 42.8302 0.7600 38.7900
145.3942 42.7591 1.3343 38.4500
145.2356 42.6878 0.9625 37.8900
145.0775 42.6162 1.2281 37.1100
144.9204 42.5446 0.5885 36.2100
144.7644 42.4731 1.4855 35.2600
144.6090 42.4014 1.4914 34.3000
144.4544 42.3298 1.8623 33.3700
144.3002 42.2579 2.2525 32.4600
144.1472 42.1864 2.9765 31.6000
143.9946 42.1146 3.1458 30.8400
143.8436 42.0431 6.6052 30.2500
143.6933 41.9714 6.9439 29.8500
143.5438 41.9000 5.4545 29.6300
143.3956 41.8291 2.4113 29.6100
143.2483 41.7586 0.6497 29.8400
145.8034 42.7908 1.2592 31.8900
145.6449 42.7204 0.4541 31.9000
145.4866 42.6495 1.2077 31.8000
145.3281 42.5784 1.0764 31.5000
145.1704 42.5072 1.2607 31.0000
145.0128 42.4360 0.6910 30.3300
144.8565 42.3650 0.8953 29.4800
144.7009 42.2943 1.5538 28.4900
144.5459 42.2232 0.9137 27.5200
144.3936 42.1520 1.6817 26.7600
144.2415 42.0805 2.8042 26.2500
144.0903 42.0087 4.5525 26.0000
143.9396 41.9370 6.1145 25.9400
143.7894 41.8653 6.0732 26.0100
143.6399 41.7940 4.8524 26.1900
143.4912 41.7228 3.4367 26.4500
143.3435 41.6524 1.3656 26.7900
145.8901 42.6823 0.3707 24.8000
145.7313 42.6130 0.4148 24.4900
145.5728 42.5434 1.3371 24.0200
145.4146 42.4736 1.0262 23.3900
145.2577 42.4036 1.4749 22.6300
145.1014 42.3329 1.3019 21.8400
144.9465 42.2619 2.6539 21.0700
144.7933 42.1907 1.2878 20.4400
144.6411 42.1193 0.6167 20.0800
144.4905 42.0481 1.2302 20.0900
144.3403 41.9770 3.5083 20.3400
144.1897 41.9057 3.3260 20.7900
144.0393 41.8343 3.4781 21.3700
143.8892 41.7630 3.5068 22.0200
143.7389 41.6914 3.1782 22.7200
143.5891 41.6200 3.3394 23.4200
143.4397 41.5486 2.1138 24.1400
145.9760 42.5704 0.1442 18.1000
145.8183 42.5006 0.3510 17.7500
145.6611 42.4303 0.7731 17.3700
145.5052 42.3602 0.3627 16.9700
145.3486 42.2895 1.0209 16.4400
145.1947 42.2188 1.2302 16.2100
145.0413 42.1484 1.1135 15.9800
144.8891 42.0781 0.7694 15.9000
144.7397 42.0092 0.3964 15.9400
144.5895 41.9398 0.3193 16.1700
144.4397 41.8707 2.6636 16.5400
144.2897 41.8012 5.0188 17.1400
144.1385 41.7306 4.8903 17.8300
143.9866 41.6594 3.0227 18.5400
143.8357 41.5883 1.6908 19.3600
143.6848 41.5167 2.4267 20.2200
143.5353 41.4457 0.7651 21.1600
146.0647 42.4566 0.1136 15.4600
145.9065 42.3866 0.0000 15.2500
145.7493 42.3167 0.2599 15.0600
145.5928 42.2468 0.3124 14.8000
145.4375 42.1769 0.9398 14.6000
145.2849 42.1076 1.5140 14.4300
145.1326 42.0381 1.2133 14.2900
144.9831 41.9697 1.2428 14.2800
144.8351 41.9021 0.6226 14.4000
144.6876 41.8349 0.2282 14.6500
144.5390 41.7674 1.1967 15.0200
144.3889 41.6987 2.7002 15.4900
144.2365 41.6277 2.7357 16.0100
144.0844 41.5565 1.7511 16.6000
143.9325 41.4850 2.1939 17.2300
143.7809 41.4132 1.0684 17.9400
143.6304 41.3421 0.2365 18.7100
146.1510 42.3464 0.4216 13.8300
145.9933 42.2768 0.0000 13.6200
145.8364 42.2073 0.3011 13.3900
145.6806 42.1376 1.9907 13.1400
145.5264 42.0682 1.5101 12.9300
145.3739 41.9991 2.4039 12.7600
145.2232 41.9304 2.6099 12.6800
145.0748 41.8628 1.4226 12.7000
144.9275 41.7959 1.0688 12.8500
144.7803 41.7294 0.2262 13.1500
144.6318 41.6623 1.2639 13.6000
144.4828 41.5948 2.0595 14.1800
144.3322 41.5256 2.5141 14.8400
144.1798 41.4540 1.3959 15.4300
144.0275 41.3819 2.6366 15.9900
143.8761 41.3104 2.0273 16.5600
143.7254 41.2392 1.3532 17.1900
146.2403 42.2383 0.8715 11.7600
146.0834 42.1689 0.0931 11.6500
145.9264 42.0993 0.7010 11.5100
145.7706 42.0297 2.5868 11.3500
145.6166 41.9604 1.5964 11.2100
145.4643 41.8915 3.3289 11.1100
145.3138 41.8231 4.3275 11.0700
145.1645 41.7551 2.3103 11.1200
145.0162 41.6877 1.5814 11.2800
144.8681 41.6207 1.0480 11.5500
144.7196 41.5535 0.2818 11.9600
144.5717 41.4871 0.5336 12.5200
144.4227 41.4196 0.4745 13.3000
144.2714 41.3489 0.9783 14.1700
144.1197 41.2775 1.5707 14.9200
143.9691 41.2067 1.4661 15.5200
143.8190 41.1362 3.2180 16.1200
146.3311 42.1305 1.2191 9.7900
146.1744 42.0613 0.7974 9.7700
146.0173 41.9916 0.8778 9.7300
145.8611 41.9219 1.9383 9.6600
145.7068 41.8526 4.2242 9.5900
145.5536 41.7834 4.3999 9.5100
145.4018 41.7146 4.1065 9.4700
145.2516 41.6462 2.1131 9.4500
145.1031 41.5788 2.3191 9.5500
144.9557 41.5120 1.1977 9.8400
144.8072 41.4447 0.6853 10.3000
144.6590 41.3777 0.7292 10.8400
144.5118 41.3122 0.4185 11.5300
144.3620 41.2438 1.2289 12.5100
144.2104 41.1721 1.0900 13.5200
144.0595 41.1008 1.5142 14.3600
143.9102 41.0311 4.0505 15.1000
146.4244 42.0241 1.2199 8.2000
146.2620 41.9523 0.6154 8.2900
146.1048 41.8826 0.4721 8.2100
145.9517 41.8143 2.0350 8.1500
145.7958 41.7444 3.3179 8.1400
145.6394 41.6740 1.5438 8.0600
145.4848 41.6040 2.8415 7.9100
145.3336 41.5351 0.6519 7.7400
145.1866 41.4680 0.9961 7.6300
145.0443 41.4044 0.4457 7.8200
144.9003 41.3409 1.1500 8.5100
144.7504 41.2725 0.1209 9.3700
144.6008 41.2046 0.4607 9.9800
144.4524 41.1383 2.2153 10.8200
144.3006 41.0665 1.3595 11.9200
144.1491 40.9942 1.7806 12.9300
143.9997 40.9243 3.2528 13.8700
