145.7475 41.7416 0.0024 1.7200
145.5802 41.6696 0.0416 1.7200
145.4129 41.5976 0.0472 1.7200
145.2456 41.5257 0.0473 1.7200
145.0783 41.4537 0.0487 1.7200
144.9110 41.3817 0.0031 1.7200
144.7437 41.3097 0.0678 1.7200
144.5764 41.2377 0.0097 1.7200
144.4091 41.1657 0.0108 1.7200
144.2418 41.0937 0.0216 1.7200
144.0745 41.0217 0.0815 1.7200
143.9072 40.9497 0.0268 1.7200
143.7399 40.8777 0.0191 1.7200
143.5726 40.8057 0.0134 1.7200
143.4053 40.7337 0.0861 1.7200
143.2380 40.6617 0.0463 1.7200
143.0707 40.5897 0.0492 1.7200
145.6949 41.8095 0.0654 4.3806
145.5276 41.7375 0.8196 4.3806
145.3603 41.6655 0.8927 4.3806
145.1930 41.5935 0.0365 4.3806
145.0257 41.5215 0.0085 4.3806
144.8584 41.4495 0.0383 4.3806
144.6911 41.3775 0.1737 4.3806
144.5238 41.3055 0.4185 4.3806
144.3565 41.2335 0.0449 4.3806
144.1892 41.1615 0.4612 4.3806
144.0220 41.0895 0.1022 4.3806
143.8547 41.0175 0.1394 4.3806
143.6874 40.9455 0.0018 4.3806
143.5201 40.8735 0.2639 4.3806
143.3528 40.8015 0.4380 4.3806
143.1855 40.7295 1.0106 4.3806
143.0182 40.6576 0.0428 4.3806
145.6424 41.8773 0.0938 7.0412
145.4751 41.8053 1.5295 7.0412
145.3078 41.7333 1.8142 7.0412
145.1405 41.6613 0.0447 7.0412
144.9732 41.5893 0.1205 7.0412
144.8059 41.5173 0.6087 7.0412
144.6386 41.4453 2.0959 7.0412
144.4713 41.3733 0.9508 7.0412
144.3040 41.3013 0.5623 7.0412
144.1367 41.2293 0.3659 7.0412
143.9694 41.1573 0.2113 7.0412
143.8021 41.0853 0.5695 7.0412
143.6348 41.0134 0.5664 7.0412
143.4675 40.9414 0.1813 7.0412
143.3002 40.8694 1.0545 7.0412
143.1329 40.7974 1.4775 7.0412
142.9656 40.7254 0.0634 7.0412
145.5899 41.9451 0.0080 9.7017
145.4226 41.8731 1.7000 9.7017
145.2553 41.8011 2.1373 9.7017
145.0880 41.7291 0.1830 9.7017
144.9207 41.6571 0.0934 9.7017
144.7534 41.5851 0.3309 9.7017
144.5861 41.5131 0.7806 9.7017
144.4188 41.4411 0.4270 9.7017
144.2515 41.3692 0.1412 9.7017
144.0842 41.2972 0.2153 9.7017
143.9169 41.2252 1.0389 9.7017
143.7496 41.1532 0.5101 9.7017
143.5823 41.0812 0.4023 9.7017
143.4150 41.0092 0.0826 9.7017
143.2477 40.9372 0.3264 9.7017
143.0804 40.8652 0.0739 9.7017
142.9131 40.7932 0.0725 9.7017
145.5373 42.0129 0.0594 12.3623
145.3700 41.9409 1.5270 12.3623
145.2027 41.8689 0.2030 12.3623
145.0354 41.7969 0.1576 12.3623
144.8681 41.7250 0.6374 12.3623
144.7008 41.6530 0.0739 12.3623
144.5335 41.5810 1.1359 12.3623
144.3662 41.5090 0.6061 12.3623
144.1989 41.4370 0.6353 12.3623
144.0316 41.3650 0.5960 12.3623
143.8643 41.2930 0.8254 12.3623
143.6970 41.2210 0.9937 12.3623
143.5297 41.1490 0.8540 12.3623
143.3624 41.0770 0.4210 12.3623
143.1952 41.0050 0.0226 12.3623
143.0279 40.9330 0.7870 12.3623
142.8606 40.8610 0.0411 12.3623
145.4848 42.0808 0.0783 15.0229
145.3175 42.0088 1.1298 15.0229
145.1502 41.9368 0.0256 15.0229
144.9829 41.8648 0.2025 15.0229
144.8156 41.7928 0.4975 15.0229
144.6483 41.7208 0.0403 15.0229
144.4810 41.6488 0.5128 15.0229
144.3137 41.5768 0.0214 15.0229
144.1464 41.5048 0.8586 15.0229
143.9791 41.4328 0.3802 15.0229
143.8118 41.3608 0.0746 15.0229
143.6445 41.2888 0.2632 15.0229
143.4772 41.2168 0.8990 15.0229
143.3099 41.1448 0.9454 15.0229
143.1426 41.0728 0.9768 15.0229
142.9753 41.0008 1.3779 15.0229
142.8080 40.9288 0.0606 15.0229
145.4323 42.1486 0.0373 17.6835
145.2650 42.0766 1.6076 17.6835
145.0977 42.0046 1.3682 17.6835
144.9304 41.9326 0.4269 17.6835
144.7631 41.8606 1.0807 17.6835
144.5958 41.7886 0.4186 17.6835
144.4285 41.7166 0.4840 17.6835
144.2612 41.6446 0.1082 17.6835
144.0939 41.5726 1.2842 17.6835
143.9266 41.5006 0.3873 17.6835
143.7593 41.4286 0.0109 17.6835
143.5920 41.3566 0.1118 17.6835
143.4247 41.2846 0.1720 17.6835
143.2574 41.2126 0.7797 17.6835
143.0901 41.1407 0.3558 17.6835
142.9228 41.0687 0.1870 17.6835
142.7555 40.9967 0.0359 17.6835
145.3797 42.2164 0.0361 20.3441
145.2124 42.1444 0.0447 20.3441
145.0451 42.0724 0.4677 20.3441
144.8778 42.0004 0.9157 20.3441
144.7105 41.9284 0.5016 20.3441
144.5432 41.8564 0.1203 20.3441
144.3759 41.7844 0.5910 20.3441
144.2086 41.7124 2.2387 20.3441
144.0413 41.6404 2.1932 20.3441
143.8740 41.5684 1.6253 20.3441
143.7067 41.4965 1.1352 20.3441
143.5394 41.4245 1.4256 20.3441
143.3721 41.3525 1.1575 20.3441
143.2048 41.2805 0.9940 20.3441
143.0375 41.2085 0.4544 20.3441
142.8702 41.1365 0.3543 20.3441
142.7029 41.0645 0.0709 20.3441
145.3272 42.2842 0.0329 23.0047
145.1599 42.2122 0.0368 23.0047
144.9926 42.1402 0.1208 23.0047
144.8253 42.0682 0.3473 23.0047
144.6580 41.9962 0.2285 23.0047
144.4907 41.9242 0.0336 23.0047
144.3234 41.8523 0.8541 23.0047
144.1561 41.7803 2.0294 23.0047
143.9888 41.7083 2.8569 23.0047
143.8215 41.6363 2.3767 23.0047
143.6542 41.5643 0.4790 23.0047
143.4869 41.4923 0.3316 23.0047
143.3196 41.4203 0.4967 23.0047
143.1523 41.3483 0.3675 23.0047
142.9850 41.2763 0.5423 23.0047
142.8177 41.2043 1.0332 23.0047
142.6504 41.1323 0.0186 23.0047
145.2747 42.3520 0.0033 25.6652
145.1074 42.2800 0.0223 25.6652
144.9401 42.2081 0.5680 25.6652
144.7728 42.1361 0.9887 25.6652
144.6055 42.0641 0.2585 25.6652
144.4382 41.9921 0.1240 25.6652
144.2709 41.9201 1.8502 25.6652
144.1036 41.8481 4.1851 25.6652
143.9363 41.7761 4.7154 25.6652
143.7690 41.7041 2.6009 25.6652
143.6017 41.6321 0.7137 25.6652
143.4344 41.5601 0.1051 25.6652
143.2671 41.4881 0.2489 25.6652
143.0998 41.4161 0.2891 25.6652
142.9325 41.3441 0.7954 25.6652
142.7652 41.2721 1.3039 25.6652
142.5979 41.2001 0.0740 25.6652
145.2221 42.4199 0.0367 28.3258
145.0548 42.3479 0.0580 28.3258
144.8875 42.2759 0.0297 28.3258
144.7202 42.2039 0.7521 28.3258
144.5529 42.1319 0.3588 28.3258
144.3856 42.0599 0.1389 28.3258
144.2183 41.9879 2.2644 28.3258
144.0510 41.9159 4.8117 28.3258
143.8837 41.8439 4.1165 28.3258
143.7164 41.7719 2.5699 28.3258
143.5491 41.6999 0.8095 28.3258
143.3818 41.6279 0.0191 28.3258
143.2145 41.5559 0.4848 28.3258
143.0472 41.4839 0.0150 28.3258
142.8799 41.4119 1.1914 28.3258
142.7126 41.3400 2.7204 28.3258
142.5453 41.2680 0.0121 28.3258
145.1696 42.4877 0.0785 30.9864
145.0023 42.4157 0.0010 30.9864
144.8350 42.3437 0.3014 30.9864
144.6677 42.2717 1.0985 30.9864
144.5004 42.1997 0.2115 30.9864
144.3331 42.1277 0.0556 30.9864
144.1658 42.0557 1.8172 30.9864
143.9985 41.9837 3.8472 30.9864
143.8312 41.9117 3.3948 30.9864
143.6639 41.8397 1.9834 30.9864
143.4966 41.7677 1.8483 30.9864
143.3293 41.6958 0.0615 30.9864
143.1620 41.6238 0.5820 30.9864
142.9947 41.5518 0.0334 30.9864
142.8274 41.4798 1.7022 30.9864
142.6601 41.4078 2.3716 30.9864
142.4928 41.3358 0.0881 30.9864
145.1171 42.5555 0.0340 33.6470
144.9498 42.4835 0.0332 33.6470
144.7825 42.4115 0.7361 33.6470
144.6152 42.3395 2.1402 33.6470
144.4479 42.2675 0.5706 33.6470
144.2806 42.1955 0.3272 33.6470
144.1133 42.1235 0.0942 33.6470
143.9460 42.0516 2.9870 33.6470
143.7787 41.9796 5.0802 33.6470
143.6114 41.9076 4.5358 33.6470
143.4441 41.8356 3.5162 33.6470
143.2768 41.7636 0.9167 33.6470
143.1095 41.6916 1.2576 33.6470
142.9422 41.6196 0.1560 33.6470
142.7749 41.5476 0.1711 33.6470
142.6076 41.4756 0.0286 33.6470
142.4403 41.4036 0.0401 33.6470
145.0645 42.6233 0.0160 36.3076
144.8972 42.5513 1.0970 36.3076
144.7299 42.4793 1.1686 36.3076
144.5626 42.4074 1.9107 36.3076
144.3953 42.3354 0.0183 36.3076
144.2280 42.2634 0.8059 36.3076
144.0607 42.1914 2.1587 36.3076
143.8934 42.1194 5.4348 36.3076
143.7261 42.0474 7.7461 36.3076
143.5588 41.9754 6.7722 36.3076
143.3915 41.9034 5.2232 36.3076
143.2242 41.8314 2.0873 36.3076
143.0569 41.7594 1.3084 36.3076
142.8896 41.6874 0.0327 36.3076
142.7223 41.6154 0.1025 36.3076
142.5550 41.5434 0.3671 36.3076
142.3877 41.4714 0.0259 36.3076
145.0120 42.6912 0.0596 38.9682
144.8447 42.6192 0.7168 38.9682
144.6774 42.5472 0.0306 38.9682
144.5101 42.4752 0.9172 38.9682
144.3428 42.4032 0.0915 38.9682
144.1755 42.3312 1.2547 38.9682
144.0082 42.2592 2.5387 38.9682
143.8409 42.1872 4.4900 38.9682
143.6736 42.1152 6.7648 38.9682
143.5063 42.0432 7.3161 38.9682
143.3390 41.9712 5.8325 38.9682
143.1717 41.8992 2.7464 38.9682
143.0044 41.8272 1.1485 38.9682
142.8371 41.7552 0.0039 38.9682
142.6698 41.6832 0.0611 38.9682
142.5025 41.6112 0.6997 38.9682
142.3352 41.5392 0.0217 38.9682
144.9594 42.7590 0.0101 41.6287
144.7921 42.6870 0.4825 41.6287
144.6248 42.6150 0.0459 41.6287
144.4576 42.5430 0.0887 41.6287
144.2903 42.4710 0.0725 41.6287
144.1230 42.3990 0.9608 41.6287
143.9557 42.3270 1.2652 41.6287
143.7884 42.2550 2.8962 41.6287
143.6211 42.1830 4.3624 41.6287
143.4538 42.1110 5.0342 41.6287
143.2865 42.0390 3.7989 41.6287
143.1192 41.9670 1.8765 41.6287
142.9519 41.8950 0.0149 41.6287
142.7846 41.8231 0.0547 41.6287
142.6173 41.7511 0.4362 41.6287
142.4500 41.6791 0.6437 41.6287
142.2827 41.6071 0.0102 41.6287
144.9069 42.8268 0.0507 44.2893
144.7396 42.7548 1.3937 44.2893
144.5723 42.6828 0.7041 44.2893
144.4050 42.6108 0.1031 44.2893
144.2377 42.5388 0.0116 44.2893
144.0704 42.4668 1.1205 44.2893
143.9031 42.3948 1.2785 44.2893
143.7358 42.3228 1.5966 44.2893
143.5685 42.2508 2.9223 44.2893
143.4012 42.1789 3.5919 44.2893
143.2339 42.1069 1.4641 44.2893
143.0666 42.0349 0.5517 44.2893
142.8993 41.9629 0.2847 44.2893
142.7320 41.8909 0.9441 44.2893
142.5647 41.8189 1.1868 44.2893
142.3974 41.7469 1.5324 44.2893
142.2301 41.6749 0.0775 44.2893
144.8544 42.8946 0.0841 46.9499
144.6871 42.8226 2.5000 46.9499
144.5198 42.7506 1.4321 46.9499
144.3525 42.6786 0.0763 46.9499
144.1852 42.6066 0.0242 46.9499
144.0179 42.5347 2.1477 46.9499
143.8506 42.4627 3.1494 46.9499
143.6833 42.3907 2.1977 46.9499
143.5160 42.3187 1.7028 46.9499
143.3487 42.2467 2.1744 46.9499
143.1814 42.1747 0.4624 46.9499
143.0141 42.1027 0.2216 46.9499
142.8468 42.0307 0.0149 46.9499
142.6795 41.9587 0.0485 46.9499
142.5122 41.8867 0.6787 46.9499
142.3449 41.8147 1.2778 46.9499
142.1776 41.7427 0.0270 46.9499
144.8018 42.9624 0.0020 49.6105
144.6345 42.8905 2.0189 49.6105
144.4672 42.8185 2.1181 49.6105
144.2999 42.7465 1.4807 49.6105
144.1326 42.6745 0.1581 49.6105
143.9653 42.6025 0.0332 49.6105
143.7980 42.5305 2.1891 49.6105
143.6308 42.4585 1.8841 49.6105
143.4635 42.3865 1.1875 49.6105
143.2962 42.3145 0.4508 49.6105
143.1289 42.2425 0.1575 49.6105
142.9616 42.1705 0.0201 49.6105
142.7943 42.0985 0.1658 49.6105
142.6270 42.0265 0.0138 49.6105
142.4597 41.9545 0.8061 49.6105
142.2924 41.8825 0.9447 49.6105
142.1251 41.8105 0.0852 49.6105
144.7493 43.0303 0.0359 52.2711
144.5820 42.9583 0.0151 52.2711
144.4147 42.8863 0.7749 52.2711
144.2474 42.8143 1.4619 52.2711
144.0801 42.7423 0.4537 52.2711
143.9128 42.6703 0.0866 52.2711
143.7455 42.5983 0.0320 52.2711
143.5782 42.5263 0.1511 52.2711
143.4109 42.4543 0.3414 52.2711
143.2436 42.3823 0.7155 52.2711
143.0763 42.3103 0.2659 52.2711
142.9090 42.2383 0.1063 52.2711
142.7417 42.1663 0.2339 52.2711
142.5744 42.0943 0.1402 52.2711
142.4071 42.0224 0.1586 52.2711
142.2398 41.9504 0.3216 52.2711
142.0725 41.8784 0.0172 52.2711
144.6968 43.0981 0.0301 54.9317
144.5295 43.0261 0.1859 54.9317
144.3622 42.9541 0.0670 54.9317
144.1949 42.8821 0.7764 54.9317
144.0276 42.8101 0.9288 54.9317
143.8603 42.7381 0.8335 54.9317
143.6930 42.6661 0.0577 54.9317
143.5257 42.5941 0.1543 54.9317
143.3584 42.5221 0.0349 54.9317
143.1911 42.4501 0.1256 54.9317
143.0238 42.3782 0.0371 54.9317
142.8565 42.3062 0.4452 54.9317
142.6892 42.2342 1.2051 54.9317
142.5219 42.1622 0.1398 54.9317
142.3546 42.0902 0.1183 54.9317
142.1873 42.0182 0.0734 54.9317
142.0200 41.9462 0.0354 54.9317
144.6442 43.1659 0.0004 57.5922
144.4769 43.0939 0.9204 57.5922
144.3096 43.0219 0.1099 57.5922
144.1423 42.9499 0.4778 57.5922
143.9750 42.8779 1.2699 57.5922
143.8077 42.8059 1.1819 57.5922
143.6404 42.7340 0.0148 57.5922
143.4731 42.6620 0.0029 57.5922
143.3058 42.5900 0.0045 57.5922
143.1385 42.5180 0.0399 57.5922
142.9712 42.4460 0.0829 57.5922
142.8040 42.3740 0.0216 57.5922
142.6367 42.3020 0.7416 57.5922
142.4694 42.2300 0.6141 57.5922
142.3021 42.1580 0.0585 57.5922
142.1348 42.0860 0.0509 57.5922
141.9675 42.0140 0.0332 57.5922
144.5917 43.2337 0.0912 60.2528
144.4244 43.1617 0.9990 60.2528
144.2571 43.0898 0.2705 60.2528
144.0898 43.0178 0.0347 60.2528
143.9225 42.9458 0.8475 60.2528
143.7552 42.8738 0.3448 60.2528
143.5879 42.8018 0.6938 60.2528
143.4206 42.7298 0.1112 60.2528
143.2533 42.6578 0.0041 60.2528
143.0860 42.5858 0.0773 60.2528
142.9187 42.5138 0.4736 60.2528
142.7514 42.4418 0.3495 60.2528
142.5841 42.3698 0.6261 60.2528
142.4168 42.2978 0.9212 60.2528
142.2495 42.2258 1.2282 60.2528
142.0822 42.1538 1.5017 60.2528
141.9149 42.0818 0.0036 60.2528
144.5392 43.3016 0.0072 62.9134
144.3719 43.2296 0.1428 62.9134
144.2046 43.1576 0.0503 62.9134
144.0373 43.0856 0.0201 62.9134
143.8700 43.0136 0.0763 62.9134
143.7027 42.9416 0.1335 62.9134
143.5354 42.8696 0.0157 62.9134
143.3681 42.7976 0.0100 62.9134
143.2008 42.7256 0.0837 62.9134
143.0335 42.6536 0.5824 62.9134
142.8662 42.5816 0.4440 62.9134
142.6989 42.5096 1.0604 62.9134
142.5316 42.4376 1.5477 62.9134
142.3643 42.3656 1.6669 62.9134
142.1970 42.2936 0.9223 62.9134
142.0297 42.2216 1.3117 62.9134
141.8624 42.1497 0.0023 62.9134
144.4866 43.3694 0.0615 65.5740
144.3193 43.2974 0.0891 65.5740
144.1520 43.2254 0.0058 65.5740
143.9847 43.1534 0.0193 65.5740
143.8174 43.0814 0.0139 65.5740
143.6501 43.0094 0.0302 65.5740
143.4828 42.9374 0.0455 65.5740
143.3155 42.8654 0.0871 65.5740
143.1482 42.7934 0.0819 65.5740
142.9809 42.7214 0.0131 65.5740
142.8136 42.6494 0.0854 65.5740
142.6463 42.5774 0.0419 65.5740
142.4790 42.5055 0.0811 65.5740
142.3117 42.4335 0.0108 65.5740
142.1444 42.3615 0.0836 65.5740
141.9772 42.2895 0.0027 65.5740
141.8099 42.2175 0.0171 65.5740
