96.0770 2.2179 0.0513 17.4200
96.0202 2.2622 0.0045 17.4200
95.9634 2.3066 0.0021 17.4200
95.9066 2.3509 0.0077 17.4200
95.8498 2.3952 0.0002 17.4200
95.7930 2.4395 0.0954 17.4200
95.7362 2.4839 0.0913 17.4200
95.6794 2.5282 0.0016 17.4200
95.6226 2.5725 0.0031 17.4200
95.5658 2.6168 0.0001 17.4200
95.5090 2.6612 0.0020 17.4200
95.4522 2.7055 0.0002 17.4200
95.3954 2.7498 0.0011 17.4200
95.3386 2.7941 0.0168 17.4200
95.2818 2.8385 0.0063 17.4200
96.1177 2.2699 0.0049 18.9793
96.0609 2.3143 0.0045 18.9793
96.0041 2.3586 0.0253 18.9793
95.9473 2.4029 0.0086 18.9793
95.8905 2.4472 0.0030 18.9793
95.8337 2.4916 0.0623 18.9793
95.7769 2.5359 0.0644 18.9793
95.7201 2.5802 0.0355 18.9793
95.6633 2.6245 0.0627 18.9793
95.6065 2.6689 0.0003 18.9793
95.5497 2.7132 0.0089 18.9793
95.4929 2.7575 0.0159 18.9793
95.4361 2.8018 0.0005 18.9793
95.3793 2.8462 0.0097 18.9793
95.3225 2.8905 0.0069 18.9793
96.1584 2.3220 0.0064 20.5387
96.1016 2.3663 0.0018 20.5387
96.0448 2.4106 0.2024 20.5387
95.9880 2.4549 0.0021 20.5387
95.9312 2.4993 0.1947 20.5387
95.8744 2.5436 0.2534 20.5387
95.8176 2.5879 0.2237 20.5387
95.7608 2.6322 0.1408 20.5387
95.7040 2.6766 0.0443 20.5387
95.6472 2.7209 0.0521 20.5387
95.5904 2.7652 0.0067 20.5387
95.5336 2.8095 0.0008 20.5387
95.4768 2.8539 0.0049 20.5387
95.4200 2.8982 0.0055 20.5387
95.3632 2.9425 0.0175 20.5387
96.1991 2.3740 0.0022 22.0980
96.1423 2.4183 0.1111 22.0980
96.0855 2.4626 0.0003 22.0980
96.0287 2.5070 0.1088 22.0980
95.9719 2.5513 0.1092 22.0980
95.9151 2.5956 0.0342 22.0980
95.8583 2.6399 0.0017 22.0980
95.8015 2.6843 0.0914 22.0980
95.7447 2.7286 0.0426 22.0980
95.6879 2.7729 0.1244 22.0980
95.6311 2.8172 0.0063 22.0980
95.5743 2.8616 0.0766 22.0980
95.5175 2.9059 0.0056 22.0980
95.4607 2.9502 0.0041 22.0980
95.4039 2.9945 0.0004 22.0980
96.2398 2.4260 0.0003 23.6574
96.1830 2.4703 0.0029 23.6574
96.1262 2.5147 0.2440 23.6574
96.0694 2.5590 0.4024 23.6574
96.0126 2.6033 0.2226 23.6574
95.9558 2.6476 0.1114 23.6574
95.8990 2.6920 0.2174 23.6574
95.8422 2.7363 0.0909 23.6574
95.7854 2.7806 0.0421 23.6574
95.7286 2.8249 0.3580 23.6574
95.6718 2.8693 0.2524 23.6574
95.6150 2.9136 0.0004 23.6574
95.5582 2.9579 0.0021 23.6574
95.5014 3.0022 0.0079 23.6574
95.4446 3.0466 0.0267 23.6574
96.2804 2.4780 0.0006 25.2167
96.2236 2.5224 0.0009 25.2167
96.1668 2.5667 0.2311 25.2167
96.1100 2.6110 0.1500 25.2167
96.0533 2.6553 0.6604 25.2167
95.9965 2.6997 0.5786 25.2167
95.9397 2.7440 0.6365 25.2167
95.8829 2.7883 0.1854 25.2167
95.8261 2.8326 0.1029 25.2167
95.7693 2.8770 0.1734 25.2167
95.7125 2.9213 0.2050 25.2167
95.6557 2.9656 0.0904 25.2167
95.5989 3.0099 0.1928 25.2167
95.5421 3.0543 0.0105 25.2167
95.4853 3.0986 0.0537 25.2167
96.3211 2.5301 0.0052 26.7760
96.2643 2.5744 0.0004 26.7760
96.2075 2.6187 0.0019 26.7760
96.1507 2.6630 0.0800 26.7760
96.0939 2.7074 0.5246 26.7760
96.0371 2.7517 0.6113 26.7760
95.9803 2.7960 0.5399 26.7760
95.9235 2.8403 0.3015 26.7760
95.8667 2.8847 0.1737 26.7760
95.8100 2.9290 0.1654 26.7760
95.7532 2.9733 0.2250 26.7760
95.6964 3.0176 0.2096 26.7760
95.6396 3.0620 0.5068 26.7760
95.5828 3.1063 0.0069 26.7760
95.5260 3.1506 0.0068 26.7760
96.3618 2.5821 0.0008 28.3354
96.3050 2.6264 0.0171 28.3354
96.2482 2.6707 0.0001 28.3354
96.1914 2.7151 0.4609 28.3354
96.1346 2.7594 0.4270 28.3354
96.0778 2.8037 0.5718 28.3354
96.0210 2.8480 0.6463 28.3354
95.9642 2.8924 0.6616 28.3354
95.9074 2.9367 0.3803 28.3354
95.8506 2.9810 0.2487 28.3354
95.7938 3.0253 0.1408 28.3354
95.7370 3.0697 0.0006 28.3354
95.6802 3.1140 0.3452 28.3354
95.6234 3.1583 0.0031 28.3354
95.5667 3.2026 0.0167 28.3354
96.4025 2.6341 0.0011 29.8947
96.3457 2.6784 0.0215 29.8947
96.2889 2.7228 0.0009 29.8947
96.2321 2.7671 0.5486 29.8947
96.1753 2.8114 0.4981 29.8947
96.1185 2.8557 0.7577 29.8947
96.0617 2.9001 1.0206 29.8947
96.0049 2.9444 0.9858 29.8947
95.9481 2.9887 0.6687 29.8947
95.8913 3.0330 0.6748 29.8947
95.8345 3.0774 0.4021 29.8947
95.7777 3.1217 0.0048 29.8947
95.7209 3.1660 0.0043 29.8947
95.6641 3.2103 0.0063 29.8947
95.6073 3.2547 0.0070 29.8947
96.4432 2.6861 0.0085 31.4540
96.3864 2.7305 0.0023 31.4540
96.3296 2.7748 0.0025 31.4540
96.2728 2.8191 0.1509 31.4540
96.2160 2.8634 0.5262 31.4540
96.1592 2.9078 1.0795 31.4540
96.1024 2.9521 1.6124 31.4540
96.0456 2.9964 1.6431 31.4540
95.9888 3.0407 1.2405 31.4540
95.9320 3.0851 1.0605 31.4540
95.8752 3.1294 0.8106 31.4540
95.8184 3.1737 0.4920 31.4540
95.7616 3.2180 0.0063 31.4540
95.7048 3.2624 0.0003 31.4540
95.6480 3.3067 0.0000 31.4540
96.4839 2.7382 0.0055 33.0134
96.4271 2.7825 0.0235 33.0134
96.3703 2.8268 0.0009 33.0134
96.3135 2.8711 0.0072 33.0134
96.2567 2.9155 0.0019 33.0134
96.1999 2.9598 0.9153 33.0134
96.1431 3.0041 1.5222 33.0134
96.0863 3.0484 1.3856 33.0134
96.0295 3.0928 1.0965 33.0134
95.9727 3.1371 0.7185 33.0134
95.9159 3.1814 0.3761 33.0134
95.8591 3.2257 0.0047 33.0134
95.8023 3.2701 0.0037 33.0134
95.7455 3.3144 0.0066 33.0134
95.6887 3.3587 0.0019 33.0134
96.5246 2.7902 0.0242 34.5727
96.4678 2.8345 0.0079 34.5727
96.4110 2.8788 0.0001 34.5727
96.3542 2.9232 0.0128 34.5727
96.2974 2.9675 0.0041 34.5727
96.2406 3.0118 0.4770 34.5727
96.1838 3.0561 0.8040 34.5727
96.1270 3.1005 0.6710 34.5727
96.0702 3.1448 0.5991 34.5727
96.0134 3.1891 0.3766 34.5727
95.9566 3.2334 0.0003 34.5727
95.8998 3.2778 0.0042 34.5727
95.8430 3.3221 0.0100 34.5727
95.7862 3.3664 0.0252 34.5727
95.7294 3.4107 0.0067 34.5727
96.5653 2.8422 0.0000 36.1321
96.5085 2.8865 0.0046 36.1321
96.4517 2.9309 0.0126 36.1321
96.3949 2.9752 0.0036 36.1321
96.3381 3.0195 0.0119 36.1321
96.2813 3.0638 0.0010 36.1321
96.2245 3.1082 0.0051 36.1321
96.1677 3.1525 0.0019 36.1321
96.1109 3.1968 0.0019 36.1321
96.0541 3.2411 0.0014 36.1321
95.9973 3.2855 0.0118 36.1321
95.9405 3.3298 0.0064 36.1321
95.8837 3.3741 0.0117 36.1321
95.8269 3.4184 0.0006 36.1321
95.7701 3.4628 0.0022 36.1321
96.6060 2.8942 0.0059 37.6914
96.5492 2.9386 0.0281 37.6914
96.4924 2.9829 0.0020 37.6914
96.4356 3.0272 0.0180 37.6914
96.3788 3.0715 0.0004 37.6914
96.3220 3.1159 0.0069 37.6914
96.2652 3.1602 0.0164 37.6914
96.2084 3.2045 0.0337 37.6914
96.1516 3.2488 0.0007 37.6914
96.0948 3.2932 0.0003 37.6914
96.0380 3.3375 0.0182 37.6914
95.9812 3.3818 0.0060 37.6914
95.9244 3.4261 0.0038 37.6914
95.8676 3.4705 0.0039 37.6914
95.8108 3.5148 0.0085 37.6914
96.6467 2.9463 0.0081 39.2507
96.5899 2.9906 0.0076 39.2507
96.5331 3.0349 0.0365 39.2507
96.4763 3.0792 0.0126 39.2507
96.4195 3.1236 0.0020 39.2507
96.3627 3.1679 0.0078 39.2507
96.3059 3.2122 0.0214 39.2507
96.2491 3.2565 0.0120 39.2507
96.1923 3.3009 0.0619 39.2507
96.1355 3.3452 0.0161 39.2507
96.0787 3.3895 0.0148 39.2507
96.0219 3.4338 0.0083 39.2507
95.9651 3.4782 0.0180 39.2507
95.9083 3.5225 0.0025 39.2507
95.8515 3.5668 0.0183 39.2507
96.6874 2.9983 0.0054 40.8101
96.6306 3.0426 0.0036 40.8101
96.5738 3.0869 0.0045 40.8101
96.5170 3.1313 0.0015 40.8101
96.4602 3.1756 0.0059 40.8101
96.4034 3.2199 0.0451 40.8101
96.3466 3.2642 0.0007 40.8101
96.2898 3.3086 0.0014 40.8101
96.2330 3.3529 0.0041 40.8101
96.1762 3.3972 0.0333 40.8101
96.1194 3.4415 0.0032 40.8101
96.0626 3.4859 0.0079 40.8101
96.0058 3.5302 0.0033 40.8101
95.9490 3.5745 0.0264 40.8101
95.8922 3.6188 0.0014 40.8101
96.7281 3.0503 0.0943 42.3694
96.6713 3.0946 0.0439 42.3694
96.6145 3.1390 0.0487 42.3694
96.5577 3.1833 0.0015 42.3694
96.5009 3.2276 0.0050 42.3694
96.4441 3.2719 0.0031 42.3694
96.3873 3.3163 0.0022 42.3694
96.3305 3.3606 0.0000 42.3694
96.2737 3.4049 0.0036 42.3694
96.2169 3.4492 0.0008 42.3694
96.1601 3.4936 0.0169 42.3694
96.1033 3.5379 0.0478 42.3694
96.0465 3.5822 0.0026 42.3694
95.9897 3.6265 0.0364 42.3694
95.9329 3.6708 0.0220 42.3694
