105.8163 32.3938 0.9430 0.1000
105.7347 32.3372 1.8520 0.1000
105.6531 32.2806 2.6830 0.1000
105.5716 32.2239 3.4550 0.1000
105.4900 32.1673 3.8120 0.1000
105.4084 32.1107 4.0160 0.1000
105.3268 32.0540 4.4590 0.1000
105.2452 31.9974 4.7560 0.1000
105.1637 31.9408 4.9820 0.1000
105.0821 31.8841 5.1090 0.1000
105.0005 31.8275 5.6670 0.1000
104.9189 31.7709 6.2650 0.1000
104.8373 31.7142 7.0530 0.1000
104.7558 31.6576 7.5590 0.1000
104.6742 31.6009 7.7940 0.1000
104.5926 31.5443 7.5810 0.1000
104.5110 31.4877 7.2640 0.1000
104.4294 31.4310 5.9690 0.1000
104.3479 31.3744 4.4000 0.1000
104.2663 31.3178 3.4070 0.1000
104.1847 31.2611 3.3190 0.1000
104.1031 31.2045 3.7680 0.1000
104.0215 31.1479 4.1790 0.1000
103.9400 31.0912 4.2210 0.1000
103.8584 31.0346 4.7000 0.1000
103.7768 30.9780 5.5100 0.1000
103.6952 30.9213 6.5650 0.1000
103.6137 30.8647 7.6960 0.1000
103.5321 30.8081 7.8960 0.1000
103.4505 30.7514 7.1810 0.1000
103.3689 30.6948 5.7190 0.1000
103.2873 30.6382 3.2710 0.1000
105.7743 32.4383 0.8310 4.0744
105.6927 32.3817 1.7440 4.0744
105.6111 32.3250 2.5180 4.0744
105.5295 32.2684 3.3370 4.0744
105.4480 32.2118 3.7420 4.0744
105.3664 32.1551 3.9440 4.0744
105.2848 32.0985 4.3480 4.0744
105.2032 32.0419 4.5430 4.0744
105.1216 31.9852 4.7170 4.0744
105.0401 31.9286 4.7970 4.0744
104.9585 31.8720 5.3690 4.0744
104.8769 31.8153 5.9640 4.0744
104.7953 31.7587 6.5870 4.0744
104.7137 31.7021 7.1380 4.0744
104.6322 31.6454 7.2900 4.0744
104.5506 31.5888 7.2310 4.0744
104.4690 31.5322 6.9260 4.0744
104.3874 31.4755 5.5170 4.0744
104.3058 31.4189 3.9340 4.0744
104.2243 31.3623 3.0400 4.0744
104.1427 31.3056 3.1090 4.0744
104.0611 31.2490 3.6480 4.0744
103.9795 31.1924 3.9310 4.0744
103.8980 31.1357 3.9830 4.0744
103.8164 31.0791 4.4380 4.0744
103.7348 31.0225 5.1790 4.0744
103.6532 30.9658 6.4290 4.0744
103.5716 30.9092 7.7520 4.0744
103.4901 30.8526 8.0090 4.0744
103.4085 30.7959 7.0490 4.0744
103.3269 30.7393 5.4650 4.0744
103.2453 30.6826 2.9960 4.0744
105.7323 32.4828 0.7930 8.0488
105.6507 32.4262 1.6660 8.0488
105.5691 32.3695 2.2360 8.0488
105.4875 32.3129 3.1020 8.0488
105.4059 32.2563 3.5860 8.0488
105.3244 32.1996 3.7830 8.0488
105.2428 32.1430 4.0710 8.0488
105.1612 32.0864 4.1610 8.0488
105.0796 32.0297 4.1830 8.0488
104.9980 31.9731 4.2830 8.0488
104.9165 31.9165 4.7890 8.0488
104.8349 31.8598 5.2150 8.0488
104.7533 31.8032 5.6860 8.0488
104.6717 31.7465 6.2830 8.0488
104.5901 31.6899 6.3850 8.0488
104.5086 31.6333 6.6140 8.0488
104.4270 31.5766 6.0820 8.0488
104.3454 31.5200 4.8890 8.0488
104.2638 31.4634 3.5400 8.0488
104.1823 31.4067 2.5230 8.0488
104.1007 31.3501 2.5740 8.0488
104.0191 31.2935 3.3900 8.0488
103.9375 31.2368 3.5770 8.0488
103.8559 31.1802 3.7060 8.0488
103.7744 31.1236 3.9170 8.0488
103.6928 31.0669 4.8120 8.0488
103.6112 31.0103 6.2700 8.0488
103.5296 30.9537 7.6440 8.0488
103.4480 30.8970 7.8220 8.0488
103.3665 30.8404 6.7730 8.0488
103.2849 30.7838 4.8040 8.0488
103.2033 30.7271 2.5660 8.0488
105.6902 32.5273 0.7940 12.0232
105.6087 32.4706 1.3560 12.0232
105.5271 32.4140 1.8980 12.0232
105.4455 32.3574 2.5980 12.0232
105.3639 32.3007 3.1320 12.0232
105.2823 32.2441 3.1290 12.0232
105.2008 32.1875 3.4850 12.0232
105.1192 32.1308 3.4360 12.0232
105.0376 32.0742 3.5600 12.0232
104.9560 32.0176 3.8710 12.0232
104.8744 31.9609 4.2030 12.0232
104.7929 31.9043 4.3850 12.0232
104.7113 31.8477 4.6560 12.0232
104.6297 31.7910 5.1730 12.0232
104.5481 31.7344 5.3610 12.0232
104.4666 31.6778 5.8420 12.0232
104.3850 31.6211 5.2410 12.0232
104.3034 31.5645 4.1230 12.0232
104.2218 31.5079 2.9380 12.0232
104.1402 31.4512 1.8020 12.0232
104.0587 31.3946 1.5260 12.0232
103.9771 31.3380 2.8430 12.0232
103.8955 31.2813 3.3000 12.0232
103.8139 31.2247 3.4200 12.0232
103.7323 31.1681 3.3800 12.0232
103.6508 31.1114 4.4740 12.0232
103.5692 31.0548 5.9870 12.0232
103.4876 30.9982 7.0090 12.0232
103.4060 30.9415 7.2120 12.0232
103.3244 30.8849 6.1710 12.0232
103.2429 30.8282 3.9020 12.0232
103.1613 30.7716 1.8230 12.0232
105.6482 32.5718 0.7510 15.9976
105.5666 32.5151 1.0150 15.9976
105.4851 32.4585 1.6280 15.9976
105.4035 32.4019 2.0950 15.9976
105.3219 32.3452 2.4590 15.9976
105.2403 32.2886 2.4390 15.9976
105.1587 32.2320 2.6060 15.9976
105.0772 32.1753 2.5490 15.9976
104.9956 32.1187 2.7440 15.9976
104.9140 32.0621 3.3440 15.9976
104.8324 32.0054 3.5220 15.9976
104.7509 31.9488 3.6870 15.9976
104.6693 31.8921 3.5860 15.9976
104.5877 31.8355 3.9690 15.9976
104.5061 31.7789 4.4840 15.9976
104.4245 31.7222 4.7110 15.9976
104.3430 31.6656 4.1880 15.9976
104.2614 31.6090 3.2590 15.9976
104.1798 31.5523 2.0720 15.9976
104.0982 31.4957 0.8530 15.9976
104.0166 31.4391 0.8220 15.9976
103.9351 31.3824 2.1740 15.9976
103.8535 31.3258 2.7920 15.9976
103.7719 31.2692 3.0310 15.9976
103.6903 31.2125 2.7240 15.9976
103.6087 31.1559 3.7610 15.9976
103.5272 31.0993 5.1860 15.9976
103.4456 31.0426 6.1300 15.9976
103.3640 30.9860 5.9740 15.9976
103.2824 30.9294 4.7640 15.9976
103.2008 30.8727 2.6690 15.9976
103.1193 30.8161 1.0560 15.9976
105.6062 32.6162 0.6110 19.9720
105.5246 32.5596 0.8860 19.9720
105.4430 32.5030 1.1550 19.9720
105.3615 32.4463 1.5370 19.9720
105.2799 32.3897 1.6730 19.9720
105.1983 32.3331 1.8120 19.9720
105.1167 32.2764 1.6780 19.9720
105.0352 32.2198 1.8270 19.9720
104.9536 32.1632 1.8490 19.9720
104.8720 32.1065 2.4250 19.9720
104.7904 32.0499 2.7610 19.9720
104.7088 31.9933 3.0460 19.9720
104.6273 31.9366 2.8620 19.9720
104.5457 31.8800 2.9440 19.9720
104.4641 31.8234 3.5330 19.9720
104.3825 31.7667 3.6080 19.9720
104.3009 31.7101 3.0720 19.9720
104.2194 31.6535 2.4240 19.9720
104.1378 31.5968 1.1850 19.9720
104.0562 31.5402 0.2290 19.9720
103.9746 31.4836 1.1350 19.9720
103.8930 31.4269 1.8270 19.9720
103.8115 31.3703 2.1730 19.9720
103.7299 31.3137 2.3550 19.9720
103.6483 31.2570 1.8790 19.9720
103.5667 31.2004 2.7840 19.9720
103.4851 31.1438 3.8780 19.9720
103.4036 31.0871 4.5420 19.9720
103.3220 31.0305 4.2570 19.9720
103.2404 30.9738 3.4230 19.9720
103.1588 30.9172 1.8480 19.9720
103.0772 30.8606 0.6550 19.9720
105.5642 32.6607 0.3320 23.9464
105.4826 32.6041 0.5180 23.9464
105.4010 32.5475 0.6120 23.9464
105.3195 32.4908 1.1050 23.9464
105.2379 32.4342 1.1120 23.9464
105.1563 32.3776 1.1830 23.9464
105.0747 32.3209 0.8740 23.9464
104.9931 32.2643 1.0850 23.9464
104.9116 32.2077 1.0730 23.9464
104.8300 32.1510 1.3380 23.9464
104.7484 32.0944 1.8790 23.9464
104.6668 32.0377 2.0940 23.9464
104.5852 31.9811 2.0360 23.9464
104.5037 31.9245 2.0050 23.9464
104.4221 31.8678 2.2970 23.9464
104.3405 31.8112 2.4390 23.9464
104.2589 31.7546 2.3770 23.9464
104.1773 31.6979 1.5120 23.9464
104.0958 31.6413 0.2010 23.9464
104.0142 31.5847 0.7800 23.9464
103.9326 31.5280 1.0640 23.9464
103.8510 31.4714 1.4320 23.9464
103.7694 31.4148 1.6680 23.9464
103.6879 31.3581 1.7830 23.9464
103.6063 31.3015 1.1970 23.9464
103.5247 31.2449 1.8090 23.9464
103.4431 31.1882 2.6780 23.9464
103.3615 31.1316 2.7410 23.9464
103.2800 31.0750 2.3830 23.9464
103.1984 31.0183 1.6850 23.9464
103.1168 30.9617 1.0480 23.9464
103.0352 30.9051 0.5290 23.9464
105.5222 32.7052 0.0430 27.9208
105.4406 32.6486 0.2050 27.9208
105.3590 32.5919 0.3100 27.9208
105.2774 32.5353 0.6660 27.9208
105.1959 32.4787 0.7070 27.9208
105.1143 32.4220 0.6830 27.9208
105.0327 32.3654 0.3720 27.9208
104.9511 32.3088 0.2610 27.9208
104.8695 32.2521 0.2780 27.9208
104.7880 32.1955 0.4110 27.9208
104.7064 32.1389 0.9630 27.9208
104.6248 32.0822 1.0520 27.9208
104.5432 32.0256 1.3370 27.9208
104.4616 31.9690 1.2480 27.9208
104.3801 31.9123 1.1670 27.9208
104.2985 31.8557 1.2940 27.9208
104.2169 31.7991 1.4110 27.9208
104.1353 31.7424 0.6980 27.9208
104.0537 31.6858 0.0950 27.9208
103.9722 31.6292 0.5740 27.9208
103.8906 31.5725 0.7230 27.9208
103.8090 31.5159 0.9120 27.9208
103.7274 31.4593 1.0530 27.9208
103.6458 31.4026 0.7560 27.9208
103.5643 31.3460 0.5550 27.9208
103.4827 31.2894 0.9670 27.9208
103.4011 31.2327 1.4170 27.9208
103.3195 31.1761 1.4150 27.9208
103.2379 31.1194 1.2280 27.9208
103.1564 31.0628 0.8780 27.9208
103.0748 31.0062 0.5150 27.9208
102.9932 30.9495 0.3370 27.9208
