133.2795 35.3760 0.6864 1.0000
133.2925 35.3614 0.7107 1.0000
133.3055 35.3468 0.4946 1.0000
133.2795 35.3760 0.3355 3.2000
133.2925 35.3614 0.0855 3.2000
133.3055 35.3468 0.1234 3.2000
133.2795 35.3760 0.4634 5.4000
133.2925 35.3614 0.0708 5.4000
133.3055 35.3468 0.1343 5.4000
133.2795 35.3760 0.4940 7.6000
133.2925 35.3614 0.0421 7.6000
133.3055 35.3468 0.2512 7.6000
133.2795 35.3760 0.2059 9.8000
133.2925 35.3614 0.0922 9.8000
133.3055 35.3468 0.3220 9.8000
133.2795 35.3760 0.7623 12.0000
133.2925 35.3614 0.0918 12.0000
133.3055 35.3468 0.1127 12.0000
133.2795 35.3760 1.4588 14.2000
133.2925 35.3614 0.4523 14.2000
133.3055 35.3468 0.5076 14.2000
133.2795 35.3760 1.3775 16.4000
133.2925 35.3614 0.3775 16.4000
133.3055 35.3468 0.3615 16.4000
133.3165 35.3297 0.9738 1.0000
133.3275 35.3141 0.7601 1.0000
133.3165 35.3297 0.6225 3.2000
133.3275 35.3141 0.4762 3.2000
133.3165 35.3297 0.8135 5.4000
133.3275 35.3141 0.2315 5.4000
133.3165 35.3297 0.5905 7.6000
133.3275 35.3141 0.2779 7.6000
133.3165 35.3297 0.3519 9.8000
133.3275 35.3141 0.1354 9.8000
133.3165 35.3297 0.3340 12.0000
133.3275 35.3141 0.1738 12.0000
133.3165 35.3297 0.4149 14.2000
133.3275 35.3141 0.2851 14.2000
133.3165 35.3297 0.4397 16.4000
133.3275 35.3141 0.5643 16.4000
133.3315 35.2957 0.9360 1.0000
133.3451 35.2815 0.6290 1.0000
133.3587 35.2673 1.0516 1.0000
133.3723 35.2531 2.0054 1.0000
133.3315 35.2957 0.9249 3.2000
133.3451 35.2815 0.1672 3.2000
133.3587 35.2673 0.9117 3.2000
133.3723 35.2531 2.2376 3.2000
133.3315 35.2957 0.6527 5.4000
133.3451 35.2815 0.2087 5.4000
133.3587 35.2673 0.1962 5.4000
133.3723 35.2531 0.5523 5.4000
133.3315 35.2957 0.3920 7.6000
133.3451 35.2815 0.1541 7.6000
133.3587 35.2673 0.1219 7.6000
133.3723 35.2531 0.2603 7.6000
133.3315 35.2957 0.1825 9.8000
133.3451 35.2815 0.1381 9.8000
133.3587 35.2673 0.2213 9.8000
133.3723 35.2531 0.4809 9.8000
133.3315 35.2957 0.0407 12.0000
133.3451 35.2815 0.0633 12.0000
133.3587 35.2673 0.2612 12.0000
133.3723 35.2531 0.5889 12.0000
133.3315 35.2957 0.4544 14.2000
133.3451 35.2815 0.4399 14.2000
133.3587 35.2673 0.5999 14.2000
133.3723 35.2531 0.8495 14.2000
133.3315 35.2957 0.3880 16.4000
133.3451 35.2815 0.7156 16.4000
133.3587 35.2673 0.8758 16.4000
133.3723 35.2531 0.9551 16.4000
133.3841 35.2400 2.8302 1.0000
133.3965 35.2251 1.5526 1.0000
133.4088 35.2102 0.7086 1.0000
133.4211 35.1953 0.3384 1.0000
133.4335 35.1804 0.2722 1.0000
133.3793 35.2374 2.5516 3.1347
133.3916 35.2224 1.7961 3.1347
133.4039 35.2075 0.5565 3.1347
133.4163 35.1926 0.0766 3.1347
133.4286 35.1777 0.0417 3.1347
133.3744 35.2347 1.2545 5.2693
133.3867 35.2198 2.2111 5.2693
133.3991 35.2048 0.9114 5.2693
133.4114 35.1899 0.1464 5.2693
133.4237 35.1750 0.0481 5.2693
133.3696 35.2320 0.6728 7.4040
133.3819 35.2171 2.3870 7.4040
133.3942 35.2022 0.9626 7.4040
133.4065 35.1872 0.0000 7.4040
133.4189 35.1723 0.1928 7.4040
133.3647 35.2293 0.8690 9.5386
133.3770 35.2144 2.0191 9.5386
133.3893 35.1995 0.1488 9.5386
133.4017 35.1846 0.0219 9.5386
133.4140 35.1696 0.4470 9.5386
133.3598 35.2267 1.1975 11.6733
133.3722 35.2117 0.4107 11.6733
133.3845 35.1968 0.1594 11.6733
133.3968 35.1819 0.0872 11.6733
133.4091 35.1670 0.4331 11.6733
133.3550 35.2240 1.3306 13.8079
133.3673 35.2091 0.5621 13.8079
133.3796 35.1941 0.0872 13.8079
133.3919 35.1792 0.0000 13.8079
133.4043 35.1643 0.3005 13.8079
133.3501 35.2213 0.4589 15.9426
133.3624 35.2064 0.1765 15.9426
133.3748 35.1915 0.0171 15.9426
133.3871 35.1765 0.1866 15.9426
133.3994 35.1616 0.8093 15.9426
133.2910 35.2953 0.1176 1.0000
133.3122 35.3002 0.4746 1.0000
133.3334 35.3052 1.2347 1.0000
133.2914 35.2943 0.2632 3.1970
133.3125 35.2992 0.4886 3.1970
133.3337 35.3042 0.6420 3.1970
133.2917 35.2933 0.5165 5.3940
133.3129 35.2982 0.3611 5.3940
133.3341 35.3032 0.2359 5.3940
133.2921 35.2923 0.6757 7.5910
133.3132 35.2972 0.3166 7.5910
133.3344 35.3022 0.1985 7.5910
133.2924 35.2913 0.9511 9.7879
133.3136 35.2962 0.5661 9.7879
133.3348 35.3012 0.3348 9.7879
133.2928 35.2903 0.7904 11.9849
133.3139 35.2952 0.8236 11.9849
133.3351 35.3002 0.4028 11.9849
133.2931 35.2893 0.2624 14.1819
133.3143 35.2942 0.5099 14.1819
133.3355 35.2992 1.1216 14.1819
133.2935 35.2883 0.4008 16.3789
133.3146 35.2932 0.3209 16.3789
133.3358 35.2982 0.8144 16.3789
