101.6928 -6.3399 0.0009 9.9736
101.5841 -6.1961 0.0111 9.9736
101.4754 -6.0524 0.2996 9.9736
101.3668 -5.9087 0.3018 9.9736
101.2581 -5.7649 0.3374 9.9736
101.1495 -5.6212 0.7771 9.9736
101.0408 -5.4774 1.0957 9.9736
100.9321 -5.3337 1.4330 9.9736
100.8235 -5.1899 1.7348 9.9736
100.7148 -5.0462 1.3839 9.9736
100.6062 -4.9025 1.0354 9.9736
100.4975 -4.7587 0.6584 9.9736
100.3888 -4.6150 0.3693 9.9736
100.2802 -4.4712 0.3593 9.9736
100.1715 -4.3275 0.0888 9.9736
100.0629 -4.1837 0.0180 9.9736
99.9542 -4.0400 0.0701 9.9736
99.8455 -3.8963 0.0061 9.9736
99.7369 -3.7525 0.0091 9.9736
99.6282 -3.6088 0.0020 9.9736
99.5196 -3.4650 0.0067 9.9736
99.4109 -3.3213 0.0037 9.9736
99.3022 -3.1775 0.0050 9.9736
99.1936 -3.0338 0.0034 9.9736
99.0849 -2.8901 0.0014 9.9736
98.9763 -2.7463 0.0126 9.9736
98.8676 -2.6026 0.0112 9.9736
98.7589 -2.4588 0.0206 9.9736
101.7950 -6.2631 0.0063 12.9884
101.6864 -6.1193 0.0168 12.9884
101.5777 -5.9756 0.0794 12.9884
101.4690 -5.8318 0.0129 12.9884
101.3604 -5.6881 0.0355 12.9884
101.2517 -5.5444 0.6412 12.9884
101.1431 -5.4006 1.2903 12.9884
101.0344 -5.2569 1.7704 12.9884
100.9257 -5.1131 2.0337 12.9884
100.8171 -4.9694 1.8673 12.9884
100.7084 -4.8256 1.5100 12.9884
100.5998 -4.6819 1.1021 12.9884
100.4911 -4.5382 0.8473 12.9884
100.3824 -4.3944 0.5733 12.9884
100.2738 -4.2507 0.3410 12.9884
100.1651 -4.1069 0.1769 12.9884
100.0565 -3.9632 0.0062 12.9884
99.9478 -3.8194 0.1768 12.9884
99.8391 -3.6757 0.5852 12.9884
99.7305 -3.5320 0.4584 12.9884
99.6218 -3.3882 0.0717 12.9884
99.5132 -3.2445 0.0007 12.9884
99.4045 -3.1007 0.0356 12.9884
99.2958 -2.9570 0.0069 12.9884
99.1872 -2.8132 0.0080 12.9884
99.0785 -2.6695 0.0161 12.9884
98.9699 -2.5258 0.0085 12.9884
98.8612 -2.3820 0.0046 12.9884
101.8973 -6.1863 0.0006 16.0031
101.7886 -6.0425 0.0018 16.0031
101.6800 -5.8988 0.0030 16.0031
101.5713 -5.7550 0.0009 16.0031
101.4626 -5.6113 0.0374 16.0031
101.3540 -5.4675 0.7567 16.0031
101.2453 -5.3238 1.4278 16.0031
101.1367 -5.1801 1.7443 16.0031
101.0280 -5.0363 1.9262 16.0031
100.9193 -4.8926 1.8513 16.0031
100.8107 -4.7488 1.6658 16.0031
100.7020 -4.6051 1.5076 16.0031
100.5934 -4.4613 1.4111 16.0031
100.4847 -4.3176 1.2617 16.0031
100.3760 -4.1739 0.9536 16.0031
100.2674 -4.0301 0.8559 16.0031
100.1587 -3.8864 0.8669 16.0031
100.0501 -3.7426 1.2405 16.0031
99.9414 -3.5989 1.7333 16.0031
99.8327 -3.4551 1.4129 16.0031
99.7241 -3.3114 0.6271 16.0031
99.6154 -3.1677 0.0155 16.0031
99.5068 -3.0239 0.0588 16.0031
99.3981 -2.8802 0.0076 16.0031
99.2894 -2.7364 0.0090 16.0031
99.1808 -2.5927 0.0007 16.0031
99.0721 -2.4489 0.0035 16.0031
98.9635 -2.3052 0.0405 16.0031
101.9995 -6.1094 0.0056 19.0178
101.8909 -5.9657 0.0050 19.0178
101.7822 -5.8220 0.0037 19.0178
101.6736 -5.6782 0.0151 19.0178
101.5649 -5.5345 0.1834 19.0178
101.4562 -5.3907 0.9212 19.0178
101.3476 -5.2470 1.2824 19.0178
101.2389 -5.1032 1.5433 19.0178
101.1303 -4.9595 1.9755 19.0178
101.0216 -4.8158 2.0166 19.0178
100.9129 -4.6720 1.9054 19.0178
100.8043 -4.5283 1.8557 19.0178
100.6956 -4.3845 1.8497 19.0178
100.5870 -4.2408 1.6658 19.0178
100.4783 -4.0970 1.7034 19.0178
100.3696 -3.9533 1.7716 19.0178
100.2610 -3.8096 1.7223 19.0178
100.1523 -3.6658 2.1158 19.0178
100.0437 -3.5221 2.3253 19.0178
99.9350 -3.3783 2.0329 19.0178
99.8263 -3.2346 1.1047 19.0178
99.7177 -3.0908 0.0153 19.0178
99.6090 -2.9471 0.0613 19.0178
99.5004 -2.8034 0.0009 19.0178
99.3917 -2.6596 0.0066 19.0178
99.2830 -2.5159 0.0069 19.0178
99.1744 -2.3721 0.0084 19.0178
99.0657 -2.2284 0.0353 19.0178
102.1018 -6.0326 0.0013 22.0325
101.9931 -5.8889 0.0150 22.0325
101.8845 -5.7451 0.0016 22.0325
101.7758 -5.6014 0.1886 22.0325
101.6672 -5.4577 0.3625 22.0325
101.5585 -5.3139 0.9771 22.0325
101.4498 -5.1702 1.0905 22.0325
101.3412 -5.0264 1.3242 22.0325
101.2325 -4.8827 1.9221 22.0325
101.1239 -4.7389 1.8070 22.0325
101.0152 -4.5952 1.7661 22.0325
100.9065 -4.4515 1.6258 22.0325
100.7979 -4.3077 1.6627 22.0325
100.6892 -4.1640 2.0010 22.0325
100.5806 -4.0202 2.2942 22.0325
100.4719 -3.8765 2.7327 22.0325
100.3632 -3.7327 2.5101 22.0325
100.2546 -3.5890 2.1697 22.0325
100.1459 -3.4453 1.9284 22.0325
100.0373 -3.3015 1.6234 22.0325
99.9286 -3.1578 0.9288 22.0325
99.8199 -3.0140 0.0030 22.0325
99.7113 -2.8703 0.0098 22.0325
99.6026 -2.7265 0.0004 22.0325
99.4940 -2.5828 0.0545 22.0325
99.3853 -2.4390 0.0039 22.0325
99.2766 -2.2953 0.0053 22.0325
99.1680 -2.1516 0.0031 22.0325
102.2041 -5.9558 0.0459 25.0472
102.0954 -5.8121 0.0019 25.0472
101.9867 -5.6683 0.0017 25.0472
101.8781 -5.5246 0.2864 25.0472
101.7694 -5.3808 0.4462 25.0472
101.6608 -5.2371 0.6353 25.0472
101.5521 -5.0934 0.6554 25.0472
101.4434 -4.9496 1.1192 25.0472
101.3348 -4.8059 1.5455 25.0472
101.2261 -4.6621 1.4262 25.0472
101.1175 -4.5184 1.3955 25.0472
101.0088 -4.3746 1.1246 25.0472
100.9001 -4.2309 1.4878 25.0472
100.7915 -4.0872 2.1577 25.0472
100.6828 -3.9434 2.6542 25.0472
100.5742 -3.7997 3.0413 25.0472
100.4655 -3.6559 2.9306 25.0472
100.3568 -3.5122 2.4196 25.0472
100.2482 -3.3684 1.5960 25.0472
100.1395 -3.2247 1.3359 25.0472
100.0309 -3.0809 0.6447 25.0472
99.9222 -2.9372 0.0282 25.0472
99.8135 -2.7935 0.0107 25.0472
99.7049 -2.6497 0.0005 25.0472
99.5962 -2.5060 0.0133 25.0472
99.4876 -2.3622 0.0091 25.0472
99.3789 -2.2185 0.0045 25.0472
99.2702 -2.0747 0.0043 25.0472
102.3063 -5.8790 0.3040 28.0620
102.1977 -5.7353 0.0370 28.0620
102.0890 -5.5915 0.0019 28.0620
101.9803 -5.4478 0.0037 28.0620
101.8717 -5.3040 0.1742 28.0620
101.7630 -5.1603 0.2896 28.0620
101.6544 -5.0165 0.4172 28.0620
101.5457 -4.8728 1.0657 28.0620
101.4370 -4.7291 1.3643 28.0620
101.3284 -4.5853 1.0674 28.0620
101.2197 -4.4416 1.3536 28.0620
101.1111 -4.2978 1.3409 28.0620
101.0024 -4.1541 1.6990 28.0620
100.8937 -4.0103 2.2746 28.0620
100.7851 -3.8666 2.7874 28.0620
100.6764 -3.7228 3.0696 28.0620
100.5678 -3.5791 3.1081 28.0620
100.4591 -3.4354 2.5715 28.0620
100.3504 -3.2916 1.4243 28.0620
100.2418 -3.1479 0.9816 28.0620
100.1331 -3.0041 0.5533 28.0620
100.0245 -2.8604 0.1097 28.0620
99.9158 -2.7166 0.0816 28.0620
99.8071 -2.5729 0.0124 28.0620
99.6985 -2.4292 0.0121 28.0620
99.5898 -2.2854 0.0055 28.0620
99.4812 -2.1417 0.0013 28.0620
99.3725 -1.9979 0.0028 28.0620
102.4086 -5.8022 0.4802 31.0767
102.2999 -5.6584 0.0242 31.0767
102.1912 -5.5147 0.0039 31.0767
102.0826 -5.3710 0.0083 31.0767
101.9739 -5.2272 0.0162 31.0767
101.8653 -5.0835 0.0038 31.0767
101.7566 -4.9397 0.2476 31.0767
101.6479 -4.7960 1.3377 31.0767
101.5393 -4.6522 1.9527 31.0767
101.4306 -4.5085 2.0324 31.0767
101.3220 -4.3647 2.0522 31.0767
101.2133 -4.2210 1.9598 31.0767
101.1046 -4.0773 2.0787 31.0767
100.9960 -3.9335 2.3423 31.0767
100.8873 -3.7898 2.4090 31.0767
100.7787 -3.6460 2.5826 31.0767
100.6700 -3.5023 2.6857 31.0767
100.5613 -3.3585 2.0181 31.0767
100.4527 -3.2148 0.9641 31.0767
100.3440 -3.0711 0.6522 31.0767
100.2354 -2.9273 0.2899 31.0767
100.1267 -2.7836 0.0234 31.0767
100.0180 -2.6398 0.0060 31.0767
99.9094 -2.4961 0.0133 31.0767
99.8007 -2.3523 0.0225 31.0767
99.6921 -2.2086 0.0186 31.0767
99.5834 -2.0649 0.0193 31.0767
99.4747 -1.9211 0.2642 31.0767
102.5108 -5.7254 0.3933 34.0914
102.4022 -5.5816 0.0086 34.0914
102.2935 -5.4379 0.0031 34.0914
102.1848 -5.2941 0.0033 34.0914
102.0762 -5.1504 0.0018 34.0914
101.9675 -5.0066 0.0005 34.0914
101.8589 -4.8629 0.4890 34.0914
101.7502 -4.7192 1.3951 34.0914
101.6415 -4.5754 2.2614 34.0914
101.5329 -4.4317 2.7380 34.0914
101.4242 -4.2879 3.0133 34.0914
101.3156 -4.1442 2.9012 34.0914
101.2069 -4.0004 2.7521 34.0914
101.0982 -3.8567 2.6920 34.0914
100.9896 -3.7130 2.3616 34.0914
100.8809 -3.5692 1.8081 34.0914
100.7723 -3.4255 1.3178 34.0914
100.6636 -3.2817 0.7321 34.0914
100.5549 -3.1380 0.7608 34.0914
100.4463 -2.9942 0.5899 34.0914
100.3376 -2.8505 0.2099 34.0914
100.2290 -2.7068 0.1645 34.0914
100.1203 -2.5630 0.7379 34.0914
100.0116 -2.4193 0.9626 34.0914
99.9030 -2.2755 0.9733 34.0914
99.7943 -2.1318 0.7552 34.0914
99.6857 -1.9880 0.7182 34.0914
99.5770 -1.8443 0.7992 34.0914
102.6131 -5.6485 0.2540 37.1061
102.5044 -5.5048 0.1153 37.1061
102.3958 -5.3611 0.0097 37.1061
102.2871 -5.2173 0.0019 37.1061
102.1784 -5.0736 0.0042 37.1061
102.0698 -4.9298 0.0033 37.1061
101.9611 -4.7861 0.4146 37.1061
101.8525 -4.6423 1.0453 37.1061
101.7438 -4.4986 1.9028 37.1061
101.6351 -4.3549 2.4534 37.1061
101.5265 -4.2111 3.1810 37.1061
101.4178 -4.0674 3.6076 37.1061
101.3092 -3.9236 3.2697 37.1061
101.2005 -3.7799 2.7280 37.1061
101.0918 -3.6361 2.5233 37.1061
100.9832 -3.4924 1.8170 37.1061
100.8745 -3.3487 0.8126 37.1061
100.7659 -3.2049 0.5123 37.1061
100.6572 -3.0612 0.7525 37.1061
100.5485 -2.9174 0.6583 37.1061
100.4399 -2.7737 0.5053 37.1061
100.3312 -2.6299 0.5942 37.1061
100.2226 -2.4862 1.6082 37.1061
100.1139 -2.3425 2.0222 37.1061
100.0052 -2.1987 1.9967 37.1061
99.8966 -2.0550 1.6669 37.1061
99.7879 -1.9112 1.5485 37.1061
99.6793 -1.7675 1.2824 37.1061
102.7153 -5.5717 0.3628 40.1208
102.6067 -5.4280 0.3369 40.1208
102.4980 -5.2842 0.2141 40.1208
102.3894 -5.1405 0.0004 40.1208
102.2807 -4.9968 0.0019 40.1208
102.1720 -4.8530 0.0030 40.1208
102.0634 -4.7093 0.0016 40.1208
101.9547 -4.5655 0.5105 40.1208
101.8461 -4.4218 1.0050 40.1208
101.7374 -4.2780 1.3743 40.1208
101.6287 -4.1343 2.3682 40.1208
101.5201 -3.9906 2.9169 40.1208
101.4114 -3.8468 2.6028 40.1208
101.3028 -3.7031 1.7635 40.1208
101.1941 -3.5593 1.5939 40.1208
101.0854 -3.4156 0.9209 40.1208
100.9768 -3.2718 0.4141 40.1208
100.8681 -3.1281 0.3203 40.1208
100.7595 -2.9844 0.5362 40.1208
100.6508 -2.8406 0.4786 40.1208
100.5421 -2.6969 0.4632 40.1208
100.4335 -2.5531 0.5515 40.1208
100.3248 -2.4094 1.3557 40.1208
100.2162 -2.2656 1.5428 40.1208
100.1075 -2.1219 1.6723 40.1208
99.9988 -1.9782 1.3801 40.1208
99.8902 -1.8344 1.3582 40.1208
99.7815 -1.6907 1.0567 40.1208
