73.7678 34.0720 0.0267 -0.1718
73.7397 34.0996 0.0000 -0.1718
73.7116 34.1272 0.0000 -0.1718
73.6835 34.1548 0.2000 -0.1718
73.6555 34.1823 0.4000 -0.1718
73.6274 34.2099 1.0000 -0.1718
73.5993 34.2375 2.0000 -0.1718
73.5712 34.2651 2.8000 -0.1718
73.5432 34.2926 3.6000 -0.1718
73.5151 34.3202 4.4000 -0.1718
73.4870 34.3478 4.6100 -0.1718
73.4590 34.3754 4.4000 -0.1718
73.4309 34.4030 3.8000 -0.1718
73.4028 34.4305 2.8000 -0.1718
73.3747 34.4581 1.4000 -0.1718
73.7934 34.0898 0.2933 1.5250
73.7653 34.1173 0.4000 1.5250
73.7372 34.1449 0.6000 1.5250
73.7091 34.1725 0.8000 1.5250
73.6811 34.2001 1.2000 1.5250
73.6530 34.2276 2.2000 1.5250
73.6249 34.2552 3.8000 1.5250
73.5969 34.2828 5.2000 1.5250
73.5688 34.3104 6.4000 1.5250
73.5407 34.3379 7.6000 1.5250
73.5126 34.3655 8.0000 1.5250
73.4846 34.3931 7.6000 1.5250
73.4565 34.4207 6.4000 1.5250
73.4284 34.4482 4.4000 1.5250
73.4003 34.4758 2.2000 1.5250
73.8190 34.1075 0.6000 3.2218
73.7909 34.1350 1.0000 3.2218
73.7628 34.1626 1.4000 3.2218
73.7348 34.1902 1.6000 3.2218
73.7067 34.2178 2.0000 3.2218
73.6786 34.2453 3.2000 3.2218
73.6505 34.2729 5.2000 3.2218
73.6225 34.3005 7.0000 3.2218
73.5944 34.3281 8.4000 3.2218
73.5663 34.3556 9.6000 3.2218
73.5382 34.3832 9.8000 3.2218
73.5102 34.4108 9.2000 3.2218
73.4821 34.4384 7.4000 3.2218
73.4540 34.4659 4.6000 3.2218
73.4259 34.4935 1.6000 3.2218
73.8446 34.1252 0.8400 4.9187
73.8165 34.1527 1.6000 4.9187
73.7884 34.1803 2.2000 4.9187
73.7604 34.2079 2.4000 4.9187
73.7323 34.2355 3.0000 4.9187
73.7042 34.2630 4.0000 4.9187
73.6761 34.2906 5.8000 4.9187
73.6481 34.3182 7.6000 4.9187
73.6200 34.3458 9.0000 4.9187
73.5919 34.3733 10.0000 4.9187
73.5638 34.4009 10.2000 4.9187
73.5358 34.4285 9.4000 4.9187
73.5077 34.4561 7.2000 4.9187
73.4796 34.4836 3.8000 4.9187
73.4515 34.5112 0.1000 4.9187
73.8702 34.1429 0.9067 6.6155
73.8421 34.1705 2.0000 6.6155
73.8140 34.1980 3.0000 6.6155
73.7860 34.2256 3.6000 6.6155
73.7579 34.2532 4.2000 6.6155
73.7298 34.2808 4.8000 6.6155
73.7017 34.3083 6.0000 6.6155
73.6737 34.3359 7.2000 6.6155
73.6456 34.3635 8.0000 6.6155
73.6175 34.3911 8.8000 6.6155
73.5894 34.4186 9.0000 6.6155
73.5614 34.4462 8.2000 6.6155
73.5333 34.4738 6.0000 6.6155
73.5052 34.5014 3.0000 6.6155
73.4772 34.5289 0.1000 6.6155
73.8958 34.1606 0.8933 8.3123
73.8677 34.1882 2.2000 8.3123
73.8396 34.2157 3.6000 8.3123
73.8116 34.2433 4.4000 8.3123
73.7835 34.2709 4.8000 8.3123
73.7554 34.2985 4.8000 8.3123
73.7273 34.3260 5.2000 8.3123
73.6993 34.3536 5.6000 8.3123
73.6712 34.3812 5.8000 8.3123
73.6431 34.4088 6.4000 8.3123
73.6150 34.4363 7.0000 8.3123
73.5870 34.4639 6.4000 8.3123
73.5589 34.4915 4.4000 8.3123
73.5308 34.5191 2.0000 8.3123
73.5028 34.5466 0.1000 8.3123
73.9214 34.1783 0.9200 10.0092
73.8933 34.2059 2.4000 10.0092
73.8652 34.2334 3.8000 10.0092
73.8372 34.2610 4.6000 10.0092
73.8091 34.2886 4.8000 10.0092
73.7810 34.3162 4.4000 10.0092
73.7529 34.3437 4.0000 10.0092
73.7249 34.3713 3.8000 10.0092
73.6968 34.3989 3.6000 10.0092
73.6687 34.4265 3.8000 10.0092
73.6407 34.4540 4.2000 10.0092
73.6126 34.4816 4.2000 10.0092
73.5845 34.5092 2.6000 10.0092
73.5564 34.5368 1.0000 10.0092
73.5284 34.5643 0.1000 10.0092
73.9470 34.1960 0.9867 11.7060
73.9189 34.2236 2.2000 11.7060
73.8908 34.2512 3.2000 11.7060
73.8628 34.2787 3.8000 11.7060
73.8347 34.3063 4.0000 11.7060
73.8066 34.3339 3.6000 11.7060
73.7785 34.3615 3.0000 11.7060
73.7505 34.3890 2.2000 11.7060
73.7224 34.4166 1.6000 11.7060
73.6943 34.4442 1.4000 11.7060
73.6663 34.4718 1.6000 11.7060
73.6382 34.4993 1.4000 11.7060
73.6101 34.5269 0.8000 11.7060
73.5820 34.5545 0.4000 11.7060
73.5540 34.5821 0.1000 11.7060
73.9726 34.2137 1.0000 13.4028
73.9445 34.2413 1.8000 13.4028
73.9164 34.2689 2.2000 13.4028
73.8884 34.2964 2.4000 13.4028
73.8603 34.3240 2.6000 13.4028
73.8322 34.3516 2.6000 13.4028
73.8042 34.3792 2.2000 13.4028
73.7761 34.4067 1.2000 13.4028
73.7480 34.4343 0.4000 13.4028
73.7199 34.4619 0.2000 13.4028
73.6919 34.4895 0.0000 13.4028
73.6638 34.5170 0.0000 13.4028
73.6357 34.5446 0.0000 13.4028
73.6076 34.5722 0.0000 13.4028
73.5796 34.5998 0.1000 13.4028
73.9982 34.2314 0.7067 15.0997
73.9701 34.2590 1.0000 15.0997
73.9421 34.2866 1.0000 15.0997
73.9140 34.3141 1.0000 15.0997
73.8859 34.3417 1.0000 15.0997
73.8578 34.3693 1.0000 15.0997
73.8298 34.3969 1.0000 15.0997
73.8017 34.4244 0.5067 15.0997
73.7736 34.4520 0.1333 15.0997
73.7455 34.4796 0.0000 15.0997
73.7175 34.5072 0.0000 15.0997
73.6894 34.5347 0.0000 15.0997
73.6613 34.5623 0.0533 15.0997
73.6332 34.5899 0.0667 15.0997
73.6052 34.6175 0.0000 15.0997
73.3524 34.4901 1.0000 -0.2424
73.3396 34.5245 1.4000 -0.2424
73.3269 34.5589 1.4000 -0.2424
73.3141 34.5933 1.0000 -0.2424
73.3844 34.4981 1.6000 1.4544
73.3716 34.5325 2.2000 1.4544
73.3588 34.5670 2.2000 1.4544
73.3461 34.6014 1.6000 1.4544
73.4163 34.5062 2.0000 3.1513
73.4036 34.5406 2.8000 3.1513
73.3908 34.5750 3.0000 3.1513
73.3780 34.6094 2.2000 3.1513
73.4483 34.5142 2.0000 4.8481
73.4355 34.5486 3.2000 4.8481
73.4228 34.5831 3.6000 4.8481
73.4100 34.6175 2.8000 4.8481
73.4803 34.5223 1.6000 6.5449
73.4675 34.5567 3.4000 6.5449
73.4547 34.5911 3.8000 6.5449
73.4420 34.6255 3.0000 6.5449
73.5122 34.5303 0.1000 8.2418
73.4995 34.5647 2.8000 8.2418
73.4867 34.5992 3.4000 8.2418
73.4739 34.6336 2.6000 8.2418
73.5442 34.5384 0.1000 9.9386
73.5314 34.5728 2.4000 9.9386
73.5186 34.6072 3.0000 9.9386
73.5059 34.6416 2.4000 9.9386
73.5761 34.5464 0.1000 11.6354
73.5634 34.5809 2.2000 11.6354
73.5506 34.6153 3.0000 11.6354
73.5378 34.6497 3.0000 11.6354
73.6081 34.5545 0.1000 13.3323
73.5953 34.5889 1.4000 13.3323
73.5826 34.6233 2.4000 13.3323
73.5698 34.6578 2.4000 13.3323
73.6401 34.5625 0.0000 15.0291
73.6273 34.5970 0.1000 15.0291
73.6145 34.6314 1.0000 15.0291
73.6018 34.6658 1.6000 15.0291
