-172.0613 -16.5813 0.0296 4.8552
-172.0754 -16.5384 0.2466 4.8552
-172.0895 -16.4955 1.9474 4.8552
-172.1036 -16.4526 1.2338 4.8552
-172.1177 -16.4097 3.4951 4.8552
-172.1318 -16.3668 3.1601 4.8552
-172.1458 -16.3239 4.1120 4.8552
-172.1599 -16.2810 0.8590 4.8552
-172.1740 -16.2381 1.1422 4.8552
-172.1881 -16.1951 0.6755 4.8552
-172.2022 -16.1522 1.3300 4.8552
-172.2163 -16.1093 1.2894 4.8552
-172.2304 -16.0664 4.1886 4.8552
-172.2445 -16.0235 5.0062 4.8552
-172.2585 -15.9806 7.0700 4.8552
-172.2726 -15.9377 10.5185 4.8552
-172.2867 -15.8948 14.4369 4.8552
-172.3008 -15.8519 14.4421 4.8552
-172.3149 -15.8090 13.6313 4.8552
-172.3290 -15.7661 13.3208 4.8552
-172.3431 -15.7232 13.2766 4.8552
-172.3572 -15.6803 13.5671 4.8552
-172.3712 -15.6374 13.9850 4.8552
-172.3853 -15.5945 13.3925 4.8552
-172.3994 -15.5516 12.6909 4.8552
-172.4135 -15.5087 12.9178 4.8552
-172.4276 -15.4658 14.1833 4.8552
-172.4417 -15.4229 12.7135 4.8552
-172.4558 -15.3800 13.0233 4.8552
-172.4699 -15.3371 11.3350 4.8552
-172.4840 -15.2942 3.8416 4.8552
-172.4980 -15.2513 0.8970 4.8552
-172.5121 -15.2084 0.5116 4.8552
-172.5262 -15.1655 1.5355 4.8552
-172.5403 -15.1226 0.2044 4.8552
-172.5544 -15.0797 0.0541 4.8552
-172.0415 -16.5752 0.0188 8.2876
-172.0556 -16.5323 0.4964 8.2876
-172.0697 -16.4894 1.1536 8.2876
-172.0838 -16.4465 0.7299 8.2876
-172.0978 -16.4036 0.6242 8.2876
-172.1119 -16.3607 0.5680 8.2876
-172.1260 -16.3178 2.8245 8.2876
-172.1401 -16.2749 2.1161 8.2876
-172.1542 -16.2320 2.1702 8.2876
-172.1683 -16.1891 0.6073 8.2876
-172.1824 -16.1462 0.1801 8.2876
-172.1965 -16.1033 1.5135 8.2876
-172.2106 -16.0604 5.2995 8.2876
-172.2246 -16.0175 4.6796 8.2876
-172.2387 -15.9746 6.0927 8.2876
-172.2528 -15.9317 11.2956 8.2876
-172.2669 -15.8888 14.2510 8.2876
-172.2810 -15.8459 13.8307 8.2876
-172.2951 -15.8030 14.3539 8.2876
-172.3092 -15.7601 14.8488 8.2876
-172.3233 -15.7172 13.9834 8.2876
-172.3373 -15.6743 14.3926 8.2876
-172.3514 -15.6314 14.3266 8.2876
-172.3655 -15.5885 14.4927 8.2876
-172.3796 -15.5456 14.7358 8.2876
-172.3937 -15.5027 14.5791 8.2876
-172.4078 -15.4598 14.6934 8.2876
-172.4219 -15.4169 14.8486 8.2876
-172.4360 -15.3740 14.1423 8.2876
-172.4501 -15.3311 12.4916 8.2876
-172.4641 -15.2882 5.0163 8.2876
-172.4782 -15.2453 1.5016 8.2876
-172.4923 -15.2024 2.3522 8.2876
-172.5064 -15.1595 3.8470 8.2876
-172.5205 -15.1166 2.1307 8.2876
-172.5346 -15.0737 0.0359 8.2876
-172.0217 -16.5692 0.0955 11.7201
-172.0358 -16.5263 0.2636 11.7201
-172.0499 -16.4834 0.2128 11.7201
-172.0639 -16.4405 2.1521 11.7201
-172.0780 -16.3976 0.8370 11.7201
-172.0921 -16.3547 0.7234 11.7201
-172.1062 -16.3118 1.0732 11.7201
-172.1203 -16.2689 1.3838 11.7201
-172.1344 -16.2260 0.0616 11.7201
-172.1485 -16.1831 0.0011 11.7201
-172.1626 -16.1402 0.0922 11.7201
-172.1767 -16.0973 0.9184 11.7201
-172.1907 -16.0544 2.0924 11.7201
-172.2048 -16.0115 1.7263 11.7201
-172.2189 -15.9686 2.7626 11.7201
-172.2330 -15.9257 4.8881 11.7201
-172.2471 -15.8828 8.7881 11.7201
-172.2612 -15.8399 9.3737 11.7201
-172.2753 -15.7970 9.5435 11.7201
-172.2894 -15.7541 10.6757 11.7201
-172.3034 -15.7112 7.7990 11.7201
-172.3175 -15.6683 11.2360 11.7201
-172.3316 -15.6254 12.2639 11.7201
-172.3457 -15.5825 12.4790 11.7201
-172.3598 -15.5395 14.1734 11.7201
-172.3739 -15.4966 14.2315 11.7201
-172.3880 -15.4537 14.0636 11.7201
-172.4021 -15.4108 14.9230 11.7201
-172.4162 -15.3679 14.4008 11.7201
-172.4302 -15.3250 9.8262 11.7201
-172.4443 -15.2821 0.6818 11.7201
-172.4584 -15.2392 0.1039 11.7201
-172.4725 -15.1963 1.9383 11.7201
-172.4866 -15.1534 3.1870 11.7201
-172.5007 -15.1105 0.6796 11.7201
-172.5148 -15.0676 0.0159 11.7201
-172.0019 -16.5632 0.0300 15.1526
-172.0160 -16.5203 0.1638 15.1526
-172.0300 -16.4774 0.4691 15.1526
-172.0441 -16.4345 1.3718 15.1526
-172.0582 -16.3916 1.5972 15.1526
-172.0723 -16.3487 0.1732 15.1526
-172.0864 -16.3057 0.7490 15.1526
-172.1005 -16.2628 0.5610 15.1526
-172.1146 -16.2199 0.2674 15.1526
-172.1287 -16.1770 0.0614 15.1526
-172.1427 -16.1341 0.1097 15.1526
-172.1568 -16.0912 1.9684 15.1526
-172.1709 -16.0483 1.4080 15.1526
-172.1850 -16.0054 0.3684 15.1526
-172.1991 -15.9625 0.1658 15.1526
-172.2132 -15.9196 0.1399 15.1526
-172.2273 -15.8767 1.2865 15.1526
-172.2414 -15.8338 5.1024 15.1526
-172.2555 -15.7909 5.2405 15.1526
-172.2695 -15.7480 4.1507 15.1526
-172.2836 -15.7051 2.4818 15.1526
-172.2977 -15.6622 7.1727 15.1526
-172.3118 -15.6193 12.8706 15.1526
-172.3259 -15.5764 13.9714 15.1526
-172.3400 -15.5335 14.7153 15.1526
-172.3541 -15.4906 14.1342 15.1526
-172.3682 -15.4477 13.2282 15.1526
-172.3822 -15.4048 13.7359 15.1526
-172.3963 -15.3619 12.9200 15.1526
-172.4104 -15.3190 8.3832 15.1526
-172.4245 -15.2761 3.0524 15.1526
-172.4386 -15.2332 0.1475 15.1526
-172.4527 -15.1903 0.3312 15.1526
-172.4668 -15.1474 0.4036 15.1526
-172.4809 -15.1045 0.6065 15.1526
-172.4950 -15.0616 0.0439 15.1526
-171.9821 -16.5571 0.0936 18.5851
-171.9961 -16.5142 0.2891 18.5851
-172.0102 -16.4713 0.1048 18.5851
-172.0243 -16.4284 1.0046 18.5851
-172.0384 -16.3855 0.3062 18.5851
-172.0525 -16.3426 0.2024 18.5851
-172.0666 -16.2997 1.4210 18.5851
-172.0807 -16.2568 0.5532 18.5851
-172.0948 -16.2139 0.0420 18.5851
-172.1088 -16.1710 0.2374 18.5851
-172.1229 -16.1281 0.1215 18.5851
-172.1370 -16.0852 1.5141 18.5851
-172.1511 -16.0423 0.5738 18.5851
-172.1652 -15.9994 0.3416 18.5851
-172.1793 -15.9565 0.3480 18.5851
-172.1934 -15.9136 0.4802 18.5851
-172.2075 -15.8707 0.4873 18.5851
-172.2216 -15.8278 0.3506 18.5851
-172.2356 -15.7849 1.5638 18.5851
-172.2497 -15.7420 1.5419 18.5851
-172.2638 -15.6991 1.3169 18.5851
-172.2779 -15.6562 5.8666 18.5851
-172.2920 -15.6133 13.6056 18.5851
-172.3061 -15.5704 14.2822 18.5851
-172.3202 -15.5275 12.7601 18.5851
-172.3343 -15.4846 13.0858 18.5851
-172.3483 -15.4417 10.8439 18.5851
-172.3624 -15.3988 8.9882 18.5851
-172.3765 -15.3559 7.0885 18.5851
-172.3906 -15.3130 5.0818 18.5851
-172.4047 -15.2701 3.1428 18.5851
-172.4188 -15.2272 0.7258 18.5851
-172.4329 -15.1843 0.3752 18.5851
-172.4470 -15.1414 0.1541 18.5851
-172.4611 -15.0985 1.3863 18.5851
-172.4751 -15.0556 0.0413 18.5851
-171.9622 -16.5511 0.0456 22.0176
-171.9763 -16.5082 0.2818 22.0176
-171.9904 -16.4653 1.6988 22.0176
-172.0045 -16.4224 1.4941 22.0176
-172.0186 -16.3795 0.0486 22.0176
-172.0327 -16.3366 0.6109 22.0176
-172.0468 -16.2937 4.1196 22.0176
-172.0609 -16.2508 2.5022 22.0176
-172.0749 -16.2079 0.6002 22.0176
-172.0890 -16.1650 0.0751 22.0176
-172.1031 -16.1221 0.3012 22.0176
-172.1172 -16.0792 0.1790 22.0176
-172.1313 -16.0363 1.0806 22.0176
-172.1454 -15.9934 0.8725 22.0176
-172.1595 -15.9505 0.0825 22.0176
-172.1736 -15.9076 0.6552 22.0176
-172.1876 -15.8647 0.0956 22.0176
-172.2017 -15.8218 0.8673 22.0176
-172.2158 -15.7789 0.8690 22.0176
-172.2299 -15.7360 0.5878 22.0176
-172.2440 -15.6931 1.0629 22.0176
-172.2581 -15.6501 4.6630 22.0176
-172.2722 -15.6072 8.4032 22.0176
-172.2863 -15.5643 9.9072 22.0176
-172.3004 -15.5214 10.4109 22.0176
-172.3144 -15.4785 7.8518 22.0176
-172.3285 -15.4356 5.2975 22.0176
-172.3426 -15.3927 3.0564 22.0176
-172.3567 -15.3498 1.2500 22.0176
-172.3708 -15.3069 0.4894 22.0176
-172.3849 -15.2640 2.2168 22.0176
-172.3990 -15.2211 1.5379 22.0176
-172.4131 -15.1782 0.1736 22.0176
-172.4271 -15.1353 0.1304 22.0176
-172.4412 -15.0924 0.9025 22.0176
-172.4553 -15.0495 0.0590 22.0176
-171.9424 -16.5451 0.0051 25.4501
-171.9565 -16.5022 1.9582 25.4501
-171.9706 -16.4593 0.6038 25.4501
-171.9847 -16.4164 1.8989 25.4501
-171.9988 -16.3734 0.6842 25.4501
-172.0129 -16.3305 0.7107 25.4501
-172.0270 -16.2876 3.6309 25.4501
-172.0410 -16.2447 1.8258 25.4501
-172.0551 -16.2018 0.0158 25.4501
-172.0692 -16.1589 1.3037 25.4501
-172.0833 -16.1160 3.3916 25.4501
-172.0974 -16.0731 3.0362 25.4501
-172.1115 -16.0302 0.0828 25.4501
-172.1256 -15.9873 0.2770 25.4501
-172.1397 -15.9444 2.0860 25.4501
-172.1537 -15.9015 0.1756 25.4501
-172.1678 -15.8586 1.6779 25.4501
-172.1819 -15.8157 0.2298 25.4501
-172.1960 -15.7728 0.2006 25.4501
-172.2101 -15.7299 0.5220 25.4501
-172.2242 -15.6870 0.0557 25.4501
-172.2383 -15.6441 0.4393 25.4501
-172.2524 -15.6012 0.1074 25.4501
-172.2665 -15.5583 2.3332 25.4501
-172.2805 -15.5154 2.1968 25.4501
-172.2946 -15.4725 1.6310 25.4501
-172.3087 -15.4296 0.3172 25.4501
-172.3228 -15.3867 0.1664 25.4501
-172.3369 -15.3438 0.0600 25.4501
-172.3510 -15.3009 0.9214 25.4501
-172.3651 -15.2580 1.5461 25.4501
-172.3792 -15.2151 1.1970 25.4501
-172.3932 -15.1722 0.4933 25.4501
-172.4073 -15.1293 0.1564 25.4501
-172.4214 -15.0864 2.2812 25.4501
-172.4355 -15.0435 0.0365 25.4501
-171.9226 -16.5390 0.0290 28.8826
-171.9367 -16.4961 0.8969 28.8826
-171.9508 -16.4532 1.3786 28.8826
-171.9649 -16.4103 0.1026 28.8826
-171.9790 -16.3674 0.1761 28.8826
-171.9931 -16.3245 1.1165 28.8826
-172.0071 -16.2816 3.0397 28.8826
-172.0212 -16.2387 6.4029 28.8826
-172.0353 -16.1958 2.9188 28.8826
-172.0494 -16.1529 2.7642 28.8826
-172.0635 -16.1100 6.5126 28.8826
-172.0776 -16.0671 7.5016 28.8826
-172.0917 -16.0242 2.3424 28.8826
-172.1058 -15.9813 0.8694 28.8826
-172.1198 -15.9384 6.7443 28.8826
-172.1339 -15.8955 3.3317 28.8826
-172.1480 -15.8526 0.7734 28.8826
-172.1621 -15.8097 2.4643 28.8826
-172.1762 -15.7668 0.6066 28.8826
-172.1903 -15.7239 0.0031 28.8826
-172.2044 -15.6810 0.1188 28.8826
-172.2185 -15.6381 0.3549 28.8826
-172.2326 -15.5952 0.0200 28.8826
-172.2466 -15.5523 0.2744 28.8826
-172.2607 -15.5094 0.0902 28.8826
-172.2748 -15.4665 0.1311 28.8826
-172.2889 -15.4236 0.4649 28.8826
-172.3030 -15.3807 0.1868 28.8826
-172.3171 -15.3378 0.2002 28.8826
-172.3312 -15.2949 0.5634 28.8826
-172.3453 -15.2520 1.4467 28.8826
-172.3593 -15.2091 0.8828 28.8826
-172.3734 -15.1662 0.0033 28.8826
-172.3875 -15.1233 0.0239 28.8826
-172.4016 -15.0804 0.0651 28.8826
-172.4157 -15.0375 0.0196 28.8826
-171.9028 -16.5330 0.0294 32.3151
-171.9169 -16.4901 0.3180 32.3151
-171.9310 -16.4472 0.5469 32.3151
-171.9451 -16.4043 1.8709 32.3151
-171.9591 -16.3614 3.2572 32.3151
-171.9732 -16.3185 0.6532 32.3151
-171.9873 -16.2756 1.4544 32.3151
-172.0014 -16.2327 3.6615 32.3151
-172.0155 -16.1898 2.5292 32.3151
-172.0296 -16.1469 1.0945 32.3151
-172.0437 -16.1040 2.3048 32.3151
-172.0578 -16.0611 4.8070 32.3151
-172.0719 -16.0182 2.0985 32.3151
-172.0859 -15.9753 4.2005 32.3151
-172.1000 -15.9324 8.4809 32.3151
-172.1141 -15.8895 3.7325 32.3151
-172.1282 -15.8466 1.4910 32.3151
-172.1423 -15.8037 3.2147 32.3151
-172.1564 -15.7608 0.7267 32.3151
-172.1705 -15.7178 0.2678 32.3151
-172.1846 -15.6749 0.0222 32.3151
-172.1986 -15.6320 3.2141 32.3151
-172.2127 -15.5891 2.3343 32.3151
-172.2268 -15.5462 2.5403 32.3151
-172.2409 -15.5033 2.1578 32.3151
-172.2550 -15.4604 2.3099 32.3151
-172.2691 -15.4175 1.1551 32.3151
-172.2832 -15.3746 0.4187 32.3151
-172.2973 -15.3317 0.4820 32.3151
-172.3114 -15.2888 1.4028 32.3151
-172.3254 -15.2459 1.9130 32.3151
-172.3395 -15.2030 1.5114 32.3151
-172.3536 -15.1601 0.0604 32.3151
-172.3677 -15.1172 10.2089 32.3151
-172.3818 -15.0743 9.1934 32.3151
-172.3959 -15.0314 0.0282 32.3151
-171.8830 -16.5270 0.0793 35.7476
-171.8971 -16.4840 0.7966 35.7476
-171.9112 -16.4411 2.7568 35.7476
-171.9252 -16.3982 4.5118 35.7476
-171.9393 -16.3553 5.7928 35.7476
-171.9534 -16.3124 0.9660 35.7476
-171.9675 -16.2695 0.3933 35.7476
-171.9816 -16.2266 1.6265 35.7476
-171.9957 -16.1837 1.9773 35.7476
-172.0098 -16.1408 0.1100 35.7476
-172.0239 -16.0979 0.8560 35.7476
-172.0380 -16.0550 3.2717 35.7476
-172.0520 -16.0121 3.9592 35.7476
-172.0661 -15.9692 7.4664 35.7476
-172.0802 -15.9263 9.9224 35.7476
-172.0943 -15.8834 7.6694 35.7476
-172.1084 -15.8405 7.3094 35.7476
-172.1225 -15.7976 7.7977 35.7476
-172.1366 -15.7547 3.7652 35.7476
-172.1507 -15.7118 0.0049 35.7476
-172.1647 -15.6689 0.5835 35.7476
-172.1788 -15.6260 3.8740 35.7476
-172.1929 -15.5831 1.4183 35.7476
-172.2070 -15.5402 1.7545 35.7476
-172.2211 -15.4973 1.5351 35.7476
-172.2352 -15.4544 4.4522 35.7476
-172.2493 -15.4115 4.6054 35.7476
-172.2634 -15.3686 1.1822 35.7476
-172.2775 -15.3257 0.2345 35.7476
-172.2915 -15.2828 0.4919 35.7476
-172.3056 -15.2399 0.6074 35.7476
-172.3197 -15.1970 0.1971 35.7476
-172.3338 -15.1541 0.1197 35.7476
-172.3479 -15.1112 10.9144 35.7476
-172.3620 -15.0683 11.4831 35.7476
-172.3761 -15.0254 0.0734 35.7476
-171.8632 -16.5209 0.0475 39.1801
-171.8773 -16.4780 1.0788 39.1801
-171.8913 -16.4351 6.1433 39.1801
-171.9054 -16.3922 10.8017 39.1801
-171.9195 -16.3493 6.4929 39.1801
-171.9336 -16.3064 2.7091 39.1801
-171.9477 -16.2635 1.6729 39.1801
-171.9618 -16.2206 1.2773 39.1801
-171.9759 -16.1777 2.3310 39.1801
-171.9900 -16.1348 2.2316 39.1801
-172.0041 -16.0919 0.0772 39.1801
-172.0181 -16.0490 2.8894 39.1801
-172.0322 -16.0061 3.2987 39.1801
-172.0463 -15.9632 6.0392 39.1801
-172.0604 -15.9203 8.7348 39.1801
-172.0745 -15.8774 8.6328 39.1801
-172.0886 -15.8345 7.6925 39.1801
-172.1027 -15.7916 6.5718 39.1801
-172.1168 -15.7487 3.5353 39.1801
-172.1308 -15.7058 0.5973 39.1801
-172.1449 -15.6629 2.7180 39.1801
-172.1590 -15.6200 4.2877 39.1801
-172.1731 -15.5771 2.2667 39.1801
-172.1872 -15.5342 0.1677 39.1801
-172.2013 -15.4913 2.1869 39.1801
-172.2154 -15.4484 3.3542 39.1801
-172.2295 -15.4055 7.1827 39.1801
-172.2435 -15.3626 4.4604 39.1801
-172.2576 -15.3197 2.3036 39.1801
-172.2717 -15.2768 1.0816 39.1801
-172.2858 -15.2339 0.0004 39.1801
-172.2999 -15.1910 0.1768 39.1801
-172.3140 -15.1481 0.0072 39.1801
-172.3281 -15.1052 7.6597 39.1801
-172.3422 -15.0622 7.3540 39.1801
-172.3563 -15.0193 0.0565 39.1801
-171.8434 -16.5149 0.0518 42.6126
-171.8574 -16.4720 0.0605 42.6126
-171.8715 -16.4291 0.0324 42.6126
-171.8856 -16.3862 0.0899 42.6126
-171.8997 -16.3433 0.0955 42.6126
-171.9138 -16.3004 0.0689 42.6126
-171.9279 -16.2575 0.0835 42.6126
-171.9420 -16.2146 0.0009 42.6126
-171.9561 -16.1717 0.0960 42.6126
-171.9701 -16.1288 0.0911 42.6126
-171.9842 -16.0859 0.0144 42.6126
-171.9983 -16.0430 0.0908 42.6126
-172.0124 -16.0001 0.0368 42.6126
-172.0265 -15.9572 0.0348 42.6126
-172.0406 -15.9143 0.0945 42.6126
-172.0547 -15.8714 0.0116 42.6126
-172.0688 -15.8284 0.0589 42.6126
-172.0829 -15.7855 0.0172 42.6126
-172.0969 -15.7426 0.0585 42.6126
-172.1110 -15.6997 0.0227 42.6126
-172.1251 -15.6568 0.0818 42.6126
-172.1392 -15.6139 0.0701 42.6126
-172.1533 -15.5710 0.0863 42.6126
-172.1674 -15.5281 0.0086 42.6126
-172.1815 -15.4852 0.0788 42.6126
-172.1956 -15.4423 0.0306 42.6126
-172.2096 -15.3994 0.0440 42.6126
-172.2237 -15.3565 0.0508 42.6126
-172.2378 -15.3136 0.0575 42.6126
-172.2519 -15.2707 0.0047 42.6126
-172.2660 -15.2278 0.0715 42.6126
-172.2801 -15.1849 0.0171 42.6126
-172.2942 -15.1420 0.0131 42.6126
-172.3083 -15.0991 0.0386 42.6126
-172.3224 -15.0562 0.0694 42.6126
-172.3364 -15.0133 0.0927 42.6126
