135.3770 -3.9732 0.0000 1.9644
135.3414 -3.9788 0.0000 1.9644
135.3058 -3.9845 0.4211 1.9644
135.2701 -3.9901 0.4211 1.9644
135.2345 -3.9957 0.4211 1.9644
135.1988 -4.0014 0.8421 1.9644
135.1632 -4.0070 1.2632 1.9644
135.1276 -4.0126 1.6842 1.9644
135.0919 -4.0183 1.6842 1.9644
135.0563 -4.0239 2.1053 1.9644
135.0206 -4.0295 2.1053 1.9644
134.9850 -4.0352 2.1053 1.9644
134.9494 -4.0408 1.6842 1.9644
134.9137 -4.0464 1.6842 1.9644
134.8781 -4.0521 1.6842 1.9644
134.8424 -4.0577 1.6842 1.9644
134.8068 -4.0633 2.1053 1.9644
134.7712 -4.0689 2.5263 1.9644
134.7355 -4.0746 2.5263 1.9644
134.6999 -4.0802 2.5263 1.9644
134.6642 -4.0858 2.1053 1.9644
134.6286 -4.0915 1.2632 1.9644
134.5930 -4.0971 0.4211 1.9644
134.5573 -4.1027 0.0000 1.9644
134.5217 -4.1084 0.0000 1.9644
135.3749 -3.9599 0.0000 5.6732
135.3393 -3.9655 0.0000 5.6732
135.3037 -3.9712 0.0000 5.6732
135.2680 -3.9768 0.0000 5.6732
135.2324 -3.9824 0.0000 5.6732
135.1967 -3.9881 0.4211 5.6732
135.1611 -3.9937 1.2632 5.6732
135.1255 -3.9993 2.1053 5.6732
135.0898 -4.0049 2.5263 5.6732
135.0542 -4.0106 2.9474 5.6732
135.0185 -4.0162 2.9474 5.6732
134.9829 -4.0218 2.9474 5.6732
134.9473 -4.0275 2.9474 5.6732
134.9116 -4.0331 2.9474 5.6732
134.8760 -4.0387 2.5263 5.6732
134.8403 -4.0444 2.1053 5.6732
134.8047 -4.0500 2.5263 5.6732
134.7690 -4.0556 2.9474 5.6732
134.7334 -4.0613 3.3684 5.6732
134.6978 -4.0669 3.3684 5.6732
134.6621 -4.0725 2.5263 5.6732
134.6265 -4.0782 1.2632 5.6732
134.5908 -4.0838 0.4211 5.6732
134.5552 -4.0894 0.0000 5.6732
134.5196 -4.0950 0.0000 5.6732
135.3728 -3.9466 0.0000 9.3819
135.3372 -3.9522 0.0000 9.3819
135.3015 -3.9578 0.0000 9.3819
135.2659 -3.9635 0.0000 9.3819
135.2303 -3.9691 0.0000 9.3819
135.1946 -3.9747 0.0000 9.3819
135.1590 -3.9804 0.8421 9.3819
135.1233 -3.9860 1.6842 9.3819
135.0877 -3.9916 2.5263 9.3819
135.0521 -3.9973 2.9474 9.3819
135.0164 -4.0029 2.9474 9.3819
134.9808 -4.0085 2.9474 9.3819
134.9451 -4.0142 3.3684 9.3819
134.9095 -4.0198 3.3684 9.3819
134.8739 -4.0254 2.9474 9.3819
134.8382 -4.0310 2.5263 9.3819
134.8026 -4.0367 2.5263 9.3819
134.7669 -4.0423 2.9474 9.3819
134.7313 -4.0479 3.3684 9.3819
134.6957 -4.0536 2.9474 9.3819
134.6600 -4.0592 2.1053 9.3819
134.6244 -4.0648 0.8421 9.3819
134.5887 -4.0705 0.0000 9.3819
134.5531 -4.0761 0.0000 9.3819
134.5175 -4.0817 0.0000 9.3819
135.3707 -3.9333 0.0000 13.0906
135.3351 -3.9389 0.0000 13.0906
135.2994 -3.9445 0.0000 13.0906
135.2638 -3.9502 0.0000 13.0906
135.2281 -3.9558 0.0000 13.0906
135.1925 -3.9614 0.0000 13.0906
135.1569 -3.9670 0.4211 13.0906
135.1212 -3.9727 1.2632 13.0906
135.0856 -3.9783 2.1053 13.0906
135.0499 -3.9839 2.1053 13.0906
135.0143 -3.9896 2.1053 13.0906
134.9787 -3.9952 2.1053 13.0906
134.9430 -4.0008 2.9474 13.0906
134.9074 -4.0065 2.9474 13.0906
134.8717 -4.0121 2.5263 13.0906
134.8361 -4.0177 2.1053 13.0906
134.8005 -4.0234 2.1053 13.0906
134.7648 -4.0290 2.5263 13.0906
134.7292 -4.0346 2.5263 13.0906
134.6935 -4.0403 2.1053 13.0906
134.6579 -4.0459 1.2632 13.0906
134.6223 -4.0515 0.0000 13.0906
134.5866 -4.0571 0.0000 13.0906
134.5510 -4.0628 0.0000 13.0906
134.5153 -4.0684 0.0000 13.0906
135.3686 -3.9199 0.4211 16.7994
135.3330 -3.9256 0.4211 16.7994
135.2973 -3.9312 0.0000 16.7994
135.2617 -3.9368 0.0000 16.7994
135.2260 -3.9425 0.0000 16.7994
135.1904 -3.9481 0.0000 16.7994
135.1547 -3.9537 0.0000 16.7994
135.1191 -3.9594 0.4211 16.7994
135.0835 -3.9650 1.2632 16.7994
135.0478 -3.9706 1.2632 16.7994
135.0122 -3.9763 1.2632 16.7994
134.9765 -3.9819 1.2632 16.7994
134.9409 -3.9875 1.6842 16.7994
134.9053 -3.9931 1.6842 16.7994
134.8696 -3.9988 1.2632 16.7994
134.8340 -4.0044 0.8421 16.7994
134.7983 -4.0100 1.2632 16.7994
134.7627 -4.0157 1.6842 16.7994
134.7271 -4.0213 1.6842 16.7994
134.6914 -4.0269 1.2632 16.7994
134.6558 -4.0326 0.4211 16.7994
134.6201 -4.0382 0.0000 16.7994
134.5845 -4.0438 0.0000 16.7994
134.5489 -4.0495 0.4211 16.7994
134.5132 -4.0551 0.4211 16.7994
135.3665 -3.9066 1.2632 20.5081
135.3308 -3.9123 1.2632 20.5081
135.2952 -3.9179 0.4211 20.5081
135.2596 -3.9235 0.0000 20.5081
135.2239 -3.9291 0.0000 20.5081
135.1883 -3.9348 0.0000 20.5081
135.1526 -3.9404 0.0000 20.5081
135.1170 -3.9460 0.0000 20.5081
135.0814 -3.9517 0.4211 20.5081
135.0457 -3.9573 0.4211 20.5081
135.0101 -3.9629 0.0000 20.5081
134.9744 -3.9686 0.0000 20.5081
134.9388 -3.9742 0.0000 20.5081
134.9032 -3.9798 0.0000 20.5081
134.8675 -3.9855 0.0000 20.5081
134.8319 -3.9911 0.0000 20.5081
134.7962 -3.9967 0.4211 20.5081
134.7606 -4.0024 0.8421 20.5081
134.7250 -4.0080 0.8421 20.5081
134.6893 -4.0136 0.4211 20.5081
134.6537 -4.0192 0.0000 20.5081
134.6180 -4.0249 0.0000 20.5081
134.5824 -4.0305 0.0000 20.5081
134.5467 -4.0361 0.4211 20.5081
134.5111 -4.0418 0.4211 20.5081
135.3644 -3.8933 1.2632 24.2168
135.3287 -3.8989 1.2632 24.2168
135.2931 -3.9046 0.8421 24.2168
135.2574 -3.9102 0.0000 24.2168
135.2218 -3.9158 0.0000 24.2168
135.1862 -3.9215 0.0000 24.2168
135.1505 -3.9271 0.0000 24.2168
135.1149 -3.9327 0.0000 24.2168
135.0792 -3.9384 0.0000 24.2168
135.0436 -3.9440 0.0000 24.2168
135.0080 -3.9496 0.0000 24.2168
134.9723 -3.9552 0.0000 24.2168
134.9367 -3.9609 0.0000 24.2168
134.9010 -3.9665 0.0000 24.2168
134.8654 -3.9721 0.0000 24.2168
134.8298 -3.9778 0.0000 24.2168
134.7941 -3.9834 0.4211 24.2168
134.7585 -3.9890 0.4211 24.2168
134.7228 -3.9947 0.8421 24.2168
134.6872 -4.0003 0.4211 24.2168
134.6516 -4.0059 0.0000 24.2168
134.6159 -4.0116 0.0000 24.2168
134.5803 -4.0172 0.4211 24.2168
134.5446 -4.0228 0.4211 24.2168
134.5090 -4.0285 0.4211 24.2168
