-71.3284 -23.9632 0.0000 -0.0010
-71.3309 -23.8976 0.0000 -0.0010
-71.3334 -23.8321 0.0000 -0.0010
-71.3358 -23.7665 0.0000 -0.0010
-71.3383 -23.7009 0.0000 -0.0010
-71.3408 -23.6354 0.0000 -0.0010
-71.3433 -23.5698 0.0000 -0.0010
-71.3457 -23.5042 0.0000 -0.0010
-71.3482 -23.4387 0.0000 -0.0010
-71.3507 -23.3731 0.0000 -0.0010
-71.3532 -23.3076 0.0000 -0.0010
-71.3556 -23.2420 0.0000 -0.0010
-71.3581 -23.1764 0.0000 -0.0010
-71.3606 -23.1109 0.0000 -0.0010
-71.3631 -23.0453 0.0000 -0.0010
-71.3655 -22.9797 0.0000 -0.0010
-71.3680 -22.9142 0.0000 -0.0010
-71.3705 -22.8486 0.0000 -0.0010
-71.3730 -22.7830 0.0000 -0.0010
-71.3754 -22.7175 0.0000 -0.0010
-71.3779 -22.6519 0.0000 -0.0010
-71.3804 -22.5863 0.0000 -0.0010
-71.3829 -22.5208 0.0000 -0.0010
-71.3853 -22.4552 0.0000 -0.0010
-71.3878 -22.3896 0.0000 -0.0010
-71.3903 -22.3241 0.0000 -0.0010
-71.3928 -22.2585 0.0000 -0.0010
-71.3952 -22.1929 0.0000 -0.0010
-71.3977 -22.1274 0.0000 -0.0010
-71.4002 -22.0618 0.0000 -0.0010
-71.4027 -21.9963 0.0000 -0.0010
-71.4051 -21.9307 0.0000 -0.0010
-71.4076 -21.8651 0.0000 -0.0010
-71.4101 -21.7996 0.0000 -0.0010
-71.4126 -21.7340 0.0000 -0.0010
-71.4151 -21.6684 0.0000 -0.0010
-71.4175 -21.6029 0.0000 -0.0010
-71.4200 -21.5373 0.0000 -0.0010
-71.4225 -21.4717 0.0000 -0.0010
-71.4250 -21.4062 0.0000 -0.0010
-71.4274 -21.3406 0.0000 -0.0010
-71.4299 -21.2750 0.0000 -0.0010
-71.4324 -21.2095 0.0000 -0.0010
-71.4349 -21.1439 0.0000 -0.0010
-71.4373 -21.0783 0.0000 -0.0010
-71.4398 -21.0128 0.0000 -0.0010
-71.4423 -20.9472 0.0000 -0.0010
-71.4448 -20.8817 0.0000 -0.0010
-71.2697 -23.9613 0.0000 2.1982
-71.2721 -23.8957 0.0000 2.1982
-71.2746 -23.8302 0.0000 2.1982
-71.2771 -23.7646 0.0000 2.1982
-71.2796 -23.6990 0.0000 2.1982
-71.2820 -23.6335 0.0000 2.1982
-71.2845 -23.5679 0.0000 2.1982
-71.2870 -23.5023 0.0000 2.1982
-71.2895 -23.4368 0.0000 2.1982
-71.2919 -23.3712 0.0000 2.1982
-71.2944 -23.3057 0.0000 2.1982
-71.2969 -23.2401 0.0000 2.1982
-71.2994 -23.1745 0.0000 2.1982
-71.3018 -23.1090 0.0000 2.1982
-71.3043 -23.0434 0.0000 2.1982
-71.3068 -22.9778 0.0000 2.1982
-71.3093 -22.9123 0.0000 2.1982
-71.3117 -22.8467 0.0000 2.1982
-71.3142 -22.7811 0.0000 2.1982
-71.3167 -22.7156 0.0000 2.1982
-71.3192 -22.6500 0.0000 2.1982
-71.3216 -22.5844 0.0000 2.1982
-71.3241 -22.5189 0.0000 2.1982
-71.3266 -22.4533 0.0000 2.1982
-71.3291 -22.3877 0.0000 2.1982
-71.3316 -22.3222 0.0000 2.1982
-71.3340 -22.2566 0.0000 2.1982
-71.3365 -22.1911 0.0000 2.1982
-71.3390 -22.1255 0.0000 2.1982
-71.3415 -22.0599 0.0000 2.1982
-71.3439 -21.9944 0.0000 2.1982
-71.3464 -21.9288 0.0000 2.1982
-71.3489 -21.8632 0.0000 2.1982
-71.3514 -21.7977 0.0000 2.1982
-71.3538 -21.7321 0.0000 2.1982
-71.3563 -21.6665 0.0000 2.1982
-71.3588 -21.6010 0.0000 2.1982
-71.3613 -21.5354 0.0000 2.1982
-71.3637 -21.4698 0.0000 2.1982
-71.3662 -21.4043 0.0000 2.1982
-71.3687 -21.3387 0.0000 2.1982
-71.3712 -21.2731 0.0000 2.1982
-71.3736 -21.2076 0.0000 2.1982
-71.3761 -21.1420 0.0000 2.1982
-71.3786 -21.0765 0.0000 2.1982
-71.3811 -21.0109 0.0000 2.1982
-71.3835 -20.9453 0.0000 2.1982
-71.3860 -20.8798 0.0000 2.1982
-71.2109 -23.9594 0.0000 4.3974
-71.2134 -23.8938 0.0000 4.3974
-71.2159 -23.8283 0.0000 4.3974
-71.2183 -23.7627 0.0000 4.3974
-71.2208 -23.6971 0.0000 4.3974
-71.2233 -23.6316 0.0000 4.3974
-71.2258 -23.5660 0.0000 4.3974
-71.2282 -23.5005 0.0000 4.3974
-71.2307 -23.4349 0.0000 4.3974
-71.2332 -23.3693 0.0000 4.3974
-71.2357 -23.3038 0.0000 4.3974
-71.2382 -23.2382 0.0000 4.3974
-71.2406 -23.1726 0.0000 4.3974
-71.2431 -23.1071 0.0000 4.3974
-71.2456 -23.0415 0.0000 4.3974
-71.2481 -22.9759 0.0000 4.3974
-71.2505 -22.9104 0.0000 4.3974
-71.2530 -22.8448 0.0000 4.3974
-71.2555 -22.7792 0.0000 4.3974
-71.2580 -22.7137 0.0000 4.3974
-71.2604 -22.6481 0.0000 4.3974
-71.2629 -22.5825 0.0000 4.3974
-71.2654 -22.5170 0.0000 4.3974
-71.2679 -22.4514 0.0000 4.3974
-71.2703 -22.3858 0.0000 4.3974
-71.2728 -22.3203 0.0000 4.3974
-71.2753 -22.2547 0.0000 4.3974
-71.2778 -22.1892 0.0000 4.3974
-71.2802 -22.1236 0.0000 4.3974
-71.2827 -22.0580 0.0000 4.3974
-71.2852 -21.9925 0.0000 4.3974
-71.2877 -21.9269 0.0000 4.3974
-71.2901 -21.8613 0.0000 4.3974
-71.2926 -21.7958 0.0000 4.3974
-71.2951 -21.7302 0.0000 4.3974
-71.2976 -21.6646 0.0000 4.3974
-71.3000 -21.5991 0.0000 4.3974
-71.3025 -21.5335 0.0000 4.3974
-71.3050 -21.4679 0.0000 4.3974
-71.3075 -21.4024 0.0000 4.3974
-71.3099 -21.3368 0.0000 4.3974
-71.3124 -21.2712 0.0000 4.3974
-71.3149 -21.2057 0.0000 4.3974
-71.3174 -21.1401 0.0000 4.3974
-71.3198 -21.0746 0.0000 4.3974
-71.3223 -21.0090 0.0000 4.3974
-71.3248 -20.9434 0.0000 4.3974
-71.3273 -20.8779 0.0000 4.3974
-71.1522 -23.9575 0.0000 6.5966
-71.1547 -23.8919 0.0000 6.5966
-71.1571 -23.8264 0.0000 6.5966
-71.1596 -23.7608 0.0000 6.5966
-71.1621 -23.6952 0.0000 6.5966
-71.1646 -23.6297 0.0000 6.5966
-71.1670 -23.5641 0.0000 6.5966
-71.1695 -23.4986 0.0000 6.5966
-71.1720 -23.4330 0.0000 6.5966
-71.1745 -23.3674 0.0000 6.5966
-71.1769 -23.3019 0.0000 6.5966
-71.1794 -23.2363 0.0000 6.5966
-71.1819 -23.1707 0.0000 6.5966
-71.1844 -23.1052 0.0000 6.5966
-71.1868 -23.0396 0.0000 6.5966
-71.1893 -22.9740 0.0000 6.5966
-71.1918 -22.9085 0.0000 6.5966
-71.1943 -22.8429 0.0000 6.5966
-71.1967 -22.7773 0.0000 6.5966
-71.1992 -22.7118 0.0000 6.5966
-71.2017 -22.6462 0.0000 6.5966
-71.2042 -22.5806 0.0000 6.5966
-71.2066 -22.5151 0.0000 6.5966
-71.2091 -22.4495 0.0000 6.5966
-71.2116 -22.3840 0.0000 6.5966
-71.2141 -22.3184 0.0000 6.5966
-71.2165 -22.2528 0.0000 6.5966
-71.2190 -22.1873 0.0000 6.5966
-71.2215 -22.1217 0.0000 6.5966
-71.2240 -22.0561 0.0000 6.5966
-71.2264 -21.9906 0.0000 6.5966
-71.2289 -21.9250 0.0000 6.5966
-71.2314 -21.8594 0.0000 6.5966
-71.2339 -21.7939 0.0000 6.5966
-71.2363 -21.7283 0.0000 6.5966
-71.2388 -21.6627 0.0000 6.5966
-71.2413 -21.5972 0.0000 6.5966
-71.2438 -21.5316 0.0000 6.5966
-71.2462 -21.4660 0.0000 6.5966
-71.2487 -21.4005 0.0000 6.5966
-71.2512 -21.3349 0.0000 6.5966
-71.2537 -21.2693 0.0000 6.5966
-71.2561 -21.2038 0.0000 6.5966
-71.2586 -21.1382 0.0000 6.5966
-71.2611 -21.0727 0.0000 6.5966
-71.2636 -21.0071 0.0000 6.5966
-71.2660 -20.9415 0.0000 6.5966
-71.2685 -20.8760 0.0000 6.5966
-71.0934 -23.9556 0.0000 8.7958
-71.0959 -23.8900 0.0000 8.7958
-71.0984 -23.8245 0.0000 8.7958
-71.1009 -23.7589 0.0000 8.7958
-71.1033 -23.6933 0.0000 8.7958
-71.1058 -23.6278 0.0000 8.7958
-71.1083 -23.5622 0.0000 8.7958
-71.1108 -23.4967 0.0000 8.7958
-71.1132 -23.4311 0.0000 8.7958
-71.1157 -23.3655 0.0000 8.7958
-71.1182 -23.3000 0.0000 8.7958
-71.1207 -23.2344 0.0000 8.7958
-71.1231 -23.1688 0.0000 8.7958
-71.1256 -23.1033 0.0000 8.7958
-71.1281 -23.0377 0.0000 8.7958
-71.1306 -22.9721 0.0000 8.7958
-71.1330 -22.9066 0.0000 8.7958
-71.1355 -22.8410 0.0000 8.7958
-71.1380 -22.7754 0.0000 8.7958
-71.1405 -22.7099 0.0000 8.7958
-71.1429 -22.6443 0.0000 8.7958
-71.1454 -22.5787 0.0000 8.7958
-71.1479 -22.5132 0.0000 8.7958
-71.1504 -22.4476 0.0000 8.7958
-71.1528 -22.3821 0.0000 8.7958
-71.1553 -22.3165 0.0000 8.7958
-71.1578 -22.2509 0.0000 8.7958
-71.1603 -22.1854 0.0000 8.7958
-71.1627 -22.1198 0.0000 8.7958
-71.1652 -22.0542 0.0000 8.7958
-71.1677 -21.9887 0.0000 8.7958
-71.1702 -21.9231 0.0000 8.7958
-71.1726 -21.8575 0.0000 8.7958
-71.1751 -21.7920 0.0000 8.7958
-71.1776 -21.7264 0.0000 8.7958
-71.1801 -21.6608 0.0000 8.7958
-71.1825 -21.5953 0.0000 8.7958
-71.1850 -21.5297 0.0000 8.7958
-71.1875 -21.4641 0.0000 8.7958
-71.1900 -21.3986 0.0000 8.7958
-71.1924 -21.3330 0.0000 8.7958
-71.1949 -21.2675 0.0000 8.7958
-71.1974 -21.2019 0.0000 8.7958
-71.1999 -21.1363 0.0000 8.7958
-71.2023 -21.0708 0.0000 8.7958
-71.2048 -21.0052 0.0000 8.7958
-71.2073 -20.9396 0.0000 8.7958
-71.2098 -20.8741 0.0000 8.7958
-71.0347 -23.9537 0.0000 10.9949
-71.0372 -23.8881 0.0000 10.9949
-71.0396 -23.8226 0.0000 10.9949
-71.0421 -23.7570 0.0000 10.9949
-71.0446 -23.6915 0.0000 10.9949
-71.0471 -23.6259 0.0000 10.9949
-71.0495 -23.5603 0.0000 10.9949
-71.0520 -23.4948 0.0000 10.9949
-71.0545 -23.4292 0.0000 10.9949
-71.0570 -23.3636 0.0000 10.9949
-71.0594 -23.2981 0.0000 10.9949
-71.0619 -23.2325 0.0000 10.9949
-71.0644 -23.1669 0.0000 10.9949
-71.0669 -23.1014 0.0000 10.9949
-71.0693 -23.0358 0.0000 10.9949
-71.0718 -22.9702 0.0000 10.9949
-71.0743 -22.9047 0.0000 10.9949
-71.0768 -22.8391 0.0000 10.9949
-71.0792 -22.7735 0.0000 10.9949
-71.0817 -22.7080 0.0000 10.9949
-71.0842 -22.6424 0.0000 10.9949
-71.0867 -22.5769 0.0000 10.9949
-71.0891 -22.5113 0.0000 10.9949
-71.0916 -22.4457 0.0000 10.9949
-71.0941 -22.3802 0.0000 10.9949
-71.0966 -22.3146 0.0000 10.9949
-71.0990 -22.2490 0.0000 10.9949
-71.1015 -22.1835 0.0000 10.9949
-71.1040 -22.1179 0.0000 10.9949
-71.1065 -22.0523 0.0000 10.9949
-71.1089 -21.9868 0.0000 10.9949
-71.1114 -21.9212 0.0000 10.9949
-71.1139 -21.8556 0.0000 10.9949
-71.1164 -21.7901 0.0000 10.9949
-71.1188 -21.7245 0.0000 10.9949
-71.1213 -21.6589 0.0000 10.9949
-71.1238 -21.5934 0.0000 10.9949
-71.1263 -21.5278 0.0000 10.9949
-71.1287 -21.4622 0.0000 10.9949
-71.1312 -21.3967 0.0000 10.9949
-71.1337 -21.3311 0.0000 10.9949
-71.1362 -21.2656 0.0000 10.9949
-71.1386 -21.2000 0.0000 10.9949
-71.1411 -21.1344 0.0000 10.9949
-71.1436 -21.0689 0.0000 10.9949
-71.1461 -21.0033 0.0000 10.9949
-71.1485 -20.9377 0.0000 10.9949
-71.1510 -20.8722 0.0000 10.9949
-70.9759 -23.9518 0.0000 13.1941
-70.9784 -23.8862 0.0000 13.1941
-70.9809 -23.8207 0.0000 13.1941
-70.9834 -23.7551 0.0000 13.1941
-70.9858 -23.6896 0.0000 13.1941
-70.9883 -23.6240 0.0000 13.1941
-70.9908 -23.5584 0.0000 13.1941
-70.9933 -23.4929 0.0000 13.1941
-70.9957 -23.4273 0.0000 13.1941
-70.9982 -23.3617 0.0286 13.1941
-71.0007 -23.2962 0.0899 13.1941
-71.0032 -23.2306 0.1852 13.1941
-71.0056 -23.1650 0.3038 13.1941
-71.0081 -23.0995 0.4176 13.1941
-71.0106 -23.0339 0.4882 13.1941
-71.0131 -22.9683 0.4851 13.1941
-71.0155 -22.9028 0.4045 13.1941
-71.0180 -22.8372 0.2758 13.1941
-71.0205 -22.7716 0.1474 13.1941
-71.0230 -22.7061 0.0590 13.1941
-71.0254 -22.6405 0.0188 13.1941
-71.0279 -22.5750 0.0027 13.1941
-71.0304 -22.5094 0.0000 13.1941
-71.0329 -22.4438 0.0000 13.1941
-71.0353 -22.3783 0.0000 13.1941
-71.0378 -22.3127 0.0000 13.1941
-71.0403 -22.2471 0.0000 13.1941
-71.0428 -22.1816 0.0000 13.1941
-71.0452 -22.1160 0.0000 13.1941
-71.0477 -22.0504 0.0000 13.1941
-71.0502 -21.9849 0.0000 13.1941
-71.0527 -21.9193 0.0000 13.1941
-71.0551 -21.8537 0.0000 13.1941
-71.0576 -21.7882 0.0000 13.1941
-71.0601 -21.7226 0.0000 13.1941
-71.0626 -21.6570 0.0000 13.1941
-71.0650 -21.5915 0.0000 13.1941
-71.0675 -21.5259 0.0000 13.1941
-71.0700 -21.4604 0.0000 13.1941
-71.0725 -21.3948 0.0000 13.1941
-71.0749 -21.3292 0.0000 13.1941
-71.0774 -21.2637 0.0000 13.1941
-71.0799 -21.1981 0.0000 13.1941
-71.0824 -21.1325 0.0000 13.1941
-71.0848 -21.0670 0.0000 13.1941
-71.0873 -21.0014 0.0000 13.1941
-71.0898 -20.9358 0.0000 13.1941
-71.0923 -20.8703 0.0000 13.1941
-70.9172 -23.9499 0.0000 15.3933
-70.9197 -23.8844 0.0000 15.3933
-70.9221 -23.8188 0.0000 15.3933
-70.9246 -23.7532 0.0000 15.3933
-70.9271 -23.6877 0.0000 15.3933
-70.9296 -23.6221 0.0000 15.3933
-70.9320 -23.5565 0.0000 15.3933
-70.9345 -23.4910 0.0052 15.3933
-70.9370 -23.4254 0.0429 15.3933
-70.9395 -23.3598 0.0959 15.3933
-70.9419 -23.2943 0.1699 15.3933
-70.9444 -23.2287 0.2819 15.3933
-70.9469 -23.1631 0.4274 15.3933
-70.9494 -23.0976 0.5659 15.3933
-70.9518 -23.0320 0.6381 15.3933
-70.9543 -22.9664 0.6015 15.3933
-70.9568 -22.9009 0.4607 15.3933
-70.9593 -22.8353 0.2681 15.3933
-70.9617 -22.7697 0.0979 15.3933
-70.9642 -22.7042 0.0075 15.3933
-70.9667 -22.6386 0.0000 15.3933
-70.9692 -22.5731 0.0000 15.3933
-70.9716 -22.5075 0.0000 15.3933
-70.9741 -22.4419 0.0000 15.3933
-70.9766 -22.3764 0.0000 15.3933
-70.9791 -22.3108 0.0000 15.3933
-70.9815 -22.2452 0.0000 15.3933
-70.9840 -22.1797 0.0000 15.3933
-70.9865 -22.1141 0.0000 15.3933
-70.9890 -22.0485 0.0000 15.3933
-70.9914 -21.9830 0.0000 15.3933
-70.9939 -21.9174 0.0000 15.3933
-70.9964 -21.8518 0.0000 15.3933
-70.9989 -21.7863 0.0000 15.3933
-71.0013 -21.7207 0.0000 15.3933
-71.0038 -21.6551 0.0000 15.3933
-71.0063 -21.5896 0.0000 15.3933
-71.0088 -21.5240 0.0000 15.3933
-71.0112 -21.4585 0.0000 15.3933
-71.0137 -21.3929 0.0000 15.3933
-71.0162 -21.3273 0.0000 15.3933
-71.0187 -21.2618 0.0000 15.3933
-71.0211 -21.1962 0.0000 15.3933
-71.0236 -21.1306 0.0000 15.3933
-71.0261 -21.0651 0.0000 15.3933
-71.0286 -20.9995 0.0000 15.3933
-71.0310 -20.9339 0.0000 15.3933
-71.0335 -20.8684 0.0000 15.3933
-70.8584 -23.9480 0.0055 17.5925
-70.8609 -23.8825 0.0000 17.5925
-70.8634 -23.8169 0.0000 17.5925
-70.8659 -23.7513 0.0000 17.5925
-70.8683 -23.6858 0.0000 17.5925
-70.8708 -23.6202 0.0006 17.5925
-70.8733 -23.5546 0.0027 17.5925
-70.8758 -23.4891 0.0598 17.5925
-70.8782 -23.4235 0.1246 17.5925
-70.8807 -23.3579 0.1690 17.5925
-70.8832 -23.2924 0.2260 17.5925
-70.8857 -23.2268 0.3425 17.5925
-70.8881 -23.1612 0.5189 17.5925
-70.8906 -23.0957 0.6930 17.5925
-70.8931 -23.0301 0.7766 17.5925
-70.8956 -22.9645 0.7198 17.5925
-70.8980 -22.8990 0.5407 17.5925
-70.9005 -22.8334 0.3063 17.5925
-70.9030 -22.7679 0.1022 17.5925
-70.9055 -22.7023 0.0000 17.5925
-70.9079 -22.6367 0.0000 17.5925
-70.9104 -22.5712 0.0000 17.5925
-70.9129 -22.5056 0.0000 17.5925
-70.9154 -22.4400 0.0000 17.5925
-70.9178 -22.3745 0.0000 17.5925
-70.9203 -22.3089 0.0000 17.5925
-70.9228 -22.2433 0.0000 17.5925
-70.9253 -22.1778 0.0000 17.5925
-70.9277 -22.1122 0.0000 17.5925
-70.9302 -22.0466 0.0000 17.5925
-70.9327 -21.9811 0.0000 17.5925
-70.9352 -21.9155 0.0000 17.5925
-70.9376 -21.8499 0.0000 17.5925
-70.9401 -21.7844 0.0000 17.5925
-70.9426 -21.7188 0.0000 17.5925
-70.9451 -21.6532 0.0000 17.5925
-70.9475 -21.5877 0.0000 17.5925
-70.9500 -21.5221 0.0000 17.5925
-70.9525 -21.4566 0.0000 17.5925
-70.9550 -21.3910 0.0000 17.5925
-70.9574 -21.3254 0.0000 17.5925
-70.9599 -21.2599 0.0000 17.5925
-70.9624 -21.1943 0.0000 17.5925
-70.9649 -21.1287 0.0000 17.5925
-70.9673 -21.0632 0.0000 17.5925
-70.9698 -20.9976 0.0000 17.5925
-70.9723 -20.9320 0.0000 17.5925
-70.9748 -20.8665 0.0000 17.5925
-70.7997 -23.9461 0.1250 19.7917
-70.8022 -23.8806 0.1355 19.7917
-70.8046 -23.8150 0.0699 19.7917
-70.8071 -23.7494 0.0048 19.7917
-70.8096 -23.6839 0.0000 19.7917
-70.8121 -23.6183 0.0000 19.7917
-70.8145 -23.5527 0.0512 19.7917
-70.8170 -23.4872 0.1393 19.7917
-70.8195 -23.4216 0.1955 19.7917
-70.8220 -23.3560 0.2120 19.7917
-70.8244 -23.2905 0.2385 19.7917
-70.8269 -23.2249 0.3474 19.7917
-70.8294 -23.1593 0.5551 19.7917
-70.8319 -23.0938 0.7642 19.7917
-70.8343 -23.0282 0.8584 19.7917
-70.8368 -22.9626 0.7967 19.7917
-70.8393 -22.8971 0.6136 19.7917
-70.8418 -22.8315 0.3686 19.7917
-70.8442 -22.7660 0.1393 19.7917
-70.8467 -22.7004 0.0095 19.7917
-70.8492 -22.6348 0.0000 19.7917
-70.8517 -22.5693 0.0000 19.7917
-70.8541 -22.5037 0.0000 19.7917
-70.8566 -22.4381 0.0000 19.7917
-70.8591 -22.3726 0.0000 19.7917
-70.8616 -22.3070 0.0000 19.7917
-70.8640 -22.2414 0.0000 19.7917
-70.8665 -22.1759 0.0000 19.7917
-70.8690 -22.1103 0.0000 19.7917
-70.8715 -22.0447 0.0000 19.7917
-70.8739 -21.9792 0.0000 19.7917
-70.8764 -21.9136 0.0000 19.7917
-70.8789 -21.8480 0.0000 19.7917
-70.8814 -21.7825 0.0000 19.7917
-70.8838 -21.7169 0.0000 19.7917
-70.8863 -21.6514 0.0000 19.7917
-70.8888 -21.5858 0.0000 19.7917
-70.8913 -21.5202 0.0000 19.7917
-70.8937 -21.4547 0.0000 19.7917
-70.8962 -21.3891 0.0000 19.7917
-70.8987 -21.3235 0.0000 19.7917
-70.9012 -21.2580 0.0000 19.7917
-70.9036 -21.1924 0.0000 19.7917
-70.9061 -21.1268 0.0000 19.7917
-70.9086 -21.0613 0.0000 19.7917
-70.9111 -20.9957 0.0000 19.7917
-70.9135 -20.9301 0.0000 19.7917
-70.9160 -20.8646 0.0000 19.7917
-70.7409 -23.9442 0.3141 21.9909
-70.7434 -23.8787 0.3902 21.9909
-70.7459 -23.8131 0.2920 21.9909
-70.7484 -23.7475 0.1589 21.9909
-70.7508 -23.6820 0.0807 21.9909
-70.7533 -23.6164 0.0641 21.9909
-70.7558 -23.5508 0.1200 21.9909
-70.7583 -23.4853 0.1850 21.9909
-70.7607 -23.4197 0.2104 21.9909
-70.7632 -23.3541 0.2149 21.9909
-70.7657 -23.2886 0.2251 21.9909
-70.7682 -23.2230 0.3155 21.9909
-70.7706 -23.1574 0.5386 21.9909
-70.7731 -23.0919 0.7592 21.9909
-70.7756 -23.0263 0.8408 21.9909
-70.7781 -22.9608 0.7770 21.9909
-70.7805 -22.8952 0.6238 21.9909
-70.7830 -22.8296 0.4077 21.9909
-70.7855 -22.7641 0.1902 21.9909
-70.7880 -22.6985 0.0441 21.9909
-70.7904 -22.6329 0.0000 21.9909
-70.7929 -22.5674 0.0000 21.9909
-70.7954 -22.5018 0.0000 21.9909
-70.7979 -22.4362 0.0000 21.9909
-70.8003 -22.3707 0.0000 21.9909
-70.8028 -22.3051 0.0000 21.9909
-70.8053 -22.2395 0.0000 21.9909
-70.8078 -22.1740 0.0000 21.9909
-70.8102 -22.1084 0.0000 21.9909
-70.8127 -22.0428 0.0000 21.9909
-70.8152 -21.9773 0.0000 21.9909
-70.8177 -21.9117 0.0000 21.9909
-70.8201 -21.8461 0.0000 21.9909
-70.8226 -21.7806 0.0000 21.9909
-70.8251 -21.7150 0.0000 21.9909
-70.8276 -21.6495 0.0000 21.9909
-70.8300 -21.5839 0.0000 21.9909
-70.8325 -21.5183 0.0000 21.9909
-70.8350 -21.4528 0.0000 21.9909
-70.8375 -21.3872 0.0000 21.9909
-70.8399 -21.3216 0.0000 21.9909
-70.8424 -21.2561 0.0000 21.9909
-70.8449 -21.1905 0.0000 21.9909
-70.8474 -21.1249 0.0000 21.9909
-70.8498 -21.0594 0.0000 21.9909
-70.8523 -20.9938 0.0000 21.9909
-70.8548 -20.9282 0.0000 21.9909
-70.8573 -20.8627 0.0000 21.9909
-70.6822 -23.9423 0.4474 24.1901
-70.6847 -23.8768 0.5935 24.1901
-70.6871 -23.8112 0.5167 24.1901
-70.6896 -23.7456 0.3711 24.1901
-70.6921 -23.6801 0.2532 24.1901
-70.6946 -23.6145 0.1901 24.1901
-70.6970 -23.5489 0.1741 24.1901
-70.6995 -23.4834 0.1700 24.1901
-70.7020 -23.4178 0.1635 24.1901
-70.7045 -23.3522 0.1707 24.1901
-70.7069 -23.2867 0.2032 24.1901
-70.7094 -23.2211 0.2961 24.1901
-70.7119 -23.1555 0.5051 24.1901
-70.7144 -23.0900 0.6943 24.1901
-70.7168 -23.0244 0.7240 24.1901
-70.7193 -22.9589 0.6460 24.1901
-70.7218 -22.8933 0.5476 24.1901
-70.7243 -22.8277 0.4094 24.1901
-70.7267 -22.7622 0.2540 24.1901
-70.7292 -22.6966 0.1221 24.1901
-70.7317 -22.6310 0.0399 24.1901
-70.7342 -22.5655 0.0038 24.1901
-70.7366 -22.4999 0.0000 24.1901
-70.7391 -22.4343 0.0000 24.1901
-70.7416 -22.3688 0.0000 24.1901
-70.7441 -22.3032 0.0000 24.1901
-70.7465 -22.2376 0.0000 24.1901
-70.7490 -22.1721 0.0000 24.1901
-70.7515 -22.1065 0.0000 24.1901
-70.7540 -22.0409 0.0000 24.1901
-70.7564 -21.9754 0.0000 24.1901
-70.7589 -21.9098 0.0000 24.1901
-70.7614 -21.8443 0.0000 24.1901
-70.7639 -21.7787 0.0130 24.1901
-70.7663 -21.7131 0.0357 24.1901
-70.7688 -21.6476 0.0533 24.1901
-70.7713 -21.5820 0.0567 24.1901
-70.7738 -21.5164 0.0451 24.1901
-70.7762 -21.4509 0.0252 24.1901
-70.7787 -21.3853 0.0076 24.1901
-70.7812 -21.3197 0.0051 24.1901
-70.7837 -21.2542 0.0344 24.1901
-70.7861 -21.1886 0.1065 24.1901
-70.7886 -21.1230 0.2045 24.1901
-70.7911 -21.0575 0.2933 24.1901
-70.7936 -20.9919 0.3334 24.1901
-70.7960 -20.9263 0.2965 24.1901
-70.7985 -20.8608 0.1771 24.1901
-70.6234 -23.9404 0.4112 26.3893
-70.6259 -23.8749 0.5723 26.3893
-70.6284 -23.8093 0.5492 26.3893
-70.6309 -23.7437 0.4572 26.3893
-70.6333 -23.6782 0.3620 26.3893
-70.6358 -23.6126 0.2777 26.3893
-70.6383 -23.5470 0.1954 26.3893
-70.6408 -23.4815 0.1205 26.3893
-70.6432 -23.4159 0.0830 26.3893
-70.6457 -23.3503 0.1132 26.3893
-70.6482 -23.2848 0.2089 26.3893
-70.6507 -23.2192 0.3384 26.3893
-70.6531 -23.1536 0.5078 26.3893
-70.6556 -23.0881 0.6310 26.3893
-70.6581 -23.0225 0.5892 26.3893
-70.6606 -22.9570 0.4847 26.3893
-70.6630 -22.8914 0.4467 26.3893
-70.6655 -22.8258 0.4093 26.3893
-70.6680 -22.7603 0.3438 26.3893
-70.6705 -22.6947 0.2557 26.3893
-70.6729 -22.6291 0.1668 26.3893
-70.6754 -22.5636 0.1002 26.3893
-70.6779 -22.4980 0.0641 26.3893
-70.6804 -22.4324 0.0469 26.3893
-70.6828 -22.3669 0.0407 26.3893
-70.6853 -22.3013 0.0406 26.3893
-70.6878 -22.2357 0.0421 26.3893
-70.6903 -22.1702 0.0415 26.3893
-70.6927 -22.1046 0.0379 26.3893
-70.6952 -22.0390 0.0341 26.3893
-70.6977 -21.9735 0.0357 26.3893
-70.7002 -21.9079 0.0491 26.3893
-70.7026 -21.8424 0.0785 26.3893
-70.7051 -21.7768 0.1255 26.3893
-70.7076 -21.7112 0.1763 26.3893
-70.7101 -21.6457 0.2075 26.3893
-70.7125 -21.5801 0.2035 26.3893
-70.7150 -21.5145 0.1652 26.3893
-70.7175 -21.4490 0.1097 26.3893
-70.7200 -21.3834 0.0628 26.3893
-70.7225 -21.3178 0.0500 26.3893
-70.7249 -21.2523 0.0885 26.3893
-70.7274 -21.1867 0.1777 26.3893
-70.7299 -21.1211 0.2916 26.3893
-70.7324 -21.0556 0.3881 26.3893
-70.7348 -20.9900 0.4236 26.3893
-70.7373 -20.9244 0.3682 26.3893
-70.7398 -20.8589 0.2173 26.3893
-70.5647 -23.9385 0.2104 28.5885
-70.5672 -23.8730 0.3173 28.5885
-70.5696 -23.8074 0.3404 28.5885
-70.5721 -23.7418 0.3253 28.5885
-70.5746 -23.6763 0.2924 28.5885
-70.5771 -23.6107 0.2344 28.5885
-70.5795 -23.5451 0.1452 28.5885
-70.5820 -23.4796 0.0537 28.5885
-70.5845 -23.4140 0.0175 28.5885
-70.5870 -23.3484 0.0762 28.5885
-70.5894 -23.2829 0.2442 28.5885
-70.5919 -23.2173 0.4367 28.5885
-70.5944 -23.1518 0.5788 28.5885
-70.5969 -23.0862 0.6425 28.5885
-70.5993 -23.0206 0.5603 28.5885
-70.6018 -22.9551 0.4470 28.5885
-70.6043 -22.8895 0.4473 28.5885
-70.6068 -22.8239 0.4799 28.5885
-70.6092 -22.7584 0.4821 28.5885
-70.6117 -22.6928 0.4365 28.5885
-70.6142 -22.6272 0.3603 28.5885
-70.6167 -22.5617 0.2848 28.5885
-70.6191 -22.4961 0.2305 28.5885
-70.6216 -22.4305 0.2004 28.5885
-70.6241 -22.3650 0.1876 28.5885
-70.6266 -22.2994 0.1835 28.5885
-70.6290 -22.2338 0.1806 28.5885
-70.6315 -22.1683 0.1744 28.5885
-70.6340 -22.1027 0.1651 28.5885
-70.6365 -22.0372 0.1590 28.5885
-70.6390 -21.9716 0.1673 28.5885
-70.6414 -21.9060 0.2011 28.5885
-70.6439 -21.8405 0.2631 28.5885
-70.6464 -21.7749 0.3418 28.5885
-70.6489 -21.7093 0.4107 28.5885
-70.6513 -21.6438 0.4399 28.5885
-70.6538 -21.5782 0.4124 28.5885
-70.6563 -21.5126 0.3355 28.5885
-70.6588 -21.4471 0.2382 28.5885
-70.6612 -21.3815 0.1593 28.5885
-70.6637 -21.3159 0.1320 28.5885
-70.6662 -21.2504 0.1710 28.5885
-70.6687 -21.1848 0.2671 28.5885
-70.6711 -21.1192 0.3872 28.5885
-70.6736 -21.0537 0.4835 28.5885
-70.6761 -20.9881 0.5094 28.5885
-70.6786 -20.9225 0.4340 28.5885
-70.6810 -20.8570 0.2536 28.5885
-70.5059 -23.9366 0.0107 30.7877
-70.5084 -23.8711 0.0440 30.7877
-70.5109 -23.8055 0.0727 30.7877
-70.5134 -23.7399 0.0948 30.7877
-70.5158 -23.6744 0.1060 30.7877
-70.5183 -23.6088 0.0924 30.7877
-70.5208 -23.5432 0.0490 30.7877
-70.5233 -23.4777 0.0014 30.7877
-70.5257 -23.4121 0.0000 30.7877
-70.5282 -23.3465 0.0468 30.7877
-70.5307 -23.2810 0.2518 30.7877
-70.5332 -23.2154 0.5147 30.7877
-70.5356 -23.1499 0.6999 30.7877
-70.5381 -23.0843 0.7722 30.7877
-70.5406 -23.0187 0.7275 30.7877
-70.5431 -22.9532 0.6532 30.7877
-70.5456 -22.8876 0.6573 30.7877
-70.5480 -22.8220 0.6894 30.7877
-70.5505 -22.7565 0.6915 30.7877
-70.5530 -22.6909 0.6482 30.7877
-70.5555 -22.6253 0.5778 30.7877
-70.5579 -22.5598 0.5095 30.7877
-70.5604 -22.4942 0.4615 30.7877
-70.5629 -22.4286 0.4351 30.7877
-70.5654 -22.3631 0.4205 30.7877
-70.5678 -22.2975 0.4071 30.7877
-70.5703 -22.2319 0.3893 30.7877
-70.5728 -22.1664 0.3683 30.7877
-70.5753 -22.1008 0.3504 30.7877
-70.5777 -22.0353 0.3464 30.7877
-70.5802 -21.9697 0.3689 30.7877
-70.5827 -21.9041 0.4261 30.7877
-70.5852 -21.8386 0.5131 30.7877
-70.5876 -21.7730 0.6067 30.7877
-70.5901 -21.7074 0.6719 30.7877
-70.5926 -21.6419 0.6774 30.7877
-70.5951 -21.5763 0.6122 30.7877
-70.5975 -21.5107 0.4935 30.7877
-70.6000 -21.4452 0.3612 30.7877
-70.6025 -21.3796 0.2603 30.7877
-70.6050 -21.3140 0.2239 30.7877
-70.6074 -21.2485 0.2613 30.7877
-70.6099 -21.1829 0.3560 30.7877
-70.6124 -21.1173 0.4710 30.7877
-70.6149 -21.0518 0.5576 30.7877
-70.6173 -20.9862 0.5695 30.7877
-70.6198 -20.9207 0.4768 30.7877
-70.6223 -20.8551 0.2761 30.7877
-70.4472 -23.9347 0.0000 32.9868
-70.4497 -23.8692 0.0000 32.9868
-70.4521 -23.8036 0.0000 32.9868
-70.4546 -23.7380 0.0000 32.9868
-70.4571 -23.6725 0.0000 32.9868
-70.4596 -23.6069 0.0000 32.9868
-70.4621 -23.5413 0.0000 32.9868
-70.4645 -23.4758 0.0000 32.9868
-70.4670 -23.4102 0.0000 32.9868
-70.4695 -23.3447 0.0073 32.9868
-70.4720 -23.2791 0.1865 32.9868
-70.4744 -23.2135 0.5042 32.9868
-70.4769 -23.1480 0.8111 32.9868
-70.4794 -23.0824 1.0153 32.9868
-70.4819 -23.0168 1.1032 32.9868
-70.4843 -22.9513 1.1096 32.9868
-70.4868 -22.8857 1.0953 32.9868
-70.4893 -22.8201 1.0600 32.9868
-70.4918 -22.7546 0.9856 32.9868
-70.4942 -22.6890 0.8860 32.9868
-70.4967 -22.6234 0.7936 32.9868
-70.4992 -22.5579 0.7335 32.9868
-70.5017 -22.4923 0.7091 32.9868
-70.5041 -22.4267 0.7042 32.9868
-70.5066 -22.3612 0.6960 32.9868
-70.5091 -22.2956 0.6695 32.9868
-70.5116 -22.2300 0.6250 32.9868
-70.5140 -22.1645 0.5763 32.9868
-70.5165 -22.0989 0.5427 32.9868
-70.5190 -22.0334 0.5415 32.9868
-70.5215 -21.9678 0.5820 32.9868
-70.5239 -21.9022 0.6609 32.9868
-70.5264 -21.8367 0.7587 32.9868
-70.5289 -21.7711 0.8420 32.9868
-70.5314 -21.7055 0.8746 32.9868
-70.5338 -21.6400 0.8335 32.9868
-70.5363 -21.5744 0.7216 32.9868
-70.5388 -21.5088 0.5691 32.9868
-70.5413 -21.4433 0.4213 32.9868
-70.5437 -21.3777 0.3199 32.9868
-70.5462 -21.3121 0.2889 32.9868
-70.5487 -21.2466 0.3285 32.9868
-70.5512 -21.1810 0.4171 32.9868
-70.5536 -21.1154 0.5179 32.9868
-70.5561 -21.0499 0.5868 32.9868
-70.5586 -20.9843 0.5830 32.9868
-70.5611 -20.9188 0.4800 32.9868
-70.5635 -20.8532 0.2756 32.9868
-70.3885 -23.9328 0.0000 35.1860
-70.3909 -23.8673 0.0000 35.1860
-70.3934 -23.8017 0.0000 35.1860
-70.3959 -23.7361 0.0000 35.1860
-70.3984 -23.6706 0.0000 35.1860
-70.4008 -23.6050 0.0000 35.1860
-70.4033 -23.5394 0.0000 35.1860
-70.4058 -23.4739 0.0000 35.1860
-70.4083 -23.4083 0.0000 35.1860
-70.4107 -23.3428 0.0000 35.1860
-70.4132 -23.2772 0.0785 35.1860
-70.4157 -23.2116 0.4130 35.1860
-70.4182 -23.1461 0.8693 35.1860
-70.4206 -23.0805 1.2861 35.1860
-70.4231 -23.0149 1.5750 35.1860
-70.4256 -22.9494 1.6998 35.1860
-70.4281 -22.8838 1.6783 35.1860
-70.4305 -22.8182 1.5475 35.1860
-70.4330 -22.7527 1.3521 35.1860
-70.4355 -22.6871 1.1531 35.1860
-70.4380 -22.6215 1.0089 35.1860
-70.4404 -22.5560 0.9462 35.1860
-70.4429 -22.4904 0.9506 35.1860
-70.4454 -22.4248 0.9798 35.1860
-70.4479 -22.3593 0.9885 35.1860
-70.4503 -22.2937 0.9512 35.1860
-70.4528 -22.2282 0.8727 35.1860
-70.4553 -22.1626 0.7831 35.1860
-70.4578 -22.0970 0.7206 35.1860
-70.4602 -22.0315 0.7131 35.1860
-70.4627 -21.9659 0.7647 35.1860
-70.4652 -21.9003 0.8542 35.1860
-70.4677 -21.8348 0.9422 35.1860
-70.4701 -21.7692 0.9861 35.1860
-70.4726 -21.7036 0.9569 35.1860
-70.4751 -21.6381 0.8505 35.1860
-70.4776 -21.5725 0.6917 35.1860
-70.4800 -21.5069 0.5222 35.1860
-70.4825 -21.4414 0.3846 35.1860
-70.4850 -21.3758 0.3071 35.1860
-70.4875 -21.3102 0.2971 35.1860
-70.4899 -21.2447 0.3440 35.1860
-70.4924 -21.1791 0.4241 35.1860
-70.4949 -21.1136 0.5055 35.1860
-70.4974 -21.0480 0.5531 35.1860
-70.4998 -20.9824 0.5357 35.1860
-70.5023 -20.9169 0.4338 35.1860
-70.5048 -20.8513 0.2467 35.1860
-70.3297 -23.9309 0.0000 37.3852
-70.3322 -23.8654 0.0000 37.3852
-70.3347 -23.7998 0.0000 37.3852
-70.3371 -23.7342 0.0000 37.3852
-70.3396 -23.6687 0.0000 37.3852
-70.3421 -23.6031 0.0000 37.3852
-70.3446 -23.5375 0.0000 37.3852
-70.3470 -23.4720 0.0000 37.3852
-70.3495 -23.4064 0.0000 37.3852
-70.3520 -23.3409 0.0000 37.3852
-70.3545 -23.2753 0.0000 37.3852
-70.3569 -23.2097 0.3134 37.3852
-70.3594 -23.1442 0.8814 37.3852
-70.3619 -23.0786 1.4978 37.3852
-70.3644 -23.0130 1.9885 37.3852
-70.3668 -22.9475 2.2453 37.3852
-70.3693 -22.8819 2.2455 37.3852
-70.3718 -22.8163 2.0427 37.3852
-70.3743 -22.7508 1.7338 37.3852
-70.3767 -22.6852 1.4288 37.3852
-70.3792 -22.6196 1.2184 37.3852
-70.3817 -22.5541 1.1416 37.3852
-70.3842 -22.4885 1.1727 37.3852
-70.3866 -22.4229 1.2433 37.3852
-70.3891 -22.3574 1.2816 37.3852
-70.3916 -22.2918 1.2454 37.3852
-70.3941 -22.2263 1.1388 37.3852
-70.3965 -22.1607 1.0025 37.3852
-70.3990 -22.0951 0.8955 37.3852
-70.4015 -22.0296 0.8634 37.3852
-70.4040 -21.9640 0.9069 37.3852
-70.4064 -21.8984 0.9854 37.3852
-70.4089 -21.8329 1.0384 37.3852
-70.4114 -21.7673 1.0185 37.3852
-70.4139 -21.7017 0.9092 37.3852
-70.4163 -21.6362 0.7307 37.3852
-70.4188 -21.5706 0.5344 37.3852
-70.4213 -21.5050 0.3689 37.3852
-70.4238 -21.4395 0.2634 37.3852
-70.4262 -21.3739 0.2241 37.3852
-70.4287 -21.3083 0.2405 37.3852
-70.4312 -21.2428 0.2943 37.3852
-70.4337 -21.1772 0.3637 37.3852
-70.4361 -21.1117 0.4246 37.3852
-70.4386 -21.0461 0.4529 37.3852
-70.4411 -20.9805 0.4286 37.3852
-70.4436 -20.9150 0.3408 37.3852
-70.4460 -20.8494 0.1916 37.3852
-70.2710 -23.9290 0.0000 39.5844
-70.2734 -23.8635 0.0000 39.5844
-70.2759 -23.7979 0.0000 39.5844
-70.2784 -23.7323 0.0000 39.5844
-70.2809 -23.6668 0.0000 39.5844
-70.2833 -23.6012 0.0000 39.5844
-70.2858 -23.5357 0.0000 39.5844
-70.2883 -23.4701 0.0000 39.5844
-70.2908 -23.4045 0.0000 39.5844
-70.2932 -23.3390 0.0000 39.5844
-70.2957 -23.2734 0.0000 39.5844
-70.2982 -23.2078 0.2569 39.5844
-70.3007 -23.1423 0.8645 39.5844
-70.3031 -23.0767 1.5946 39.5844
-70.3056 -23.0111 2.2150 39.5844
-70.3081 -22.9456 2.5695 39.5844
-70.3106 -22.8800 2.6074 39.5844
-70.3130 -22.8144 2.3832 39.5844
-70.3155 -22.7489 2.0166 39.5844
-70.3180 -22.6833 1.6440 39.5844
-70.3205 -22.6177 1.3777 39.5844
-70.3229 -22.5522 1.2786 39.5844
-70.3254 -22.4866 1.3296 39.5844
-70.3279 -22.4211 1.4442 39.5844
-70.3304 -22.3555 1.5258 39.5844
-70.3328 -22.2899 1.5147 39.5844
-70.3353 -22.2244 1.4044 39.5844
-70.3378 -22.1588 1.2332 39.5844
-70.3403 -22.0932 1.0728 39.5844
-70.3427 -22.0277 0.9945 39.5844
-70.3452 -21.9621 1.0060 39.5844
-70.3477 -21.8965 1.0489 39.5844
-70.3502 -21.8310 1.0482 39.5844
-70.3526 -21.7654 0.9570 39.5844
-70.3551 -21.6998 0.7711 39.5844
-70.3576 -21.6343 0.5338 39.5844
-70.3601 -21.5687 0.3198 39.5844
-70.3625 -21.5031 0.1796 39.5844
-70.3650 -21.4376 0.1157 39.5844
-70.3675 -21.3720 0.1100 39.5844
-70.3700 -21.3064 0.1410 39.5844
-70.3724 -21.2409 0.1916 39.5844
-70.3749 -21.1753 0.2466 39.5844
-70.3774 -21.1098 0.2895 39.5844
-70.3799 -21.0442 0.3048 39.5844
-70.3823 -20.9786 0.2824 39.5844
-70.3848 -20.9131 0.2194 39.5844
-70.3873 -20.8475 0.1209 39.5844
-70.2122 -23.9271 0.0000 41.7836
-70.2147 -23.8616 0.0000 41.7836
-70.2172 -23.7960 0.0000 41.7836
-70.2196 -23.7304 0.0000 41.7836
-70.2221 -23.6649 0.0000 41.7836
-70.2246 -23.5993 0.0000 41.7836
-70.2271 -23.5338 0.0000 41.7836
-70.2295 -23.4682 0.0000 41.7836
-70.2320 -23.4026 0.0000 41.7836
-70.2345 -23.3371 0.0000 41.7836
-70.2370 -23.2715 0.0000 41.7836
-70.2394 -23.2059 0.2219 41.7836
-70.2419 -23.1404 0.8056 41.7836
-70.2444 -23.0748 1.5372 41.7836
-70.2469 -23.0092 2.1740 41.7836
-70.2493 -22.9437 2.5533 41.7836
-70.2518 -22.8781 2.6176 41.7836
-70.2543 -22.8125 2.4148 41.7836
-70.2568 -22.7470 2.0603 41.7836
-70.2592 -22.6814 1.6857 41.7836
-70.2617 -22.6158 1.4025 41.7836
-70.2642 -22.5503 1.2856 41.7836
-70.2667 -22.4847 1.3439 41.7836
-70.2691 -22.4192 1.4962 41.7836
-70.2716 -22.3536 1.6315 41.7836
-70.2741 -22.2880 1.6713 41.7836
-70.2766 -22.2225 1.5893 41.7836
-70.2790 -22.1569 1.4116 41.7836
-70.2815 -22.0913 1.2118 41.7836
-70.2840 -22.0258 1.0787 41.7836
-70.2865 -21.9602 1.0397 41.7836
-70.2889 -21.8946 1.0335 41.7836
-70.2914 -21.8291 0.9796 41.7836
-70.2939 -21.7635 0.8327 41.7836
-70.2964 -21.6979 0.5990 41.7836
-70.2988 -21.6324 0.3382 41.7836
-70.3013 -21.5668 0.1368 41.7836
-70.3038 -21.5012 0.0410 41.7836
-70.3063 -21.4357 0.0157 41.7836
-70.3087 -21.3701 0.0228 41.7836
-70.3112 -21.3046 0.0453 41.7836
-70.3137 -21.2390 0.0764 41.7836
-70.3162 -21.1734 0.1124 41.7836
-70.3186 -21.1079 0.1404 41.7836
-70.3211 -21.0423 0.1495 41.7836
-70.3236 -20.9767 0.1359 41.7836
-70.3261 -20.9112 0.1017 41.7836
-70.3285 -20.8456 0.0535 41.7836
-70.1535 -23.9252 0.0000 43.9828
-70.1559 -23.8597 0.0000 43.9828
-70.1584 -23.7941 0.0000 43.9828
-70.1609 -23.7286 0.0000 43.9828
-70.1634 -23.6630 0.0000 43.9828
-70.1658 -23.5974 0.0000 43.9828
-70.1683 -23.5319 0.0000 43.9828
-70.1708 -23.4663 0.0000 43.9828
-70.1733 -23.4007 0.0000 43.9828
-70.1757 -23.3352 0.0000 43.9828
-70.1782 -23.2696 0.0000 43.9828
-70.1807 -23.2040 0.1725 43.9828
-70.1832 -23.1385 0.6727 43.9828
-70.1856 -23.0729 1.3090 43.9828
-70.1881 -23.0073 1.8564 43.9828
-70.1906 -22.9418 2.1806 43.9828
-70.1931 -22.8762 2.2413 43.9828
-70.1955 -22.8106 2.0810 43.9828
-70.1980 -22.7451 1.7915 43.9828
-70.2005 -22.6795 1.4754 43.9828
-70.2030 -22.6139 1.2234 43.9828
-70.2054 -22.5484 1.1099 43.9828
-70.2079 -22.4828 1.1668 43.9828
-70.2104 -22.4173 1.3404 43.9828
-70.2129 -22.3517 1.5241 43.9828
-70.2153 -22.2861 1.6240 43.9828
-70.2178 -22.2206 1.5922 43.9828
-70.2203 -22.1550 1.4401 43.9828
-70.2228 -22.0894 1.2349 43.9828
-70.2252 -22.0239 1.0670 43.9828
-70.2277 -21.9583 0.9802 43.9828
-70.2302 -21.8927 0.9306 43.9828
-70.2327 -21.8272 0.8435 43.9828
-70.2351 -21.7616 0.6752 43.9828
-70.2376 -21.6960 0.4362 43.9828
-70.2401 -21.6305 0.1928 43.9828
-70.2426 -21.5649 0.0347 43.9828
-70.2450 -21.4993 0.0000 43.9828
-70.2475 -21.4338 0.0000 43.9828
-70.2500 -21.3682 0.0000 43.9828
-70.2525 -21.3027 0.0000 43.9828
-70.2549 -21.2371 0.0032 43.9828
-70.2574 -21.1715 0.0184 43.9828
-70.2599 -21.1060 0.0323 43.9828
-70.2624 -21.0404 0.0376 43.9828
-70.2648 -20.9748 0.0336 43.9828
-70.2673 -20.9093 0.0229 43.9828
-70.2698 -20.8437 0.0099 43.9828
-70.0947 -23.9233 0.0000 46.1820
-70.0972 -23.8578 0.0000 46.1820
-70.0997 -23.7922 0.0000 46.1820
-70.1021 -23.7267 0.0000 46.1820
-70.1046 -23.6611 0.0000 46.1820
-70.1071 -23.5955 0.0000 46.1820
-70.1096 -23.5300 0.0000 46.1820
-70.1120 -23.4644 0.0000 46.1820
-70.1145 -23.3988 0.0000 46.1820
-70.1170 -23.3333 0.0000 46.1820
-70.1195 -23.2677 0.0000 46.1820
-70.1219 -23.2021 0.0954 46.1820
-70.1244 -23.1366 0.4636 46.1820
-70.1269 -23.0710 0.9435 46.1820
-70.1294 -23.0054 1.3403 46.1820
-70.1318 -22.9399 1.5558 46.1820
-70.1343 -22.8743 1.5843 46.1820
-70.1368 -22.8087 1.4696 46.1820
-70.1393 -22.7432 1.2703 46.1820
-70.1417 -22.6776 1.0455 46.1820
-70.1442 -22.6121 0.8588 46.1820
-70.1467 -22.5465 0.7751 46.1820
-70.1492 -22.4809 0.8322 46.1820
-70.1516 -22.4154 1.0075 46.1820
-70.1541 -22.3498 1.2153 46.1820
-70.1566 -22.2842 1.3586 46.1820
-70.1591 -22.2187 1.3772 46.1820
-70.1615 -22.1531 1.2705 46.1820
-70.1640 -22.0875 1.0950 46.1820
-70.1665 -22.0220 0.9306 46.1820
-70.1690 -21.9564 0.8245 46.1820
-70.1714 -21.8908 0.7557 46.1820
-70.1739 -21.8253 0.6664 46.1820
-70.1764 -21.7597 0.5163 46.1820
-70.1789 -21.6941 0.3113 46.1820
-70.1813 -21.6286 0.1113 46.1820
-70.1838 -21.5630 0.0000 46.1820
-70.1863 -21.4975 0.0000 46.1820
-70.1888 -21.4319 0.0000 46.1820
-70.1912 -21.3663 0.0000 46.1820
-70.1937 -21.3008 0.0000 46.1820
-70.1962 -21.2352 0.0000 46.1820
-70.1987 -21.1696 0.0000 46.1820
-70.2011 -21.1041 0.0000 46.1820
-70.2036 -21.0385 0.0000 46.1820
-70.2061 -20.9729 0.0000 46.1820
-70.2086 -20.9074 0.0000 46.1820
-70.2110 -20.8418 0.0000 46.1820
-70.0360 -23.9214 0.0000 48.3812
-70.0384 -23.8559 0.0000 48.3812
-70.0409 -23.7903 0.0000 48.3812
-70.0434 -23.7248 0.0000 48.3812
-70.0459 -23.6592 0.0000 48.3812
-70.0483 -23.5936 0.0000 48.3812
-70.0508 -23.5281 0.0000 48.3812
-70.0533 -23.4625 0.0000 48.3812
-70.0558 -23.3969 0.0000 48.3812
-70.0582 -23.3314 0.0000 48.3812
-70.0607 -23.2658 0.0000 48.3812
-70.0632 -23.2002 0.0205 48.3812
-70.0657 -23.1347 0.2318 48.3812
-70.0681 -23.0691 0.5321 48.3812
-70.0706 -23.0035 0.7720 48.3812
-70.0731 -22.9380 0.8737 48.3812
-70.0756 -22.8724 0.8590 48.3812
-70.0780 -22.8068 0.7831 48.3812
-70.0805 -22.7413 0.6718 48.3812
-70.0830 -22.6757 0.5401 48.3812
-70.0855 -22.6102 0.4284 48.3812
-70.0879 -22.5446 0.3879 48.3812
-70.0904 -22.4790 0.4536 48.3812
-70.0929 -22.4135 0.6162 48.3812
-70.0954 -22.3479 0.8144 48.3812
-70.0978 -22.2823 0.9658 48.3812
-70.1003 -22.2168 1.0131 48.3812
-70.1028 -22.1512 0.9517 48.3812
-70.1053 -22.0856 0.8258 48.3812
-70.1077 -22.0201 0.6987 48.3812
-70.1102 -21.9545 0.6107 48.3812
-70.1127 -21.8889 0.5558 48.3812
-70.1152 -21.8234 0.4957 48.3812
-70.1176 -21.7578 0.3960 48.3812
-70.1201 -21.6922 0.2561 48.3812
-70.1226 -21.6267 0.1146 48.3812
-70.1251 -21.5611 0.0228 48.3812
-70.1275 -21.4956 0.0000 48.3812
-70.1300 -21.4300 0.0000 48.3812
-70.1325 -21.3644 0.0000 48.3812
-70.1350 -21.2989 0.0000 48.3812
-70.1374 -21.2333 0.0000 48.3812
-70.1399 -21.1677 0.0000 48.3812
-70.1424 -21.1022 0.0000 48.3812
-70.1449 -21.0366 0.0000 48.3812
-70.1473 -20.9710 0.0000 48.3812
-70.1498 -20.9055 0.0000 48.3812
-70.1523 -20.8399 0.0000 48.3812
-69.9772 -23.9196 0.0000 50.5804
-69.9797 -23.8540 0.0000 50.5804
-69.9822 -23.7884 0.0000 50.5804
-69.9846 -23.7229 0.0000 50.5804
-69.9871 -23.6573 0.0000 50.5804
-69.9896 -23.5917 0.0000 50.5804
-69.9921 -23.5262 0.0000 50.5804
-69.9945 -23.4606 0.0000 50.5804
-69.9970 -23.3950 0.0000 50.5804
-69.9995 -23.3295 0.0000 50.5804
-70.0020 -23.2639 0.0000 50.5804
-70.0044 -23.1983 0.0000 50.5804
-70.0069 -23.1328 0.0612 50.5804
-70.0094 -23.0672 0.1957 50.5804
-70.0119 -23.0016 0.3079 50.5804
-70.0143 -22.9361 0.3366 50.5804
-70.0168 -22.8705 0.2956 50.5804
-70.0193 -22.8050 0.2474 50.5804
-70.0218 -22.7394 0.2035 50.5804
-70.0242 -22.6738 0.1513 50.5804
-70.0267 -22.6083 0.1045 50.5804
-70.0292 -22.5427 0.0958 50.5804
-70.0317 -22.4771 0.1632 50.5804
-70.0341 -22.4116 0.3009 50.5804
-70.0366 -22.3460 0.4626 50.5804
-70.0391 -22.2804 0.5880 50.5804
-70.0416 -22.2149 0.6360 50.5804
-70.0440 -22.1493 0.6047 50.5804
-70.0465 -22.0837 0.5280 50.5804
-70.0490 -22.0182 0.4517 50.5804
-70.0515 -21.9526 0.4058 50.5804
-70.0539 -21.8870 0.3904 50.5804
-70.0564 -21.8215 0.3819 50.5804
-70.0589 -21.7559 0.3548 50.5804
-70.0614 -21.6903 0.2990 50.5804
-70.0638 -21.6248 0.2235 50.5804
-70.0663 -21.5592 0.1453 50.5804
-70.0688 -21.4937 0.0769 50.5804
-70.0713 -21.4281 0.0240 50.5804
-70.0737 -21.3625 0.0000 50.5804
-70.0762 -21.2970 0.0000 50.5804
-70.0787 -21.2314 0.0000 50.5804
-70.0812 -21.1658 0.0000 50.5804
-70.0836 -21.1003 0.0000 50.5804
-70.0861 -21.0347 0.0087 50.5804
-70.0886 -20.9691 0.0385 50.5804
-70.0911 -20.9036 0.0553 50.5804
-70.0935 -20.8380 0.0399 50.5804
-69.9185 -23.9177 0.0000 52.7795
-69.9209 -23.8521 0.0000 52.7795
-69.9234 -23.7865 0.0000 52.7795
-69.9259 -23.7210 0.0000 52.7795
-69.9284 -23.6554 0.0000 52.7795
-69.9308 -23.5898 0.0000 52.7795
-69.9333 -23.5243 0.0000 52.7795
-69.9358 -23.4587 0.0000 52.7795
-69.9383 -23.3931 0.0000 52.7795
-69.9407 -23.3276 0.0000 52.7795
-69.9432 -23.2620 0.0000 52.7795
-69.9457 -23.1964 0.0000 52.7795
-69.9482 -23.1309 0.0000 52.7795
-69.9506 -23.0653 0.0216 52.7795
-69.9531 -22.9997 0.0518 52.7795
-69.9556 -22.9342 0.0570 52.7795
-69.9581 -22.8686 0.0329 52.7795
-69.9605 -22.8031 0.0045 52.7795
-69.9630 -22.7375 0.0000 52.7795
-69.9655 -22.6719 0.0000 52.7795
-69.9680 -22.6064 0.0000 52.7795
-69.9704 -22.5408 0.0070 52.7795
-69.9729 -22.4752 0.0648 52.7795
-69.9754 -22.4097 0.1641 52.7795
-69.9779 -22.3441 0.2719 52.7795
-69.9803 -22.2785 0.3508 52.7795
-69.9828 -22.2130 0.3783 52.7795
-69.9853 -22.1474 0.3581 52.7795
-69.9878 -22.0818 0.3155 52.7795
-69.9902 -22.0163 0.2822 52.7795
-69.9927 -21.9507 0.2796 52.7795
-69.9952 -21.8851 0.3099 52.7795
-69.9977 -21.8196 0.3594 52.7795
-70.0001 -21.7540 0.4068 52.7795
-70.0026 -21.6885 0.4320 52.7795
-70.0051 -21.6229 0.4197 52.7795
-70.0076 -21.5573 0.3632 52.7795
-70.0100 -21.4918 0.2700 52.7795
-70.0125 -21.4262 0.1655 52.7795
-70.0150 -21.3606 0.0807 52.7795
-70.0175 -21.2951 0.0303 52.7795
-70.0199 -21.2295 0.0121 52.7795
-70.0224 -21.1639 0.0255 52.7795
-70.0249 -21.0984 0.0671 52.7795
-70.0274 -21.0328 0.1298 52.7795
-70.0299 -20.9672 0.1928 52.7795
-70.0323 -20.9017 0.2078 52.7795
-70.0348 -20.8361 0.1395 52.7795
-69.8597 -23.9158 0.0000 54.9787
-69.8622 -23.8502 0.0000 54.9787
-69.8647 -23.7846 0.0000 54.9787
-69.8671 -23.7191 0.0000 54.9787
-69.8696 -23.6535 0.0000 54.9787
-69.8721 -23.5879 0.0000 54.9787
-69.8746 -23.5224 0.0000 54.9787
-69.8770 -23.4568 0.0000 54.9787
-69.8795 -23.3912 0.0000 54.9787
-69.8820 -23.3257 0.0000 54.9787
-69.8845 -23.2601 0.0000 54.9787
-69.8869 -23.1945 0.0000 54.9787
-69.8894 -23.1290 0.0000 54.9787
-69.8919 -23.0634 0.0000 54.9787
-69.8944 -22.9978 0.0000 54.9787
-69.8968 -22.9323 0.0211 54.9787
-69.8993 -22.8667 0.0400 54.9787
-69.9018 -22.8012 0.0426 54.9787
-69.9043 -22.7356 0.0376 54.9787
-69.9067 -22.6700 0.0436 54.9787
-69.9092 -22.6045 0.0705 54.9787
-69.9117 -22.5389 0.1035 54.9787
-69.9142 -22.4733 0.1513 54.9787
-69.9166 -22.4078 0.2091 54.9787
-69.9191 -22.3422 0.2604 54.9787
-69.9216 -22.2766 0.2883 54.9787
-69.9241 -22.2111 0.2861 54.9787
-69.9265 -22.1455 0.2623 54.9787
-69.9290 -22.0799 0.2360 54.9787
-69.9315 -22.0144 0.2286 54.9787
-69.9340 -21.9488 0.2544 54.9787
-69.9364 -21.8832 0.3165 54.9787
-69.9389 -21.8177 0.4061 54.9787
-69.9414 -21.7521 0.5044 54.9787
-69.9439 -21.6866 0.5850 54.9787
-69.9464 -21.6210 0.6203 54.9787
-69.9488 -21.5554 0.5915 54.9787
-69.9513 -21.4899 0.5009 54.9787
-69.9538 -21.4243 0.3754 54.9787
-69.9563 -21.3587 0.2526 54.9787
-69.9587 -21.2932 0.1647 54.9787
-69.9612 -21.2276 0.1298 54.9787
-69.9637 -21.1620 0.1526 54.9787
-69.9662 -21.0965 0.2247 54.9787
-69.9686 -21.0309 0.3217 54.9787
-69.9711 -20.9653 0.3982 54.9787
-69.9736 -20.8998 0.3928 54.9787
-69.9761 -20.8342 0.2564 54.9787
-69.8010 -23.9139 0.0000 57.1779
-69.8034 -23.8483 0.0000 57.1779
-69.8059 -23.7827 0.0000 57.1779
-69.8084 -23.7172 0.0000 57.1779
-69.8109 -23.6516 0.0000 57.1779
-69.8133 -23.5860 0.0000 57.1779
-69.8158 -23.5205 0.0000 57.1779
-69.8183 -23.4549 0.0000 57.1779
-69.8208 -23.3893 0.0000 57.1779
-69.8232 -23.3238 0.0000 57.1779
-69.8257 -23.2582 0.0000 57.1779
-69.8282 -23.1926 0.0000 57.1779
-69.8307 -23.1271 0.0000 57.1779
-69.8331 -23.0615 0.0000 57.1779
-69.8356 -22.9960 0.0356 57.1779
-69.8381 -22.9304 0.1001 57.1779
-69.8406 -22.8648 0.1566 57.1779
-69.8430 -22.7993 0.1811 57.1779
-69.8455 -22.7337 0.1758 57.1779
-69.8480 -22.6681 0.1717 57.1779
-69.8505 -22.6026 0.2036 57.1779
-69.8529 -22.5370 0.2453 57.1779
-69.8554 -22.4714 0.2808 57.1779
-69.8579 -22.4059 0.3055 57.1779
-69.8604 -22.3403 0.3149 57.1779
-69.8629 -22.2747 0.3061 57.1779
-69.8653 -22.2092 0.2821 57.1779
-69.8678 -22.1436 0.2528 57.1779
-69.8703 -22.0780 0.2324 57.1779
-69.8728 -22.0125 0.2342 57.1779
-69.8752 -21.9469 0.2672 57.1779
-69.8777 -21.8814 0.3339 57.1779
-69.8802 -21.8158 0.4285 57.1779
-69.8827 -21.7502 0.5356 57.1779
-69.8851 -21.6847 0.6305 57.1779
-69.8876 -21.6191 0.6853 57.1779
-69.8901 -21.5535 0.6798 57.1779
-69.8926 -21.4880 0.6123 57.1779
-69.8950 -21.4224 0.5033 57.1779
-69.8975 -21.3568 0.3864 57.1779
-69.9000 -21.2913 0.2965 57.1779
-69.9025 -21.2257 0.2581 57.1779
-69.9049 -21.1601 0.2793 57.1779
-69.9074 -21.0946 0.3502 57.1779
-69.9099 -21.0290 0.4419 57.1779
-69.9124 -20.9634 0.5057 57.1779
-69.9148 -20.8979 0.4801 57.1779
-69.9173 -20.8323 0.3112 57.1779
-69.7422 -23.9120 0.0000 59.3771
-69.7447 -23.8464 0.0000 59.3771
-69.7472 -23.7808 0.0000 59.3771
-69.7496 -23.7153 0.0000 59.3771
-69.7521 -23.6497 0.0000 59.3771
-69.7546 -23.5841 0.0000 59.3771
-69.7571 -23.5186 0.0000 59.3771
-69.7595 -23.4530 0.0000 59.3771
-69.7620 -23.3874 0.0000 59.3771
-69.7645 -23.3219 0.0000 59.3771
-69.7670 -23.2563 0.0000 59.3771
-69.7695 -23.1907 0.0000 59.3771
-69.7719 -23.1252 0.0000 59.3771
-69.7744 -23.0596 0.0069 59.3771
-69.7769 -22.9941 0.0568 59.3771
-69.7794 -22.9285 0.1232 59.3771
-69.7818 -22.8629 0.1773 59.3771
-69.7843 -22.7974 0.2028 59.3771
-69.7868 -22.7318 0.2012 59.3771
-69.7893 -22.6662 0.1935 59.3771
-69.7917 -22.6007 0.2110 59.3771
-69.7942 -22.5351 0.2398 59.3771
-69.7967 -22.4695 0.2590 59.3771
-69.7992 -22.4040 0.2650 59.3771
-69.8016 -22.3384 0.2581 59.3771
-69.8041 -22.2728 0.2405 59.3771
-69.8066 -22.2073 0.2169 59.3771
-69.8091 -22.1417 0.1943 59.3771
-69.8115 -22.0761 0.1804 59.3771
-69.8140 -22.0106 0.1820 59.3771
-69.8165 -21.9450 0.2035 59.3771
-69.8190 -21.8795 0.2462 59.3771
-69.8214 -21.8139 0.3070 59.3771
-69.8239 -21.7483 0.3768 59.3771
-69.8264 -21.6828 0.4407 59.3771
-69.8289 -21.6172 0.4813 59.3771
-69.8313 -21.5516 0.4854 59.3771
-69.8338 -21.4861 0.4509 59.3771
-69.8363 -21.4205 0.3883 59.3771
-69.8388 -21.3549 0.3177 59.3771
-69.8412 -21.2894 0.2613 59.3771
-69.8437 -21.2238 0.2358 59.3771
-69.8462 -21.1582 0.2471 59.3771
-69.8487 -21.0927 0.2888 59.3771
-69.8511 -21.0271 0.3420 59.3771
-69.8536 -20.9615 0.3757 59.3771
-69.8561 -20.8960 0.3508 59.3771
-69.8586 -20.8304 0.2288 59.3771
