130.2659 33.6881 0.0597 9.5000
130.2739 33.6820 0.0093 9.5000
130.2820 33.6760 0.0230 9.5000
130.2900 33.6700 0.0337 9.5000
130.2980 33.6640 0.0912 9.5000
130.3061 33.6580 0.1695 9.5000
130.3141 33.6519 0.1090 9.5000
130.3221 33.6459 0.3506 9.5000
130.2659 33.6881 0.0206 10.5000
130.2739 33.6820 0.0000 10.5000
130.2820 33.6760 0.0112 10.5000
130.2900 33.6700 0.0319 10.5000
130.2980 33.6640 0.0583 10.5000
130.3061 33.6580 0.1896 10.5000
130.3141 33.6519 0.0942 10.5000
130.3221 33.6459 0.1058 10.5000
130.2659 33.6881 0.0282 11.5000
130.2739 33.6820 0.0638 11.5000
130.2820 33.6760 0.0610 11.5000
130.2900 33.6700 0.1798 11.5000
130.2980 33.6640 0.2102 11.5000
130.3061 33.6580 0.2610 11.5000
130.3141 33.6519 0.0956 11.5000
130.3221 33.6459 0.2121 11.5000
130.2659 33.6881 0.0079 12.5000
130.2739 33.6820 0.1678 12.5000
130.2820 33.6760 0.0384 12.5000
130.2900 33.6700 0.4704 12.5000
130.2980 33.6640 0.4026 12.5000
130.3061 33.6580 0.2368 12.5000
130.3141 33.6519 0.1284 12.5000
130.3221 33.6459 0.3487 12.5000
130.2659 33.6881 0.0767 13.5000
130.2739 33.6820 0.0588 13.5000
130.2820 33.6760 0.0729 13.5000
130.2900 33.6700 0.5029 13.5000
130.2980 33.6640 0.5057 13.5000
130.3061 33.6580 0.2357 13.5000
130.3141 33.6519 0.2015 13.5000
130.3221 33.6459 0.1536 13.5000
130.2659 33.6881 0.0945 14.5000
130.2739 33.6820 0.0893 14.5000
130.2820 33.6760 0.0322 14.5000
130.2900 33.6700 0.1198 14.5000
130.2980 33.6640 0.1181 14.5000
130.3061 33.6580 0.1087 14.5000
130.3141 33.6519 0.0835 14.5000
130.3221 33.6459 0.0896 14.5000
130.2659 33.6881 0.0608 15.5000
130.2739 33.6820 0.0058 15.5000
130.2820 33.6760 0.0224 15.5000
130.2900 33.6700 0.0189 15.5000
130.2980 33.6640 0.1430 15.5000
130.3061 33.6580 0.0879 15.5000
130.3141 33.6519 0.1173 15.5000
130.3221 33.6459 0.1458 15.5000
130.2659 33.6881 0.0570 16.5000
130.2739 33.6820 0.1148 16.5000
130.2820 33.6760 0.0704 16.5000
130.2900 33.6700 0.2524 16.5000
130.2980 33.6640 0.1749 16.5000
130.3061 33.6580 0.1169 16.5000
130.3141 33.6519 0.1714 16.5000
130.3221 33.6459 0.3170 16.5000
