101.9843 -4.7018 0.3900 10.0450
101.8647 -4.5110 0.5600 10.0450
101.7451 -4.3202 0.5500 10.0450
101.6255 -4.1294 0.7400 10.0450
101.5059 -3.9386 1.1300 10.0450
101.3864 -3.7478 1.0200 10.0450
101.2668 -3.5570 0.8700 10.0450
101.1472 -3.3663 0.8400 10.0450
101.0276 -3.1755 1.0200 10.0450
100.9080 -2.9847 1.3600 10.0450
100.7884 -2.7939 1.0000 10.0450
100.6688 -2.6031 0.5500 10.0450
100.5492 -2.4123 0.3200 10.0450
100.4296 -2.2215 0.2700 10.0450
100.3100 -2.0307 0.0500 10.0450
100.1904 -1.8399 0.8700 10.0450
102.1734 -4.5841 0.7600 13.9559
102.0538 -4.3933 0.8500 13.9559
101.9342 -4.2025 0.7400 13.9559
101.8146 -4.0117 1.1100 13.9559
101.6950 -3.8209 1.8800 13.9559
101.5754 -3.6301 2.4400 13.9559
101.4558 -3.4393 2.9200 13.9559
101.3362 -3.2485 3.3800 13.9559
101.2166 -3.0577 3.7900 13.9559
101.0970 -2.8669 4.3200 13.9559
100.9774 -2.6761 2.7800 13.9559
100.8578 -2.4853 0.6800 13.9559
100.7382 -2.2945 0.4300 13.9559
100.6186 -2.1037 0.0900 13.9559
100.4990 -1.9129 0.4300 13.9559
100.3794 -1.7221 1.3200 13.9559
102.3624 -4.4663 0.6600 17.8667
102.2428 -4.2755 0.6400 17.8667
102.1232 -4.0847 0.9800 17.8667
102.0036 -3.8939 1.9500 17.8667
101.8840 -3.7031 3.2200 17.8667
101.7644 -3.5123 4.4100 17.8667
101.6448 -3.3215 5.1500 17.8667
101.5252 -3.1307 5.4300 17.8667
101.4056 -2.9399 5.3600 17.8667
101.2860 -2.7492 5.4400 17.8667
101.1665 -2.5584 1.8400 17.8667
101.0469 -2.3676 0.3600 17.8667
100.9273 -2.1768 0.0000 17.8667
100.8077 -1.9860 0.1700 17.8667
100.6881 -1.7952 0.4300 17.8667
100.5685 -1.6044 0.8300 17.8667
102.5514 -4.3486 0.4100 21.7776
102.4318 -4.1578 0.6600 21.7776
102.3122 -3.9670 1.4000 21.7776
102.1926 -3.7762 2.4100 21.7776
102.0731 -3.5854 3.8200 21.7776
101.9535 -3.3946 4.8000 21.7776
101.8339 -3.2038 4.9900 21.7776
101.7143 -3.0130 4.3700 21.7776
101.5947 -2.8222 3.6200 21.7776
101.4751 -2.6314 2.9000 21.7776
101.3555 -2.4406 0.6600 21.7776
101.2359 -2.2498 0.3900 21.7776
101.1163 -2.0590 0.4800 21.7776
100.9967 -1.8682 0.5000 21.7776
100.8771 -1.6774 0.5000 21.7776
100.7575 -1.4866 0.6900 21.7776
102.7405 -4.2308 0.5400 25.6884
102.6209 -4.0400 0.9700 25.6884
102.5013 -3.8492 1.3600 25.6884
102.3817 -3.6584 2.2600 25.6884
102.2621 -3.4676 3.5800 25.6884
102.1425 -3.2768 4.0600 25.6884
102.0229 -3.0860 3.5400 25.6884
101.9033 -2.8952 2.4300 25.6884
101.7837 -2.7044 1.6800 25.6884
101.6641 -2.5136 1.3800 25.6884
101.5445 -2.3228 0.7200 25.6884
101.4249 -2.1321 0.8100 25.6884
101.3053 -1.9413 0.6900 25.6884
101.1857 -1.7505 0.5700 25.6884
101.0661 -1.5597 0.5100 25.6884
100.9465 -1.3689 0.5900 25.6884
102.9295 -4.1130 0.5800 29.5993
102.8099 -3.9223 0.7500 29.5993
102.6903 -3.7315 0.8400 29.5993
102.5707 -3.5407 1.7500 29.5993
102.4511 -3.3499 2.8300 29.5993
102.3315 -3.1591 3.1800 29.5993
102.2119 -2.9683 2.7900 29.5993
102.0923 -2.7775 2.4100 29.5993
101.9727 -2.5867 2.2500 29.5993
101.8531 -2.3959 1.8000 29.5993
101.7336 -2.2051 0.8400 29.5993
101.6140 -2.0143 0.5700 29.5993
101.4944 -1.8235 0.4200 29.5993
101.3748 -1.6327 0.3000 29.5993
101.2552 -1.4419 0.0900 29.5993
101.1356 -1.2511 0.0000 29.5993
103.1185 -3.9953 0.7100 33.5102
102.9989 -3.8045 0.9200 33.5102
102.8793 -3.6137 0.9000 33.5102
102.7597 -3.4229 1.1700 33.5102
102.6402 -3.2321 1.4200 33.5102
102.5206 -3.0413 1.4300 33.5102
102.4010 -2.8505 0.9100 33.5102
102.2814 -2.6597 1.5400 33.5102
102.1618 -2.4689 2.1700 33.5102
102.0422 -2.2781 2.3000 33.5102
101.9226 -2.0873 1.4100 33.5102
101.8030 -1.8965 0.2900 33.5102
101.6834 -1.7057 0.0000 33.5102
101.5638 -1.5150 0.0000 33.5102
101.4442 -1.3242 0.0000 33.5102
101.3246 -1.1334 0.0000 33.5102
103.3076 -3.8775 0.9000 37.4210
103.1880 -3.6867 0.9800 37.4210
103.0684 -3.4959 1.1800 37.4210
102.9488 -3.3052 1.1100 37.4210
102.8292 -3.1144 0.7800 37.4210
102.7096 -2.9236 1.3000 37.4210
102.5900 -2.7328 0.7500 37.4210
102.4704 -2.5420 0.4700 37.4210
102.3508 -2.3512 0.6500 37.4210
102.2312 -2.1604 1.2400 37.4210
102.1116 -1.9696 1.1200 37.4210
101.9920 -1.7788 0.3200 37.4210
101.8724 -1.5880 0.0000 37.4210
101.7528 -1.3972 0.0000 37.4210
101.6332 -1.2064 0.0000 37.4210
101.5137 -1.0156 0.0000 37.4210
103.4966 -3.7598 0.4000 41.3319
103.3770 -3.5690 0.1600 41.3319
103.2574 -3.3782 0.2600 41.3319
103.1378 -3.1874 0.9800 41.3319
103.0182 -2.9966 0.4800 41.3319
102.8986 -2.8058 0.3700 41.3319
102.7790 -2.6150 0.5300 41.3319
102.6594 -2.4242 0.2500 41.3319
102.5398 -2.2334 0.0000 41.3319
102.4203 -2.0426 0.0000 41.3319
102.3007 -1.8518 0.1000 41.3319
102.1811 -1.6610 0.0000 41.3319
102.0615 -1.4702 0.0000 41.3319
101.9419 -1.2794 0.0000 41.3319
101.8223 -1.0886 0.0000 41.3319
101.7027 -0.8979 0.0000 41.3319
103.6856 -3.6420 0.0000 45.2428
103.5660 -3.4512 0.0000 45.2428
103.4464 -3.2604 0.0000 45.2428
103.3269 -3.0696 0.3200 45.2428
103.2073 -2.8788 0.3500 45.2428
103.0877 -2.6881 0.0000 45.2428
102.9681 -2.4973 0.0000 45.2428
102.8485 -2.3065 0.0000 45.2428
102.7289 -2.1157 0.0000 45.2428
102.6093 -1.9249 0.0000 45.2428
102.4897 -1.7341 0.0000 45.2428
102.3701 -1.5433 0.0000 45.2428
102.2505 -1.3525 0.0000 45.2428
102.1309 -1.1617 0.0400 45.2428
102.0113 -0.9709 0.0000 45.2428
101.8917 -0.7801 0.0000 45.2428
