65.5042 27.0853 7.2064 0.0000
65.4847 27.0430 4.4503 0.0000
65.4652 27.0007 5.3156 0.0000
65.4456 26.9585 4.4799 0.0000
65.4261 26.9162 5.7225 0.0000
65.4066 26.8739 7.5938 0.0000
65.3870 26.8317 10.4536 0.0000
65.3675 26.7894 10.7269 0.0000
65.4928 27.0895 8.0363 3.9974
65.4733 27.0472 5.3642 3.9974
65.4538 27.0049 5.6702 3.9974
65.4342 26.9627 5.0253 3.9974
65.4147 26.9204 7.3795 3.9974
65.3952 26.8781 9.1902 3.9974
65.3756 26.8359 11.1483 3.9974
65.3561 26.7936 12.6031 3.9974
65.4814 27.0937 5.1401 7.9947
65.4619 27.0514 3.6307 7.9947
65.4424 27.0091 4.3516 7.9947
65.4228 26.9669 6.0969 7.9947
65.4033 26.9246 8.1604 7.9947
65.3838 26.8823 9.2216 7.9947
65.3642 26.8401 10.3828 7.9947
65.3447 26.7978 9.1433 7.9947
65.4700 27.0978 1.9550 11.9921
65.4505 27.0556 0.4299 11.9921
65.4310 27.0133 3.3211 11.9921
65.4114 26.9710 7.3529 11.9921
65.3919 26.9288 5.6500 11.9921
65.3724 26.8865 5.7065 11.9921
65.3528 26.8442 6.0744 11.9921
65.3333 26.8020 3.9141 11.9921
65.4586 27.1020 0.6999 15.9894
65.4391 27.0598 0.0026 15.9894
65.4196 27.0175 0.0885 15.9894
65.4000 26.9752 0.0997 15.9894
65.3805 26.9330 0.0743 15.9894
65.3610 26.8907 0.0834 15.9894
65.3414 26.8484 0.0321 15.9894
65.3219 26.8062 1.6485 15.9894
65.7394 27.3791 1.2331 0.0000
65.7090 27.3423 3.2039 0.0000
65.6786 27.3055 4.1176 0.0000
65.6482 27.2687 4.9813 0.0000
65.6178 27.2319 7.9815 0.0000
65.5873 27.1951 9.4190 0.0000
65.5569 27.1583 11.1570 0.0000
65.5265 27.1215 10.2845 0.0000
65.7284 27.3864 1.4990 3.9523
65.6980 27.3496 2.6518 3.9523
65.6675 27.3128 4.1948 3.9523
65.6371 27.2760 5.5007 3.9523
65.6067 27.2392 8.3296 3.9523
65.5763 27.2024 12.5059 3.9523
65.5459 27.1656 15.0996 3.9523
65.5155 27.1288 14.2533 3.9523
65.7173 27.3936 1.7197 7.9045
65.6869 27.3568 3.0569 7.9045
65.6565 27.3200 3.4061 7.9045
65.6261 27.2832 5.4901 7.9045
65.5957 27.2464 6.2358 7.9045
65.5652 27.2096 10.8986 7.9045
65.5348 27.1728 12.3690 7.9045
65.5044 27.1360 11.4579 7.9045
65.7063 27.4009 3.6300 11.8568
65.6759 27.3641 2.4668 11.8568
65.6454 27.3273 2.0471 11.8568
65.6150 27.2905 3.3421 11.8568
65.5846 27.2537 3.0865 11.8568
65.5542 27.2169 6.0256 11.8568
65.5238 27.1801 6.6636 11.8568
65.4934 27.1433 6.1980 11.8568
65.6952 27.4082 3.4681 15.8091
65.6648 27.3714 0.0087 15.8091
65.6344 27.3346 0.0404 15.8091
65.6040 27.2978 0.0538 15.8091
65.5736 27.2610 0.0585 15.8091
65.5431 27.2242 0.0494 15.8091
65.5127 27.1874 0.0755 15.8091
65.4823 27.1506 2.6125 15.8091
65.3299 26.7516 9.3876 0.0000
65.2938 26.7191 8.2580 0.0000
65.2578 26.6866 7.2565 0.0000
65.2217 26.6541 4.0804 0.0000
65.1857 26.6216 3.8515 0.0000
65.1496 26.5891 4.9953 0.0000
65.1135 26.5566 8.1992 0.0000
65.3094 26.7696 11.1450 3.0571
65.2734 26.7371 9.2641 3.0571
65.2373 26.7046 7.8999 3.0571
65.2013 26.6721 5.8807 3.0571
65.1652 26.6396 4.0612 3.0571
65.1292 26.6071 6.2712 3.0571
65.0931 26.5746 11.8802 3.0571
65.2890 26.7876 5.9559 6.1141
65.2529 26.7551 2.6737 6.1141
65.2169 26.7227 2.4295 6.1141
65.1808 26.6902 4.2799 6.1141
65.1448 26.6577 3.1036 6.1141
65.1087 26.6252 5.1629 6.1141
65.0727 26.5927 13.5392 6.1141
65.2685 26.8057 1.7026 9.1712
65.2325 26.7732 0.1611 9.1712
65.1964 26.7407 0.3125 9.1712
65.1604 26.7082 2.5217 9.1712
65.1243 26.6757 0.8176 9.1712
65.0883 26.6432 4.5377 9.1712
65.0522 26.6107 13.6883 9.1712
65.2481 26.8237 0.2583 12.2282
65.2120 26.7912 0.0527 12.2282
65.1760 26.7587 0.0767 12.2282
65.1399 26.7262 0.0156 12.2282
65.1039 26.6938 0.0849 12.2282
65.0678 26.6613 0.0918 12.2282
65.0318 26.6288 7.7353 12.2282
65.0684 26.5179 12.0546 0.5100
65.0254 26.4930 13.9663 0.5100
64.9824 26.4681 11.5319 0.5100
64.9394 26.4432 5.5906 0.5100
64.8964 26.4183 1.7764 0.5100
64.8534 26.3934 1.4275 0.5100
64.8104 26.3685 3.7630 0.5100
64.7675 26.3436 6.4242 0.5100
64.7245 26.3187 7.9066 0.5100
64.6815 26.2938 7.0668 0.5100
64.6385 26.2689 5.5503 0.5100
65.0616 26.5271 17.3567 4.5074
65.0187 26.5022 18.6360 4.5074
64.9757 26.4773 15.6180 4.5074
64.9327 26.4524 8.9393 4.5074
64.8897 26.4275 3.9715 4.5074
64.8467 26.4026 2.0145 4.5074
64.8037 26.3777 4.7352 4.5074
64.7607 26.3528 9.2170 4.5074
64.7177 26.3279 10.8372 4.5074
64.6748 26.3030 10.2138 4.5074
64.6318 26.2781 6.1468 4.5074
65.0549 26.5363 14.6385 8.5047
65.0119 26.5114 13.5774 8.5047
64.9690 26.4865 9.6140 8.5047
64.9260 26.4616 7.2607 8.5047
64.8830 26.4367 3.7430 8.5047
64.8400 26.4118 4.8977 8.5047
64.7970 26.3869 7.6736 8.5047
64.7540 26.3620 9.2219 8.5047
64.7110 26.3371 7.0888 8.5047
64.6680 26.3122 5.3790 8.5047
64.6251 26.2873 3.7587 8.5047
65.0482 26.5455 12.3136 12.5021
65.0052 26.5206 8.5418 12.5021
64.9622 26.4957 6.2774 12.5021
64.9193 26.4708 4.9765 12.5021
64.8763 26.4459 4.5035 12.5021
64.8333 26.4210 6.7323 12.5021
64.7903 26.3961 7.9505 12.5021
64.7473 26.3712 7.5146 12.5021
64.7043 26.3463 4.5456 12.5021
64.6613 26.3214 2.1829 12.5021
64.6183 26.2965 4.6411 12.5021
65.0415 26.5548 6.3862 16.4994
64.9985 26.5299 0.0815 16.4994
64.9555 26.5050 0.0802 16.4994
64.9125 26.4801 0.0904 16.4994
64.8696 26.4552 0.0101 16.4994
64.8266 26.4303 0.0703 16.4994
64.7836 26.4054 0.0915 16.4994
64.7406 26.3805 0.0336 16.4994
64.6976 26.3556 0.0004 16.4994
64.6546 26.3307 0.0641 16.4994
64.6116 26.3058 7.4204 16.4994
64.5824 26.2481 2.6481 1.1700
64.5362 26.2282 3.2692 1.1700
64.4901 26.2083 2.5569 1.1700
64.4439 26.1884 2.5417 1.1700
64.3978 26.1685 1.8800 1.1700
64.3516 26.1486 1.1596 1.1700
64.3055 26.1287 2.5387 1.1700
64.2593 26.1088 3.5285 1.1700
64.2132 26.0889 3.0657 1.1700
64.5713 26.2684 2.2591 4.5083
64.5252 26.2486 3.1061 4.5083
64.4790 26.2287 3.6333 4.5083
64.4329 26.2088 3.6626 4.5083
64.3867 26.1889 0.2202 4.5083
64.3406 26.1690 0.0604 4.5083
64.2944 26.1491 1.5620 4.5083
64.2483 26.1292 2.0367 4.5083
64.2021 26.1093 2.7213 4.5083
64.5603 26.2888 3.5599 7.8466
64.5141 26.2689 4.1334 7.8466
64.4680 26.2490 5.0852 7.8466
64.4218 26.2291 5.5389 7.8466
64.3757 26.2092 2.7917 7.8466
64.3295 26.1893 0.3325 7.8466
64.2834 26.1694 0.9743 7.8466
64.2372 26.1496 0.4269 7.8466
64.1911 26.1297 0.5273 7.8466
64.5492 26.3092 4.8434 11.1849
64.5031 26.2893 3.0984 11.1849
64.4569 26.2694 3.0787 11.1849
64.4108 26.2495 4.9798 11.1849
64.3646 26.2296 4.0941 11.1849
64.3185 26.2097 0.7018 11.1849
64.2723 26.1898 0.0017 11.1849
64.2262 26.1699 0.4830 11.1849
64.1800 26.1500 1.1056 11.1849
64.5382 26.3296 4.5440 14.5232
64.4920 26.3097 0.0082 14.5232
64.4459 26.2898 0.0587 14.5232
64.3997 26.2699 0.0593 14.5232
64.3536 26.2500 0.0964 14.5232
64.3074 26.2301 0.0266 14.5232
64.2613 26.2102 0.0061 14.5232
64.2151 26.1903 0.0374 14.5232
64.1690 26.1704 0.0184 14.5232
