-117.4965 35.6620 1.0703 0.0000
-117.4884 35.6578 1.7101 0.0000
-117.4802 35.6536 0.9398 0.0000
-117.4720 35.6494 1.6281 0.0000
-117.4638 35.6453 1.1391 0.0000
-117.4556 35.6411 1.2459 0.0000
-117.4475 35.6369 1.3550 0.0000
-117.4393 35.6327 1.3463 0.0000
-117.6753 35.8342 0.0514 0.0000
-117.6676 35.8291 0.1842 0.0000
-117.6599 35.8240 0.0937 0.0000
-117.6522 35.8189 0.2048 0.0000
-117.6445 35.8138 0.6407 0.0000
-117.6367 35.8087 0.5992 0.0000
-117.6290 35.8035 0.9522 0.0000
-117.6213 35.7984 1.4859 0.0000
-117.6136 35.7933 2.0499 0.0000
-117.5788 35.7487 2.8072 0.0000
-117.5712 35.7436 1.1814 0.0000
-117.5636 35.7384 1.3545 0.0000
-117.5560 35.7333 0.0987 0.0000
-117.5484 35.7282 1.2474 0.0000
-117.5408 35.7231 0.8150 0.0000
-117.5332 35.7180 0.6130 0.0000
-117.5255 35.7129 0.3394 0.0000
-117.5179 35.7078 0.3317 0.0000
-117.5103 35.7027 0.4365 0.0000
-117.5027 35.6976 0.6541 0.0000
-117.4951 35.6924 0.4938 0.0000
-117.4875 35.6873 0.1095 0.0000
-117.5594 35.7112 1.9901 0.0000
-117.5526 35.7057 2.6477 0.0000
-117.5458 35.7002 1.8026 0.0000
-117.5390 35.6947 1.2336 0.0000
-117.5322 35.6891 2.0703 0.0000
-117.5254 35.6836 1.2786 0.0000
-117.5186 35.6781 1.4082 0.0000
-117.5117 35.6726 1.4001 0.0000
-117.5049 35.6671 1.7758 0.0000
-117.7538 35.9310 0.0369 0.0000
-117.7469 35.9253 0.2343 0.0000
-117.7400 35.9196 0.5539 0.0000
-117.7332 35.9138 0.7181 0.0000
-117.7263 35.9081 0.8080 0.0000
-117.7194 35.9024 0.5483 0.0000
-117.7126 35.8967 0.2628 0.0000
-117.7057 35.8909 0.3790 0.0000
-117.6988 35.8852 0.4957 0.0000
-117.6919 35.8795 0.9402 0.0000
-117.6851 35.8738 1.4187 0.0000
-117.6782 35.8680 1.8462 0.0000
-117.6713 35.8623 2.0448 0.0000
-117.6645 35.8566 2.2561 0.0000
-117.6576 35.8509 2.4775 0.0000
-117.6507 35.8451 2.5333 0.0000
-117.6439 35.8394 2.4058 0.0000
-117.6370 35.8337 1.4833 0.0000
-117.6301 35.8280 1.0211 0.0000
-117.4316 35.6275 1.2376 0.0000
-117.4247 35.6216 1.6167 0.0000
-117.4178 35.6156 1.2676 0.0000
-117.4109 35.6096 1.4066 0.0000
-117.4040 35.6037 1.2722 0.0000
-117.3971 35.5977 1.3358 0.0000
-117.3902 35.5918 1.4945 0.0000
-117.3833 35.5858 1.5295 0.0000
-117.3764 35.5799 1.3488 0.0000
-117.3695 35.5739 0.9014 0.0000
-117.3626 35.5680 0.4173 0.0000
-117.3557 35.5620 0.0514 0.0000
-117.3488 35.5560 0.0452 0.0000
-117.3419 35.5501 0.0174 0.0000
-117.3350 35.5441 0.0149 0.0000
-117.3281 35.5382 0.0155 0.0000
-117.3212 35.5322 0.0172 0.0000
-117.3143 35.5263 0.0028 0.0000
-117.3074 35.5203 0.0066 0.0000
-117.3005 35.5144 0.0064 0.0000
-117.2936 35.5084 0.0058 0.0000
-117.2867 35.5024 0.0014 0.0000
-117.6242 35.8203 2.3735 0.0000
-117.6200 35.8130 0.7918 0.0000
-117.6158 35.8057 1.0433 0.0000
-117.6116 35.7984 2.2988 0.0000
-117.6074 35.7911 2.4575 0.0000
-117.6032 35.7838 3.6263 0.0000
-117.5990 35.7765 3.6506 0.0000
-117.5948 35.7692 3.6976 0.0000
-117.5906 35.7619 4.2190 0.0000
-117.5865 35.7546 4.8359 0.0000
-117.5823 35.7473 2.8363 0.0000
-117.5781 35.7400 4.0246 0.0000
-117.5739 35.7327 4.6656 0.0000
-117.5697 35.7254 2.2039 0.0000
-117.5655 35.7181 2.9534 0.0000
-117.4952 35.6613 1.1933 1.1375
-117.4843 35.6557 1.1278 1.1375
-117.4734 35.6501 1.3199 1.1375
-117.4625 35.6446 1.7068 1.1375
-117.4516 35.6390 1.8892 1.1375
-117.4407 35.6334 1.8640 1.1375
-117.6742 35.8335 0.1123 1.1375
-117.6643 35.8269 0.4713 1.1375
-117.6544 35.8203 0.6987 1.1375
-117.6445 35.8138 1.0681 1.1375
-117.6345 35.8072 1.7267 1.1375
-117.6246 35.8006 2.2580 1.1375
-117.6147 35.7941 2.8349 1.1375
-117.5777 35.7479 3.1425 1.1375
-117.5678 35.7413 2.2554 1.1375
-117.5579 35.7346 1.6539 1.1375
-117.5480 35.7280 1.2986 1.1375
-117.5381 35.7213 1.1835 1.1375
-117.5282 35.7147 0.9588 1.1375
-117.5183 35.7080 0.9138 1.1375
-117.5084 35.7014 1.2140 1.1375
-117.4985 35.6947 1.1103 1.1375
-117.4886 35.6881 0.2779 1.1375
-117.5585 35.7104 3.1515 1.1375
-117.5497 35.7033 1.9577 1.1375
-117.5409 35.6962 1.3204 1.1375
-117.5322 35.6891 1.4773 1.1375
-117.5234 35.6820 1.9122 1.1375
-117.5147 35.6750 1.8969 1.1375
-117.5059 35.6679 1.5120 1.1375
-117.7529 35.9302 0.0547 1.1375
-117.7442 35.9230 0.1840 1.1375
-117.7355 35.9157 0.2974 1.1375
-117.7267 35.9085 0.4328 1.1375
-117.7180 35.9012 0.3829 1.1375
-117.7093 35.8940 0.4097 1.1375
-117.7006 35.8867 0.6051 1.1375
-117.6919 35.8795 1.1019 1.1375
-117.6832 35.8722 1.8171 1.1375
-117.6745 35.8650 2.1968 1.1375
-117.6658 35.8577 2.5184 1.1375
-117.6571 35.8505 2.8285 1.1375
-117.6484 35.8432 3.2203 1.1375
-117.6397 35.8360 3.3398 1.1375
-117.6310 35.8287 3.1635 1.1375
-117.4306 35.6266 1.9475 1.1375
-117.4216 35.6189 1.9478 1.1375
-117.4127 35.6112 1.7497 1.1375
-117.4038 35.6035 1.5743 1.1375
-117.3949 35.5958 1.6427 1.1375
-117.3859 35.5881 1.7254 1.1375
-117.3770 35.5804 1.4022 1.1375
-117.3681 35.5727 0.8206 1.1375
-117.3591 35.5650 0.3546 1.1375
-117.3502 35.5573 0.1337 1.1375
-117.3413 35.5496 0.0603 1.1375
-117.3324 35.5419 0.0208 1.1375
-117.3234 35.5342 0.0033 1.1375
-117.3145 35.5264 0.0109 1.1375
-117.3056 35.5187 0.0160 1.1375
-117.2967 35.5110 0.0085 1.1375
-117.2877 35.5033 0.0016 1.1375
-117.6236 35.8194 3.1033 1.1375
-117.6184 35.8102 2.5703 1.1375
-117.6132 35.8011 2.3846 1.1375
-117.6079 35.7920 2.7561 1.1375
-117.6027 35.7829 3.7638 1.1375
-117.5975 35.7737 4.0898 1.1375
-117.5922 35.7646 4.1170 1.1375
-117.5870 35.7555 4.0234 1.1375
-117.5817 35.7464 3.1917 1.1375
-117.5765 35.7372 3.5784 1.1375
-117.5713 35.7281 3.6687 1.1375
-117.5660 35.7190 3.3334 1.1375
-117.4941 35.6607 1.1500 2.6162
-117.4810 35.6540 1.0158 2.6162
-117.4679 35.6474 1.3035 2.6162
-117.4548 35.6407 1.6201 2.6162
-117.4417 35.6340 1.9041 2.6162
-117.6722 35.8322 0.2459 2.6162
-117.6583 35.8230 1.1283 2.6162
-117.6445 35.8138 1.9034 2.6162
-117.6306 35.8046 2.9286 2.6162
-117.6167 35.7954 3.4401 2.6162
-117.5765 35.7471 3.4929 2.6162
-117.5641 35.7388 3.1123 2.6162
-117.5517 35.7305 2.6302 2.6162
-117.5393 35.7222 2.1217 2.6162
-117.5270 35.7138 1.6212 2.6162
-117.5146 35.7055 1.4859 2.6162
-117.5022 35.6972 1.2736 2.6162
-117.4899 35.6889 0.3426 2.6162
-117.5567 35.7090 2.6659 2.6162
-117.5444 35.6991 1.6069 2.6162
-117.5322 35.6891 1.4845 2.6162
-117.5199 35.6792 1.9002 2.6162
-117.5077 35.6693 1.6965 2.6162
-117.7518 35.9293 0.0269 2.6162
-117.7409 35.9203 0.1057 2.6162
-117.7300 35.9112 0.0903 2.6162
-117.7191 35.9021 0.0502 2.6162
-117.7083 35.8931 0.1894 2.6162
-117.6974 35.8840 0.6425 2.6162
-117.6865 35.8750 1.2829 2.6162
-117.6756 35.8659 1.9886 2.6162
-117.6648 35.8568 2.7253 2.6162
-117.6539 35.8478 3.2300 2.6162
-117.6430 35.8387 3.6442 2.6162
-117.6321 35.8296 3.6089 2.6162
-117.4292 35.6255 2.2029 2.6162
-117.4175 35.6154 2.2735 2.6162
-117.4058 35.6053 2.1125 2.6162
-117.3942 35.5952 1.9228 2.6162
-117.3825 35.5851 1.7284 2.6162
-117.3708 35.5751 1.1504 2.6162
-117.3591 35.5650 0.4495 2.6162
-117.3475 35.5549 0.1130 2.6162
-117.3358 35.5448 0.0359 2.6162
-117.3241 35.5347 0.0198 2.6162
-117.3125 35.5247 0.0467 2.6162
-117.3008 35.5146 0.0322 2.6162
-117.2891 35.5045 0.0058 2.6162
-117.6228 35.8178 3.2710 2.6162
-117.6158 35.8057 2.5268 2.6162
-117.6088 35.7935 3.0293 2.6162
-117.6018 35.7813 3.8631 2.6162
-117.5948 35.7692 4.3277 2.6162
-117.5879 35.7570 4.0622 2.6162
-117.5809 35.7448 3.5240 2.6162
-117.5739 35.7327 3.2395 2.6162
-117.5669 35.7205 3.1390 2.6162
-117.4925 35.6599 0.5178 4.5385
-117.4761 35.6515 0.3976 4.5385
-117.4597 35.6432 0.6844 4.5385
-117.4434 35.6348 1.5217 4.5385
-117.6705 35.8310 0.3160 4.5385
-117.6531 35.8195 1.7389 4.5385
-117.6358 35.8080 2.7732 4.5385
-117.6184 35.7965 3.5778 4.5385
-117.5744 35.7457 3.7162 4.5385
-117.5579 35.7346 3.5572 4.5385
-117.5414 35.7235 2.7363 4.5385
-117.5249 35.7125 1.7299 4.5385
-117.5084 35.7014 1.1076 4.5385
-117.4919 35.6903 0.3220 4.5385
-117.5552 35.7078 2.3738 4.5385
-117.5398 35.6953 1.3833 4.5385
-117.5245 35.6829 1.2943 4.5385
-117.5092 35.6705 1.2474 4.5385
-117.7500 35.9278 0.0543 4.5385
-117.7355 35.9157 0.1916 4.5385
-117.7209 35.9037 0.3488 4.5385
-117.7064 35.8916 0.5635 4.5385
-117.6919 35.8795 0.7131 4.5385
-117.6774 35.8674 1.1568 4.5385
-117.6629 35.8553 2.1227 4.5385
-117.6484 35.8432 2.7723 4.5385
-117.6339 35.8312 2.7568 4.5385
-117.4274 35.6239 2.1256 4.5385
-117.4123 35.6108 2.4439 4.5385
-117.3971 35.5977 2.1623 4.5385
-117.3819 35.5846 1.5162 4.5385
-117.3667 35.5715 0.7067 4.5385
-117.3516 35.5584 0.1378 4.5385
-117.3364 35.5453 0.0078 4.5385
-117.3212 35.5322 0.0798 4.5385
-117.3060 35.5191 0.0762 4.5385
-117.2909 35.5060 0.0178 4.5385
-117.6218 35.8161 2.1644 4.5385
-117.6128 35.8005 1.8659 4.5385
-117.6038 35.7848 2.9706 4.5385
-117.5948 35.7692 3.6504 4.5385
-117.5859 35.7535 3.5196 4.5385
-117.5769 35.7379 3.6377 4.5385
-117.5679 35.7222 2.9060 4.5385
-117.4897 35.6585 0.2688 7.0375
-117.4679 35.6474 0.3361 7.0375
-117.4461 35.6362 0.6430 7.0375
-117.6676 35.8291 0.3275 7.0375
-117.6445 35.8138 1.6131 7.0375
-117.6213 35.7984 1.9097 7.0375
-117.5728 35.7446 3.2600 7.0375
-117.5530 35.7313 2.7138 7.0375
-117.5332 35.7180 1.5676 7.0375
-117.5134 35.7047 0.7078 7.0375
-117.4936 35.6914 0.2937 7.0375
-117.5526 35.7057 2.0389 7.0375
-117.5322 35.6891 0.8934 7.0375
-117.5117 35.6726 0.6881 7.0375
-117.7479 35.9261 0.2295 7.0375
-117.7292 35.9106 0.7637 7.0375
-117.7106 35.8950 0.9003 7.0375
-117.6919 35.8795 0.7407 7.0375
-117.6733 35.8640 0.5345 7.0375
-117.6547 35.8484 1.2742 7.0375
-117.6360 35.8329 1.3125 7.0375
-117.4255 35.6223 1.5421 7.0375
-117.4066 35.6059 1.9847 7.0375
-117.3876 35.5895 1.3742 7.0375
-117.3686 35.5732 0.5913 7.0375
-117.3497 35.5568 0.0463 7.0375
-117.3307 35.5404 0.0749 7.0375
-117.3117 35.5240 0.1053 7.0375
-117.2928 35.5077 0.0293 7.0375
-117.6200 35.8130 0.5418 7.0375
-117.6074 35.7911 1.3444 7.0375
-117.5948 35.7692 2.1908 7.0375
-117.5823 35.7473 3.1286 7.0375
-117.5697 35.7254 2.7109 7.0375
-117.4843 35.6557 0.1929 10.2863
-117.4516 35.6390 0.2564 10.2863
-117.6618 35.8253 0.2133 10.2863
-117.6271 35.8023 0.2326 10.2863
-117.5703 35.7429 1.9203 10.2863
-117.5455 35.7263 0.9414 10.2863
-117.5208 35.7097 0.6099 10.2863
-117.4960 35.6931 0.3998 10.2863
-117.5475 35.7015 1.2639 10.2863
-117.5169 35.6767 0.4452 10.2863
-117.7442 35.9230 0.5137 10.2863
-117.7180 35.9012 1.1921 10.2863
-117.6919 35.8795 0.6766 10.2863
-117.6658 35.8577 0.4623 10.2863
-117.6397 35.8360 1.3088 10.2863
-117.4224 35.6196 0.8464 10.2863
-117.3971 35.5977 0.7453 10.2863
-117.3718 35.5759 0.1380 10.2863
-117.3465 35.5541 0.0036 10.2863
-117.3212 35.5322 0.0817 10.2863
-117.2959 35.5104 0.0298 10.2863
-117.6184 35.8102 0.9375 10.2863
-117.6027 35.7829 0.8758 10.2863
-117.5870 35.7555 1.3244 10.2863
-117.5713 35.7281 1.8184 10.2863
-117.4843 35.6557 0.2526 14.5096
-117.4516 35.6390 0.0807 14.5096
-117.6618 35.8253 0.0388 14.5096
-117.6271 35.8023 0.0387 14.5096
-117.5662 35.7401 0.2707 14.5096
-117.5332 35.7180 0.2389 14.5096
-117.5002 35.6959 0.2249 14.5096
-117.5475 35.7015 0.4088 14.5096
-117.5169 35.6767 0.3476 14.5096
-117.7409 35.9203 0.3400 14.5096
-117.7083 35.8931 0.3627 14.5096
-117.6756 35.8659 0.0014 14.5096
-117.6430 35.8387 0.4140 14.5096
-117.4198 35.6174 0.0233 14.5096
-117.3895 35.5912 0.0369 14.5096
-117.3591 35.5650 0.0237 14.5096
-117.3288 35.5388 0.0010 14.5096
-117.2984 35.5126 0.0020 14.5096
-117.6158 35.8057 0.4812 14.5096
-117.5948 35.7692 0.6796 14.5096
-117.5739 35.7327 0.6716 14.5096
