85.6451 26.9084 0.0703 4.3300
85.5662 26.9380 0.0964 4.3300
85.4873 26.9675 0.0499 4.3300
85.4084 26.9970 0.0732 4.3300
85.3295 27.0266 0.0283 4.3300
85.2506 27.0561 0.0280 4.3300
85.1717 27.0857 0.0003 4.3300
85.0928 27.1152 0.0012 4.3300
85.0139 27.1447 0.0727 4.3300
84.9350 27.1743 0.0229 4.3300
84.8560 27.2038 0.1021 4.3300
84.7771 27.2333 0.0916 4.3300
84.6982 27.2629 0.0183 4.3300
84.6193 27.2924 0.0329 4.3300
84.5404 27.3220 0.0946 4.3300
84.4615 27.3515 0.0252 4.3300
84.3826 27.3810 0.0115 4.3300
84.3037 27.4106 0.0838 4.3300
84.2248 27.4401 0.0625 4.3300
84.1459 27.4696 0.0836 4.3300
84.0670 27.4992 0.0042 4.3300
83.9881 27.5287 0.0068 4.3300
83.9092 27.5582 0.0219 4.3300
85.6728 26.9660 0.0854 5.1831
85.5939 26.9955 0.0953 5.1831
85.5150 27.0251 0.0764 5.1831
85.4361 27.0546 0.0582 5.1831
85.3572 27.0841 0.0695 5.1831
85.2783 27.1137 0.0135 5.1831
85.1994 27.1432 0.0167 5.1831
85.1205 27.1727 0.0728 5.1831
85.0416 27.2023 0.0751 5.1831
84.9627 27.2318 0.0284 5.1831
84.8838 27.2614 0.0898 5.1831
84.8048 27.2909 0.0838 5.1831
84.7259 27.3204 0.0430 5.1831
84.6470 27.3500 0.0663 5.1831
84.5681 27.3795 0.0637 5.1831
84.4892 27.4090 0.0133 5.1831
84.4103 27.4386 0.0861 5.1831
84.3314 27.4681 0.0081 5.1831
84.2525 27.4977 0.0047 5.1831
84.1736 27.5272 0.0862 5.1831
84.0947 27.5567 0.0313 5.1831
84.0158 27.5863 0.0522 5.1831
83.9369 27.6158 0.0548 5.1831
85.7005 27.0235 0.0584 6.0362
85.6216 27.0531 0.0708 6.0362
85.5427 27.0826 0.0828 6.0362
85.4638 27.1122 0.0847 6.0362
85.3849 27.1417 0.0772 6.0362
85.3060 27.1712 0.0028 6.0362
85.2271 27.2008 0.0780 6.0362
85.1482 27.2303 0.0067 6.0362
85.0693 27.2598 0.3089 6.0362
84.9904 27.2894 0.3955 6.0362
84.9115 27.3189 0.2514 6.0362
84.8325 27.3485 0.2763 6.0362
84.7536 27.3780 0.5458 6.0362
84.6747 27.4075 1.0461 6.0362
84.5958 27.4371 0.6411 6.0362
84.5169 27.4666 0.0532 6.0362
84.4380 27.4961 0.0879 6.0362
84.3591 27.5257 0.0593 6.0362
84.2802 27.5552 0.0512 6.0362
84.2013 27.5847 0.0256 6.0362
84.1224 27.6143 0.0096 6.0362
84.0435 27.6438 0.2214 6.0362
83.9646 27.6734 0.0191 6.0362
85.7282 27.0811 0.0719 6.8893
85.6493 27.1106 0.0502 6.8893
85.5704 27.1402 0.0295 6.8893
85.4915 27.1697 0.0540 6.8893
85.4126 27.1992 0.0517 6.8893
85.3337 27.2288 0.0049 6.8893
85.2548 27.2583 0.3134 6.8893
85.1759 27.2879 0.1712 6.8893
85.0970 27.3174 0.1879 6.8893
85.0181 27.3469 0.4120 6.8893
84.9392 27.3765 0.2356 6.8893
84.8603 27.4060 0.5160 6.8893
84.7813 27.4355 1.0368 6.8893
84.7024 27.4651 1.5424 6.8893
84.6235 27.4946 0.7196 6.8893
84.5446 27.5242 0.2027 6.8893
84.4657 27.5537 0.1775 6.8893
84.3868 27.5832 0.2118 6.8893
84.3079 27.6128 0.1177 6.8893
84.2290 27.6423 0.0312 6.8893
84.1501 27.6718 0.1827 6.8893
84.0712 27.7014 0.4688 6.8893
83.9923 27.7309 0.0047 6.8893
85.7559 27.1387 0.0902 7.7423
85.6770 27.1682 0.0453 7.7423
85.5981 27.1977 0.0349 7.7423
85.5192 27.2273 0.0973 7.7423
85.4403 27.2568 0.8277 7.7423
85.3614 27.2863 0.8999 7.7423
85.2825 27.3159 1.3305 7.7423
85.2036 27.3454 0.2643 7.7423
85.1247 27.3750 0.0534 7.7423
85.0458 27.4045 0.0224 7.7423
84.9669 27.4340 0.5357 7.7423
84.8880 27.4636 0.5961 7.7423
84.8090 27.4931 0.4569 7.7423
84.7301 27.5226 1.1772 7.7423
84.6512 27.5522 0.6827 7.7423
84.5723 27.5817 0.0939 7.7423
84.4934 27.6112 0.2673 7.7423
84.4145 27.6408 0.0451 7.7423
84.3356 27.6703 0.3156 7.7423
84.2567 27.6999 0.2820 7.7423
84.1778 27.7294 0.3078 7.7423
84.0989 27.7589 0.5696 7.7423
84.0200 27.7885 0.0089 7.7423
85.7836 27.1962 0.0330 8.5954
85.7047 27.2257 0.0785 8.5954
85.6258 27.2553 2.0105 8.5954
85.5469 27.2848 2.0452 8.5954
85.4680 27.3144 1.6184 8.5954
85.3891 27.3439 1.0582 8.5954
85.3102 27.3734 0.3435 8.5954
85.2313 27.4030 0.1140 8.5954
85.1524 27.4325 0.1805 8.5954
85.0735 27.4620 0.2445 8.5954
84.9946 27.4916 0.7166 8.5954
84.9157 27.5211 0.7098 8.5954
84.8368 27.5507 0.3048 8.5954
84.7578 27.5802 0.8836 8.5954
84.6789 27.6097 0.2580 8.5954
84.6000 27.6393 0.2945 8.5954
84.5211 27.6688 0.2318 8.5954
84.4422 27.6983 0.2333 8.5954
84.3633 27.7279 0.4297 8.5954
84.2844 27.7574 0.3828 8.5954
84.2055 27.7869 0.0739 8.5954
84.1266 27.8165 0.1524 8.5954
84.0477 27.8460 0.0567 8.5954
85.8113 27.2538 0.0857 9.4485
85.7324 27.2833 0.0798 9.4485
85.6535 27.3128 1.4747 9.4485
85.5746 27.3424 0.7630 9.4485
85.4957 27.3719 0.2329 9.4485
85.4168 27.4014 0.0837 9.4485
85.3379 27.4310 0.0109 9.4485
85.2590 27.4605 0.2062 9.4485
85.1801 27.4901 0.0139 9.4485
85.1012 27.5196 0.1173 9.4485
85.0223 27.5491 0.9587 9.4485
84.9434 27.5787 1.2429 9.4485
84.8645 27.6082 1.0304 9.4485
84.7856 27.6377 0.9015 9.4485
84.7066 27.6673 0.1869 9.4485
84.6277 27.6968 0.6279 9.4485
84.5488 27.7264 0.7101 9.4485
84.4699 27.7559 0.3393 9.4485
84.3910 27.7854 0.3870 9.4485
84.3121 27.8150 0.3211 9.4485
84.2332 27.8445 0.0067 9.4485
84.1543 27.8740 0.0376 9.4485
84.0754 27.9036 0.0618 9.4485
85.8390 27.3113 0.0994 10.3016
85.7601 27.3409 0.0569 10.3016
85.6812 27.3704 1.0095 10.3016
85.6023 27.3999 0.1014 10.3016
85.5234 27.4295 0.0080 10.3016
85.4445 27.4590 0.1106 10.3016
85.3656 27.4885 0.5985 10.3016
85.2867 27.5181 0.4170 10.3016
85.2078 27.5476 0.6557 10.3016
85.1289 27.5772 0.8651 10.3016
85.0500 27.6067 1.2878 10.3016
84.9711 27.6362 1.0327 10.3016
84.8922 27.6658 2.0148 10.3016
84.8133 27.6953 2.1171 10.3016
84.7343 27.7248 1.0543 10.3016
84.6554 27.7544 0.9883 10.3016
84.5765 27.7839 0.1816 10.3016
84.4976 27.8134 0.2276 10.3016
84.4187 27.8430 0.0482 10.3016
84.3398 27.8725 0.2676 10.3016
84.2609 27.9021 0.0923 10.3016
84.1820 27.9316 0.1439 10.3016
84.1031 27.9611 0.0637 10.3016
85.8667 27.3689 0.0917 11.1547
85.7878 27.3984 0.0676 11.1547
85.7089 27.4279 0.8381 11.1547
85.6300 27.4575 0.5233 11.1547
85.5511 27.4870 0.0548 11.1547
85.4722 27.5166 0.9698 11.1547
85.3933 27.5461 1.5556 11.1547
85.3144 27.5756 0.9582 11.1547
85.2355 27.6052 1.1891 11.1547
85.1566 27.6347 1.6972 11.1547
85.0777 27.6642 2.0770 11.1547
84.9988 27.6938 1.9650 11.1547
84.9199 27.7233 2.6450 11.1547
84.8410 27.7529 3.0546 11.1547
84.7621 27.7824 2.4127 11.1547
84.6831 27.8119 1.3583 11.1547
84.6042 27.8415 0.8139 11.1547
84.5253 27.8710 0.9267 11.1547
84.4464 27.9005 0.3716 11.1547
84.3675 27.9301 0.1804 11.1547
84.2886 27.9596 0.1193 11.1547
84.2097 27.9892 0.4064 11.1547
84.1308 28.0187 0.0925 11.1547
85.8944 27.4264 0.0510 12.0078
85.8155 27.4560 0.0707 12.0078
85.7366 27.4855 1.1248 12.0078
85.6577 27.5150 1.0158 12.0078
85.5788 27.5446 0.0688 12.0078
85.4999 27.5741 0.3446 12.0078
85.4210 27.6037 1.2605 12.0078
85.3421 27.6332 1.7887 12.0078
85.2632 27.6627 3.1946 12.0078
85.1843 27.6923 3.1907 12.0078
85.1054 27.7218 3.3657 12.0078
85.0265 27.7513 3.4670 12.0078
84.9476 27.7809 3.4926 12.0078
84.8687 27.8104 3.9806 12.0078
84.7898 27.8399 3.4414 12.0078
84.7108 27.8695 2.1031 12.0078
84.6319 27.8990 0.7374 12.0078
84.5530 27.9286 0.7663 12.0078
84.4741 27.9581 0.1463 12.0078
84.3952 27.9876 0.2022 12.0078
84.3163 28.0172 0.1849 12.0078
84.2374 28.0467 0.0664 12.0078
84.1585 28.0762 0.0084 12.0078
85.9221 27.4840 0.0727 12.8609
85.8432 27.5135 0.0739 12.8609
85.7643 27.5431 0.9941 12.8609
85.6854 27.5726 0.7859 12.8609
85.6065 27.6021 0.0324 12.8609
85.5276 27.6317 0.0178 12.8609
85.4487 27.6612 0.4577 12.8609
85.3698 27.6907 1.9479 12.8609
85.2909 27.7203 4.2906 12.8609
85.2120 27.7498 4.4804 12.8609
85.1331 27.7794 4.1583 12.8609
85.0542 27.8089 4.1173 12.8609
84.9753 27.8384 3.5768 12.8609
84.8964 27.8680 3.6222 12.8609
84.8175 27.8975 3.5236 12.8609
84.7386 27.9270 1.9432 12.8609
84.6596 27.9566 0.7737 12.8609
84.5807 27.9861 0.7678 12.8609
84.5018 28.0156 0.2799 12.8609
84.4229 28.0452 0.0367 12.8609
84.3440 28.0747 0.0103 12.8609
84.2651 28.1043 0.0251 12.8609
84.1862 28.1338 0.0090 12.8609
85.9498 27.5415 0.0158 13.7139
85.8709 27.5711 0.0915 13.7139
85.7920 27.6006 0.9589 13.7139
85.7131 27.6302 0.2222 13.7139
85.6342 27.6597 0.0108 13.7139
85.5553 27.6892 0.0592 13.7139
85.4764 27.7188 0.8975 13.7139
85.3975 27.7483 2.7305 13.7139
85.3186 27.7778 4.2692 13.7139
85.2397 27.8074 4.3433 13.7139
85.1608 27.8369 4.2062 13.7139
85.0819 27.8664 4.2021 13.7139
85.0030 27.8960 3.2286 13.7139
84.9241 27.9255 3.3450 13.7139
84.8452 27.9551 2.7328 13.7139
84.7663 27.9846 1.1878 13.7139
84.6874 28.0141 0.6512 13.7139
84.6084 28.0437 0.9111 13.7139
84.5295 28.0732 0.9455 13.7139
84.4506 28.1027 0.7934 13.7139
84.3717 28.1323 0.0267 13.7139
84.2928 28.1618 0.0638 13.7139
84.2139 28.1914 0.0925 13.7139
85.9775 27.5991 0.0099 14.5670
85.8986 27.6286 0.0667 14.5670
85.8197 27.6582 0.1297 14.5670
85.7408 27.6877 0.0826 14.5670
85.6619 27.7172 0.0601 14.5670
85.5830 27.7468 0.0324 14.5670
85.5041 27.7763 2.0029 14.5670
85.4252 27.8059 2.5026 14.5670
85.3463 27.8354 3.1620 14.5670
85.2674 27.8649 2.8746 14.5670
85.1885 27.8945 3.5588 14.5670
85.1096 27.9240 4.0794 14.5670
85.0307 27.9535 3.1887 14.5670
84.9518 27.9831 3.0795 14.5670
84.8729 28.0126 2.4096 14.5670
84.7940 28.0421 0.8940 14.5670
84.7151 28.0717 0.7830 14.5670
84.6361 28.1012 2.2498 14.5670
84.5572 28.1308 2.1570 14.5670
84.4783 28.1603 0.9840 14.5670
84.3994 28.1898 0.0918 14.5670
84.3205 28.2194 0.1545 14.5670
84.2416 28.2489 0.0519 14.5670
86.0052 27.6566 0.0378 15.4201
85.9263 27.6862 0.0021 15.4201
85.8474 27.7157 0.2532 15.4201
85.7685 27.7453 0.2724 15.4201
85.6896 27.7748 0.0534 15.4201
85.6107 27.8043 0.1460 15.4201
85.5318 27.8339 1.2172 15.4201
85.4529 27.8634 2.5973 15.4201
85.3740 27.8929 2.8393 15.4201
85.2951 27.9225 2.4964 15.4201
85.2162 27.9520 2.7890 15.4201
85.1373 27.9816 3.7092 15.4201
85.0584 28.0111 2.8025 15.4201
84.9795 28.0406 1.9348 15.4201
84.9006 28.0702 1.3386 15.4201
84.8217 28.0997 0.7282 15.4201
84.7428 28.1292 0.7442 15.4201
84.6639 28.1588 1.8671 15.4201
84.5849 28.1883 1.9634 15.4201
84.5060 28.2179 0.8840 15.4201
84.4271 28.2474 0.0337 15.4201
84.3482 28.2769 0.0944 15.4201
84.2693 28.3065 0.0642 15.4201
86.0329 27.7142 0.0501 16.2732
85.9540 27.7437 0.0505 16.2732
85.8751 27.7733 0.0185 16.2732
85.7962 27.8028 0.1796 16.2732
85.7173 27.8324 0.0292 16.2732
85.6384 27.8619 0.0071 16.2732
85.5595 27.8914 0.6653 16.2732
85.4806 27.9210 1.7294 16.2732
85.4017 27.9505 1.8542 16.2732
85.3228 27.9800 2.2328 16.2732
85.2439 28.0096 2.4391 16.2732
85.1650 28.0391 3.0161 16.2732
85.0861 28.0686 2.0812 16.2732
85.0072 28.0982 1.1534 16.2732
84.9283 28.1277 1.1372 16.2732
84.8494 28.1573 0.6853 16.2732
84.7705 28.1868 0.8426 16.2732
84.6916 28.2163 0.8930 16.2732
84.6126 28.2459 1.2797 16.2732
84.5337 28.2754 0.1079 16.2732
84.4548 28.3049 0.0222 16.2732
84.3759 28.3345 0.1468 16.2732
84.2970 28.3640 0.0636 16.2732
86.0606 27.7718 0.0250 17.1263
85.9817 27.8013 0.0044 17.1263
85.9028 27.8308 0.2040 17.1263
85.8239 27.8604 0.3183 17.1263
85.7450 27.8899 0.0270 17.1263
85.6661 27.9194 0.0010 17.1263
85.5872 27.9490 0.0138 17.1263
85.5083 27.9785 1.2314 17.1263
85.4294 28.0081 0.9124 17.1263
85.3505 28.0376 1.2118 17.1263
85.2716 28.0671 1.7360 17.1263
85.1927 28.0967 1.7687 17.1263
85.1138 28.1262 1.0488 17.1263
85.0349 28.1557 1.0089 17.1263
84.9560 28.1853 0.6998 17.1263
84.8771 28.2148 0.7376 17.1263
84.7982 28.2444 0.8067 17.1263
84.7193 28.2739 0.8487 17.1263
84.6404 28.3034 0.4451 17.1263
84.5614 28.3330 0.0941 17.1263
84.4825 28.3625 0.2184 17.1263
84.4036 28.3920 0.0481 17.1263
84.3247 28.4216 0.0312 17.1263
86.0883 27.8293 0.0691 17.9794
86.0094 27.8589 0.0291 17.9794
85.9305 27.8884 0.5187 17.9794
85.8516 27.9179 0.3151 17.9794
85.7727 27.9475 0.0086 17.9794
85.6938 27.9770 0.0131 17.9794
85.6149 28.0065 0.0321 17.9794
85.5360 28.0361 1.2382 17.9794
85.4571 28.0656 1.3265 17.9794
85.3782 28.0951 1.6165 17.9794
85.2993 28.1247 1.4540 17.9794
85.2204 28.1542 0.8494 17.9794
85.1415 28.1838 0.1281 17.9794
85.0626 28.2133 0.5635 17.9794
84.9837 28.2428 0.4534 17.9794
84.9048 28.2724 0.1436 17.9794
84.8259 28.3019 0.6300 17.9794
84.7470 28.3314 0.5042 17.9794
84.6681 28.3610 0.1456 17.9794
84.5892 28.3905 0.3389 17.9794
84.5102 28.4201 0.3883 17.9794
84.4313 28.4496 0.0622 17.9794
84.3524 28.4791 0.0698 17.9794
86.1160 27.8869 0.0707 18.8325
86.0371 27.9164 0.0771 18.8325
85.9582 27.9459 0.5975 18.8325
85.8793 27.9755 0.9302 18.8325
85.8004 28.0050 0.5963 18.8325
85.7215 28.0346 0.7867 18.8325
85.6426 28.0641 0.1793 18.8325
85.5637 28.0936 0.6496 18.8325
85.4848 28.1232 1.6045 18.8325
85.4059 28.1527 1.9387 18.8325
85.3270 28.1822 1.6634 18.8325
85.2481 28.2118 0.7472 18.8325
85.1692 28.2413 0.2202 18.8325
85.0903 28.2708 0.3951 18.8325
85.0114 28.3004 0.2996 18.8325
84.9325 28.3299 0.0048 18.8325
84.8536 28.3595 0.6978 18.8325
84.7747 28.3890 0.5225 18.8325
84.6958 28.4185 0.1855 18.8325
84.6169 28.4481 0.1826 18.8325
84.5379 28.4776 0.4527 18.8325
84.4590 28.5071 0.9677 18.8325
84.3801 28.5367 0.0107 18.8325
86.1437 27.9444 0.0188 19.6855
86.0648 27.9740 0.0059 19.6855
85.9859 28.0035 0.3578 19.6855
85.9070 28.0330 0.2911 19.6855
85.8281 28.0626 0.1003 19.6855
85.7492 28.0921 0.1312 19.6855
85.6703 28.1216 0.0137 19.6855
85.5914 28.1512 0.0682 19.6855
85.5125 28.1807 0.7455 19.6855
85.4336 28.2103 1.5017 19.6855
85.3547 28.2398 1.1105 19.6855
85.2758 28.2693 0.0595 19.6855
85.1969 28.2989 0.0240 19.6855
85.1180 28.3284 0.5237 19.6855
85.0391 28.3579 0.1163 19.6855
84.9602 28.3875 0.1980 19.6855
84.8813 28.4170 0.0456 19.6855
84.8024 28.4466 0.1681 19.6855
84.7235 28.4761 0.2890 19.6855
84.6446 28.5056 0.0859 19.6855
84.5657 28.5352 0.0117 19.6855
84.4867 28.5647 0.7538 19.6855
84.4078 28.5942 0.0111 19.6855
86.1715 28.0020 0.0955 20.5386
86.0925 28.0315 0.0954 20.5386
86.0136 28.0611 0.8799 20.5386
85.9347 28.0906 0.8519 20.5386
85.8558 28.1201 0.1118 20.5386
85.7769 28.1497 0.0186 20.5386
85.6980 28.1792 0.1666 20.5386
85.6191 28.2087 0.2744 20.5386
85.5402 28.2383 1.4999 20.5386
85.4613 28.2678 1.3461 20.5386
85.3824 28.2973 1.1933 20.5386
85.3035 28.3269 0.3561 20.5386
85.2246 28.3564 0.0038 20.5386
85.1457 28.3860 0.0747 20.5386
85.0668 28.4155 0.2879 20.5386
84.9879 28.4450 0.0069 20.5386
84.9090 28.4746 0.2271 20.5386
84.8301 28.5041 0.2098 20.5386
84.7512 28.5336 0.0641 20.5386
84.6723 28.5632 0.0079 20.5386
84.5934 28.5927 0.0036 20.5386
84.5144 28.6223 0.0018 20.5386
84.4355 28.6518 0.0104 20.5386
86.1992 28.0595 0.0929 21.3917
86.1202 28.0891 0.0749 21.3917
86.0413 28.1186 2.8874 21.3917
85.9624 28.1481 1.3779 21.3917
85.8835 28.1777 0.2500 21.3917
85.8046 28.2072 0.1650 21.3917
85.7257 28.2368 0.1919 21.3917
85.6468 28.2663 0.8276 21.3917
85.5679 28.2958 1.8785 21.3917
85.4890 28.3254 1.5166 21.3917
85.4101 28.3549 0.9245 21.3917
85.3312 28.3844 1.1228 21.3917
85.2523 28.4140 0.7892 21.3917
85.1734 28.4435 0.1673 21.3917
85.0945 28.4731 0.0864 21.3917
85.0156 28.5026 0.0833 21.3917
84.9367 28.5321 0.3796 21.3917
84.8578 28.5617 0.1384 21.3917
84.7789 28.5912 0.0438 21.3917
84.7000 28.6207 0.0690 21.3917
84.6211 28.6503 0.0006 21.3917
84.5422 28.6798 0.0268 21.3917
84.4632 28.7093 0.0976 21.3917
86.2269 28.1171 0.0918 22.2448
86.1480 28.1466 0.0936 22.2448
86.0690 28.1762 2.7549 22.2448
85.9901 28.2057 0.9908 22.2448
85.9112 28.2352 0.1010 22.2448
85.8323 28.2648 0.0763 22.2448
85.7534 28.2943 0.0036 22.2448
85.6745 28.3238 1.0349 22.2448
85.5956 28.3534 1.8550 22.2448
85.5167 28.3829 2.3842 22.2448
85.4378 28.4125 2.4673 22.2448
85.3589 28.4420 2.4380 22.2448
85.2800 28.4715 1.4590 22.2448
85.2011 28.5011 0.0417 22.2448
85.1222 28.5306 0.0362 22.2448
85.0433 28.5601 0.0436 22.2448
84.9644 28.5897 0.1257 22.2448
84.8855 28.6192 0.3724 22.2448
84.8066 28.6488 0.1163 22.2448
84.7277 28.6783 0.0010 22.2448
84.6488 28.7078 0.0416 22.2448
84.5699 28.7374 0.7787 22.2448
84.4910 28.7669 0.0779 22.2448
86.2546 28.1746 0.0930 23.0979
86.1757 28.2042 0.0723 23.0979
86.0967 28.2337 0.0737 23.0979
86.0178 28.2633 0.0555 23.0979
85.9389 28.2928 0.0904 23.0979
85.8600 28.3223 0.0234 23.0979
85.7811 28.3519 0.0857 23.0979
85.7022 28.3814 0.0111 23.0979
85.6233 28.4109 0.0111 23.0979
85.5444 28.4405 0.0790 23.0979
85.4655 28.4700 0.0096 23.0979
85.3866 28.4996 0.0094 23.0979
85.3077 28.5291 0.0919 23.0979
85.2288 28.5586 0.0594 23.0979
85.1499 28.5882 0.0528 23.0979
85.0710 28.6177 0.0502 23.0979
84.9921 28.6472 0.0552 23.0979
84.9132 28.6768 0.0552 23.0979
84.8343 28.7063 0.0341 23.0979
84.7554 28.7358 0.0174 23.0979
84.6765 28.7654 0.0901 23.0979
84.5976 28.7949 0.0201 23.0979
84.5187 28.8245 0.0315 23.0979
86.2823 28.2322 0.0937 23.9510
86.2034 28.2617 0.0891 23.9510
86.1245 28.2913 0.0050 23.9510
86.0455 28.3208 0.0360 23.9510
85.9666 28.3503 0.0326 23.9510
85.8877 28.3799 0.0305 23.9510
85.8088 28.4094 0.0687 23.9510
85.7299 28.4390 0.0955 23.9510
85.6510 28.4685 0.0777 23.9510
85.5721 28.4980 0.0844 23.9510
85.4932 28.5276 0.0644 23.9510
85.4143 28.5571 0.0057 23.9510
85.3354 28.5866 0.0367 23.9510
85.2565 28.6162 0.0890 23.9510
85.1776 28.6457 0.0916 23.9510
85.0987 28.6753 0.0212 23.9510
85.0198 28.7048 0.0903 23.9510
84.9409 28.7343 0.0277 23.9510
84.8620 28.7639 0.0191 23.9510
84.7831 28.7934 0.0805 23.9510
84.7042 28.8229 0.0937 23.9510
84.6253 28.8525 0.0903 23.9510
84.5464 28.8820 0.0987 23.9510
