-98.1125 15.8902 0.8633 7.0900
-98.1547 15.9099 1.0144 7.0900
-98.1968 15.9297 0.5099 7.0900
-98.2390 15.9494 0.5006 7.0900
-98.2812 15.9691 0.1544 7.0900
-98.3234 15.9888 0.2386 7.0900
-98.3656 16.0086 0.7408 7.0900
-98.4077 16.0283 0.5766 7.0900
-98.4499 16.0480 0.2662 7.0900
-98.4921 16.0677 0.0430 7.0900
-98.5343 16.0875 0.0084 7.0900
-98.5765 16.1072 0.0762 7.0900
-98.6186 16.1269 0.5929 7.0900
-98.6608 16.1466 0.4466 7.0900
-98.7030 16.1664 0.8763 7.0900
-98.7452 16.1861 0.9925 7.0900
-98.7874 16.2058 1.1037 7.0900
-98.1001 15.9146 0.8980 7.7873
-98.1422 15.9344 1.0743 7.7873
-98.1844 15.9541 0.8229 7.7873
-98.2266 15.9738 0.7217 7.7873
-98.2688 15.9935 0.4884 7.7873
-98.3110 16.0133 0.3059 7.7873
-98.3531 16.0330 0.3695 7.7873
-98.3953 16.0527 0.0343 7.7873
-98.4375 16.0724 0.3954 7.7873
-98.4797 16.0922 0.2710 7.7873
-98.5218 16.1119 0.0234 7.7873
-98.5640 16.1316 0.0395 7.7873
-98.6062 16.1513 0.4930 7.7873
-98.6484 16.1711 0.2478 7.7873
-98.6906 16.1908 0.3343 7.7873
-98.7327 16.2105 0.7187 7.7873
-98.7749 16.2302 0.9090 7.7873
-98.0876 15.9391 0.7021 8.4847
-98.1298 15.9588 0.7234 8.4847
-98.1720 15.9785 0.9448 8.4847
-98.2142 15.9983 1.3265 8.4847
-98.2563 16.0180 0.6825 8.4847
-98.2985 16.0377 0.1024 8.4847
-98.3407 16.0574 0.1102 8.4847
-98.3829 16.0772 0.1128 8.4847
-98.4251 16.0969 0.0253 8.4847
-98.4672 16.1166 0.1761 8.4847
-98.5094 16.1363 0.6354 8.4847
-98.5516 16.1561 0.3611 8.4847
-98.5938 16.1758 0.5008 8.4847
-98.6360 16.1955 0.4710 8.4847
-98.6781 16.2152 0.6157 8.4847
-98.7203 16.2350 0.7864 8.4847
-98.7625 16.2547 0.7173 8.4847
-98.0752 15.9635 0.3759 9.1820
-98.1174 15.9832 0.0804 9.1820
-98.1596 16.0030 0.5168 9.1820
-98.2017 16.0227 0.9072 9.1820
-98.2439 16.0424 0.5383 9.1820
-98.2861 16.0621 0.8152 9.1820
-98.3283 16.0819 0.1108 9.1820
-98.3705 16.1016 0.0072 9.1820
-98.4126 16.1213 0.2323 9.1820
-98.4548 16.1410 0.1126 9.1820
-98.4970 16.1608 0.5343 9.1820
-98.5392 16.1805 0.2170 9.1820
-98.5814 16.2002 0.1681 9.1820
-98.6235 16.2199 0.0362 9.1820
-98.6657 16.2397 0.3797 9.1820
-98.7079 16.2594 0.3697 9.1820
-98.7501 16.2791 0.7952 9.1820
-98.0628 15.9879 0.5432 9.8794
-98.1049 16.0077 0.2681 9.8794
-98.1471 16.0274 0.5779 9.8794
-98.1893 16.0471 0.4600 9.8794
-98.2315 16.0668 0.1743 9.8794
-98.2737 16.0866 0.5587 9.8794
-98.3158 16.1063 0.1399 9.8794
-98.3580 16.1260 0.0574 9.8794
-98.4002 16.1457 0.3186 9.8794
-98.4424 16.1655 0.6963 9.8794
-98.4846 16.1852 0.3066 9.8794
-98.5267 16.2049 0.3902 9.8794
-98.5689 16.2246 0.5587 9.8794
-98.6111 16.2444 0.2545 9.8794
-98.6533 16.2641 0.2785 9.8794
-98.6955 16.2838 0.8098 9.8794
-98.7376 16.3035 0.7822 9.8794
-98.0503 16.0124 0.4854 10.5767
-98.0925 16.0321 0.1008 10.5767
-98.1347 16.0518 0.3843 10.5767
-98.1769 16.0715 0.4576 10.5767
-98.2191 16.0913 0.3032 10.5767
-98.2612 16.1110 0.0152 10.5767
-98.3034 16.1307 0.0588 10.5767
-98.3456 16.1504 0.1983 10.5767
-98.3878 16.1702 0.1837 10.5767
-98.4300 16.1899 0.3835 10.5767
-98.4721 16.2096 0.4503 10.5767
-98.5143 16.2293 0.4418 10.5767
-98.5565 16.2491 0.4616 10.5767
-98.5987 16.2688 0.1261 10.5767
-98.6409 16.2885 0.0589 10.5767
-98.6830 16.3082 0.8573 10.5767
-98.7252 16.3280 0.8510 10.5767
-98.0379 16.0368 0.3225 11.2741
-98.0801 16.0565 0.0608 11.2741
-98.1223 16.0763 0.0101 11.2741
-98.1645 16.0960 0.2896 11.2741
-98.2066 16.1157 0.4773 11.2741
-98.2488 16.1354 0.0549 11.2741
-98.2910 16.1552 0.0366 11.2741
-98.3332 16.1749 0.1072 11.2741
-98.3753 16.1946 0.1598 11.2741
-98.4175 16.2143 0.0972 11.2741
-98.4597 16.2341 0.1505 11.2741
-98.5019 16.2538 0.4280 11.2741
-98.5441 16.2735 0.2449 11.2741
-98.5862 16.2932 0.1690 11.2741
-98.6284 16.3130 0.0820 11.2741
-98.6706 16.3327 0.1881 11.2741
-98.7128 16.3524 0.4771 11.2741
-98.0255 16.0612 1.0947 11.9714
-98.0677 16.0810 0.4035 11.9714
-98.1098 16.1007 0.1090 11.9714
-98.1520 16.1204 0.1278 11.9714
-98.1942 16.1401 0.4047 11.9714
-98.2364 16.1599 0.2852 11.9714
-98.2786 16.1796 0.0708 11.9714
-98.3207 16.1993 0.1934 11.9714
-98.3629 16.2190 0.6417 11.9714
-98.4051 16.2388 0.0205 11.9714
-98.4473 16.2585 0.1023 11.9714
-98.4895 16.2782 0.1038 11.9714
-98.5316 16.2979 0.2112 11.9714
-98.5738 16.3177 0.3904 11.9714
-98.6160 16.3374 0.1518 11.9714
-98.6582 16.3571 0.0255 11.9714
-98.7004 16.3768 0.5167 11.9714
-98.0131 16.0857 1.0602 12.6688
-98.0552 16.1054 0.1722 12.6688
-98.0974 16.1251 0.0244 12.6688
-98.1396 16.1448 0.5754 12.6688
-98.1818 16.1646 0.4934 12.6688
-98.2240 16.1843 0.5233 12.6688
-98.2661 16.2040 0.1630 12.6688
-98.3083 16.2237 0.5186 12.6688
-98.3505 16.2435 0.7640 12.6688
-98.3927 16.2632 0.5811 12.6688
-98.4349 16.2829 0.3191 12.6688
-98.4770 16.3026 0.6147 12.6688
-98.5192 16.3224 0.4127 12.6688
-98.5614 16.3421 0.8179 12.6688
-98.6036 16.3618 0.4644 12.6688
-98.6457 16.3815 0.0629 12.6688
-98.6879 16.4013 0.2429 12.6688
-98.0006 16.1101 0.2621 13.3661
-98.0428 16.1298 0.4084 13.3661
-98.0850 16.1495 0.2171 13.3661
-98.1272 16.1693 0.3582 13.3661
-98.1693 16.1890 0.3576 13.3661
-98.2115 16.2087 0.2013 13.3661
-98.2537 16.2284 0.2254 13.3661
-98.2959 16.2482 0.5059 13.3661
-98.3381 16.2679 0.3096 13.3661
-98.3802 16.2876 0.2139 13.3661
-98.4224 16.3073 0.0529 13.3661
-98.4646 16.3271 0.2555 13.3661
-98.5068 16.3468 0.4957 13.3661
-98.5490 16.3665 0.9939 13.3661
-98.5911 16.3862 0.7493 13.3661
-98.6333 16.4060 0.1362 13.3661
-98.6755 16.4257 0.3571 13.3661
-97.9882 16.1345 0.2756 14.0635
-98.0304 16.1543 0.4950 14.0635
-98.0726 16.1740 0.6123 14.0635
-98.1147 16.1937 0.5356 14.0635
-98.1569 16.2134 0.4907 14.0635
-98.1991 16.2332 0.5358 14.0635
-98.2413 16.2529 0.4323 14.0635
-98.2835 16.2726 0.2200 14.0635
-98.3256 16.2923 0.2670 14.0635
-98.3678 16.3121 0.1697 14.0635
-98.4100 16.3318 0.0244 14.0635
-98.4522 16.3515 0.8644 14.0635
-98.4944 16.3712 0.8889 14.0635
-98.5365 16.3910 0.6764 14.0635
-98.5787 16.4107 0.6584 14.0635
-98.6209 16.4304 0.1153 14.0635
-98.6631 16.4501 0.1584 14.0635
-97.9758 16.1590 0.7586 14.7608
-98.0180 16.1787 0.4956 14.7608
-98.0601 16.1984 0.3195 14.7608
-98.1023 16.2181 0.2264 14.7608
-98.1445 16.2379 0.1015 14.7608
-98.1867 16.2576 0.1989 14.7608
-98.2289 16.2773 0.0728 14.7608
-98.2710 16.2970 0.0135 14.7608
-98.3132 16.3168 0.0109 14.7608
-98.3554 16.3365 0.0703 14.7608
-98.3976 16.3562 0.0086 14.7608
-98.4397 16.3759 0.0169 14.7608
-98.4819 16.3957 0.2813 14.7608
-98.5241 16.4154 0.2210 14.7608
-98.5663 16.4351 0.2784 14.7608
-98.6085 16.4548 0.1522 14.7608
-98.6506 16.4746 0.1085 14.7608
-97.9633 16.1834 0.3751 15.4582
-98.0055 16.2031 0.0117 15.4582
-98.0477 16.2228 0.1289 15.4582
-98.0899 16.2426 0.1481 15.4582
-98.1321 16.2623 0.0025 15.4582
-98.1742 16.2820 0.1458 15.4582
-98.2164 16.3017 0.0055 15.4582
-98.2586 16.3215 0.2019 15.4582
-98.3008 16.3412 0.4396 15.4582
-98.3430 16.3609 0.1090 15.4582
-98.3851 16.3806 0.0117 15.4582
-98.4273 16.4004 0.1196 15.4582
-98.4695 16.4201 0.0846 15.4582
-98.5117 16.4398 0.3404 15.4582
-98.5539 16.4595 0.3900 15.4582
-98.5960 16.4793 0.4202 15.4582
-98.6382 16.4990 0.0500 15.4582
-97.9509 16.2078 0.3444 16.1555
-97.9931 16.2275 0.0810 16.1555
-98.0353 16.2473 0.1697 16.1555
-98.0775 16.2670 0.1097 16.1555
-98.1196 16.2867 0.0384 16.1555
-98.1618 16.3065 0.0663 16.1555
-98.2040 16.3262 0.0018 16.1555
-98.2462 16.3459 1.6788 16.1555
-98.2884 16.3656 2.3048 16.1555
-98.3305 16.3854 1.6139 16.1555
-98.3727 16.4051 0.9217 16.1555
-98.4149 16.4248 0.0306 16.1555
-98.4571 16.4445 0.1004 16.1555
-98.4993 16.4643 0.4737 16.1555
-98.5414 16.4840 0.1146 16.1555
-98.5836 16.5037 0.2471 16.1555
-98.6258 16.5234 0.0224 16.1555
-97.9385 16.2323 0.0659 16.8529
-97.9807 16.2520 0.1353 16.8529
-98.0228 16.2717 0.1165 16.8529
-98.0650 16.2914 0.2300 16.8529
-98.1072 16.3112 0.1423 16.8529
-98.1494 16.3309 0.0286 16.8529
-98.1916 16.3506 0.9952 16.8529
-98.2337 16.3703 3.1037 16.8529
-98.2759 16.3901 3.7913 16.8529
-98.3181 16.4098 2.9755 16.8529
-98.3603 16.4295 1.3584 16.8529
-98.4025 16.4492 0.0149 16.8529
-98.4446 16.4690 0.0909 16.8529
-98.4868 16.4887 0.3941 16.8529
-98.5290 16.5084 0.1504 16.8529
-98.5712 16.5281 0.0758 16.8529
-98.6134 16.5479 0.0706 16.8529
-97.9261 16.2567 0.3466 17.5502
-97.9682 16.2764 0.2825 17.5502
-98.0104 16.2961 0.0027 17.5502
-98.0526 16.3159 0.0787 17.5502
-98.0948 16.3356 0.1042 17.5502
-98.1370 16.3553 0.2475 17.5502
-98.1791 16.3750 1.5508 17.5502
-98.2213 16.3948 3.9826 17.5502
-98.2635 16.4145 5.6740 17.5502
-98.3057 16.4342 4.9761 17.5502
-98.3479 16.4539 2.6706 17.5502
-98.3900 16.4737 0.3958 17.5502
-98.4322 16.4934 0.0091 17.5502
-98.4744 16.5131 0.1596 17.5502
-98.5166 16.5328 0.5173 17.5502
-98.5588 16.5526 0.1390 17.5502
-98.6009 16.5723 0.3623 17.5502
-97.9136 16.2811 0.0451 18.2476
-97.9558 16.3008 0.2504 18.2476
-97.9980 16.3206 0.1552 18.2476
-98.0402 16.3403 0.0160 18.2476
-98.0824 16.3600 0.0163 18.2476
-98.1245 16.3797 0.8063 18.2476
-98.1667 16.3995 2.4792 18.2476
-98.2089 16.4192 4.7463 18.2476
-98.2511 16.4389 6.2312 18.2476
-98.2932 16.4586 5.6440 18.2476
-98.3354 16.4784 4.0723 18.2476
-98.3776 16.4981 1.6769 18.2476
-98.4198 16.5178 0.1010 18.2476
-98.4620 16.5375 0.0192 18.2476
-98.5041 16.5573 0.6145 18.2476
-98.5463 16.5770 0.4696 18.2476
-98.5885 16.5967 0.1439 18.2476
-97.9012 16.3056 0.1837 18.9449
-97.9434 16.3253 0.1315 18.9449
-97.9856 16.3450 0.1602 18.9449
-98.0277 16.3647 0.0342 18.9449
-98.0699 16.3845 0.0189 18.9449
-98.1121 16.4042 0.3471 18.9449
-98.1543 16.4239 2.4073 18.9449
-98.1965 16.4436 5.0495 18.9449
-98.2386 16.4634 5.7033 18.9449
-98.2808 16.4831 5.9209 18.9449
-98.3230 16.5028 3.7823 18.9449
-98.3652 16.5225 1.7993 18.9449
-98.4074 16.5423 0.2589 18.9449
-98.4495 16.5620 0.0282 18.9449
-98.4917 16.5817 0.0814 18.9449
-98.5339 16.6014 0.3958 18.9449
-98.5761 16.6212 0.0556 18.9449
-97.8888 16.3300 0.2827 19.6423
-97.9310 16.3497 0.2460 19.6423
-97.9731 16.3694 0.0534 19.6423
-98.0153 16.3892 0.0017 19.6423
-98.0575 16.4089 0.2305 19.6423
-98.0997 16.4286 0.4887 19.6423
-98.1419 16.4483 2.3782 19.6423
-98.1840 16.4681 4.0785 19.6423
-98.2262 16.4878 5.3874 19.6423
-98.2684 16.5075 5.1696 19.6423
-98.3106 16.5272 3.9481 19.6423
-98.3528 16.5470 2.7176 19.6423
-98.3949 16.5667 1.6013 19.6423
-98.4371 16.5864 0.0566 19.6423
-98.4793 16.6061 0.0724 19.6423
-98.5215 16.6259 0.6261 19.6423
-98.5636 16.6456 0.1604 19.6423
-97.8764 16.3544 0.0117 20.3396
-97.9185 16.3741 0.1769 20.3396
-97.9607 16.3939 0.0587 20.3396
-98.0029 16.4136 0.0136 20.3396
-98.0451 16.4333 0.2130 20.3396
-98.0872 16.4530 0.4106 20.3396
-98.1294 16.4728 0.9602 20.3396
-98.1716 16.4925 2.4479 20.3396
-98.2138 16.5122 3.7003 20.3396
-98.2560 16.5319 4.3343 20.3396
-98.2981 16.5517 3.6318 20.3396
-98.3403 16.5714 2.7416 20.3396
-98.3825 16.5911 1.5633 20.3396
-98.4247 16.6108 0.0842 20.3396
-98.4669 16.6306 0.0421 20.3396
-98.5090 16.6503 0.0541 20.3396
-98.5512 16.6700 0.0057 20.3396
-97.8639 16.3788 0.1321 21.0370
-97.9061 16.3986 0.1754 21.0370
-97.9483 16.4183 0.1311 21.0370
-97.9905 16.4380 0.0631 21.0370
-98.0326 16.4577 0.1582 21.0370
-98.0748 16.4775 0.4413 21.0370
-98.1170 16.4972 0.4734 21.0370
-98.1592 16.5169 1.4391 21.0370
-98.2014 16.5366 2.6843 21.0370
-98.2435 16.5564 3.0940 21.0370
-98.2857 16.5761 2.8474 21.0370
-98.3279 16.5958 2.2800 21.0370
-98.3701 16.6155 1.2953 21.0370
-98.4123 16.6353 0.0609 21.0370
-98.4544 16.6550 0.2920 21.0370
-98.4966 16.6747 0.0274 21.0370
-98.5388 16.6944 0.1015 21.0370
-97.8515 16.4033 0.0401 21.7343
-97.8937 16.4230 0.1081 21.7343
-97.9359 16.4427 0.0925 21.7343
-97.9780 16.4625 0.0345 21.7343
-98.0202 16.4822 0.1520 21.7343
-98.0624 16.5019 0.3306 21.7343
-98.1046 16.5216 1.0291 21.7343
-98.1468 16.5414 1.8389 21.7343
-98.1889 16.5611 2.4686 21.7343
-98.2311 16.5808 2.2634 21.7343
-98.2733 16.6005 2.1151 21.7343
-98.3155 16.6203 1.6114 21.7343
-98.3576 16.6400 0.6537 21.7343
-98.3998 16.6597 0.0488 21.7343
-98.4420 16.6794 0.0245 21.7343
-98.4842 16.6992 0.1339 21.7343
-98.5264 16.7189 0.1324 21.7343
-97.8391 16.4277 0.3171 22.4317
-97.8812 16.4474 0.2048 22.4317
-97.9234 16.4672 0.0604 22.4317
-97.9656 16.4869 0.0329 22.4317
-98.0078 16.5066 0.0188 22.4317
-98.0500 16.5263 0.4984 22.4317
-98.0921 16.5461 1.0859 22.4317
-98.1343 16.5658 1.7858 22.4317
-98.1765 16.5855 1.9604 22.4317
-98.2187 16.6052 1.6693 22.4317
-98.2609 16.6250 1.2489 22.4317
-98.3030 16.6447 0.8293 22.4317
-98.3452 16.6644 0.2128 22.4317
-98.3874 16.6841 0.0498 22.4317
-98.4296 16.7039 0.1968 22.4317
-98.4718 16.7236 0.2354 22.4317
-98.5139 16.7433 0.0410 22.4317
-97.8266 16.4521 0.0754 23.1290
-97.8688 16.4719 0.5381 23.1290
-97.9110 16.4916 0.0388 23.1290
-97.9532 16.5113 0.1128 23.1290
-97.9954 16.5310 0.0651 23.1290
-98.0375 16.5508 0.5081 23.1290
-98.0797 16.5705 1.4953 23.1290
-98.1219 16.5902 2.0796 23.1290
-98.1641 16.6099 2.4329 23.1290
-98.2063 16.6297 1.6092 23.1290
-98.2484 16.6494 1.0099 23.1290
-98.2906 16.6691 0.4735 23.1290
-98.3328 16.6888 0.0064 23.1290
-98.3750 16.7086 0.0467 23.1290
-98.4172 16.7283 0.2137 23.1290
-98.4593 16.7480 0.1036 23.1290
-98.5015 16.7677 0.0845 23.1290
-97.8142 16.4766 0.1509 23.8264
-97.8564 16.4963 0.0687 23.8264
-97.8986 16.5160 0.1059 23.8264
-97.9407 16.5357 0.1315 23.8264
-97.9829 16.5555 0.0114 23.8264
-98.0251 16.5752 0.1087 23.8264
-98.0673 16.5949 0.8915 23.8264
-98.1095 16.6146 1.2516 23.8264
-98.1516 16.6344 1.3656 23.8264
-98.1938 16.6541 1.0423 23.8264
-98.2360 16.6738 0.5697 23.8264
-98.2782 16.6935 0.0240 23.8264
-98.3204 16.7133 0.0789 23.8264
-98.3625 16.7330 0.1063 23.8264
-98.4047 16.7527 0.1308 23.8264
-98.4469 16.7725 0.2642 23.8264
-98.4891 16.7922 0.1768 23.8264
-97.8018 16.5010 0.2237 24.5237
-97.8440 16.5207 0.0169 24.5237
-97.8861 16.5405 0.1947 24.5237
-97.9283 16.5602 0.0142 24.5237
-97.9705 16.5799 0.0687 24.5237
-98.0127 16.5996 0.0181 24.5237
-98.0549 16.6194 0.1521 24.5237
-98.0970 16.6391 0.0740 24.5237
-98.1392 16.6588 0.2418 24.5237
-98.1814 16.6785 0.7235 24.5237
-98.2236 16.6983 0.2758 24.5237
-98.2658 16.7180 0.0513 24.5237
-98.3079 16.7377 0.0138 24.5237
-98.3501 16.7574 0.1000 24.5237
-98.3923 16.7772 0.0060 24.5237
-98.4345 16.7969 0.1924 24.5237
-98.4767 16.8166 0.3953 24.5237
-97.7894 16.5254 0.0184 25.2211
-97.8315 16.5452 0.0916 25.2211
-97.8737 16.5649 0.0288 25.2211
-97.9159 16.5846 0.0452 25.2211
-97.9581 16.6043 0.0043 25.2211
-98.0003 16.6241 0.0019 25.2211
-98.0424 16.6438 0.1026 25.2211
-98.0846 16.6635 0.0460 25.2211
-98.1268 16.6832 0.0418 25.2211
-98.1690 16.7030 0.0991 25.2211
-98.2111 16.7227 0.1219 25.2211
-98.2533 16.7424 0.0592 25.2211
-98.2955 16.7621 0.0130 25.2211
-98.3377 16.7819 0.0154 25.2211
-98.3799 16.8016 0.0837 25.2211
-98.4220 16.8213 0.0966 25.2211
-98.4642 16.8410 0.1858 25.2211
