165.7865 -12.0122 0.7271 6.6000
165.6927 -11.9402 0.4241 6.6000
165.5988 -11.8682 0.2712 6.6000
165.5050 -11.7961 0.2598 6.6000
165.4112 -11.7241 0.0548 6.6000
165.3173 -11.6521 0.1535 6.6000
165.2235 -11.5801 0.4124 6.6000
165.1297 -11.5080 0.5792 6.6000
165.0358 -11.4360 0.6830 6.6000
164.9420 -11.3640 0.8024 6.6000
164.8482 -11.2920 0.5353 6.6000
164.7543 -11.2199 0.0008 6.6000
164.6605 -11.1479 0.0576 6.6000
164.5667 -11.0759 0.3220 6.6000
164.4728 -11.0038 0.0315 6.6000
164.3790 -10.9318 0.7724 6.6000
164.2852 -10.8598 0.8900 6.6000
164.1913 -10.7878 1.0909 6.6000
164.0975 -10.7157 0.4071 6.6000
164.0037 -10.6437 0.4785 6.6000
165.8455 -11.9380 0.8935 9.9992
165.7517 -11.8660 0.7798 9.9992
165.6578 -11.7940 0.1213 9.9992
165.5640 -11.7220 0.5401 9.9992
165.4702 -11.6499 0.5900 9.9992
165.3763 -11.5779 0.5040 9.9992
165.2825 -11.5059 0.7806 9.9992
165.1887 -11.4338 0.6826 9.9992
165.0948 -11.3618 0.5282 9.9992
165.0010 -11.2898 0.8778 9.9992
164.9072 -11.2178 0.5937 9.9992
164.8133 -11.1457 0.2194 9.9992
164.7195 -11.0737 1.0328 9.9992
164.6257 -11.0017 0.8259 9.9992
164.5318 -10.9297 0.0350 9.9992
164.4380 -10.8576 0.4482 9.9992
164.3442 -10.7856 0.4575 9.9992
164.2503 -10.7136 0.7683 9.9992
164.1565 -10.6416 0.8624 9.9992
164.0627 -10.5695 0.8556 9.9992
165.9045 -11.8638 0.8205 13.3984
165.8106 -11.7918 0.4901 13.3984
165.7168 -11.7198 0.1424 13.3984
165.6230 -11.6478 0.0708 13.3984
165.5291 -11.5757 0.0661 13.3984
165.4353 -11.5037 0.5616 13.3984
165.3415 -11.4317 0.6517 13.3984
165.2477 -11.3597 0.5417 13.3984
165.1538 -11.2876 0.0722 13.3984
165.0600 -11.2156 0.3602 13.3984
164.9662 -11.1436 0.9756 13.3984
164.8723 -11.0716 1.3575 13.3984
164.7785 -10.9995 1.4879 13.3984
164.6847 -10.9275 1.4685 13.3984
164.5908 -10.8555 0.4909 13.3984
164.4970 -10.7834 0.1748 13.3984
164.4032 -10.7114 0.1154 13.3984
164.3093 -10.6394 0.0265 13.3984
164.2155 -10.5674 0.3876 13.3984
164.1217 -10.4953 0.2869 13.3984
165.9635 -11.7897 0.5116 16.7976
165.8696 -11.7176 0.2067 16.7976
165.7758 -11.6456 0.1506 16.7976
165.6820 -11.5736 0.2464 16.7976
165.5881 -11.5015 0.0227 16.7976
165.4943 -11.4295 1.2755 16.7976
165.4005 -11.3575 1.2169 16.7976
165.3066 -11.2855 0.5171 16.7976
165.2128 -11.2134 0.0694 16.7976
165.1190 -11.1414 0.9931 16.7976
165.0251 -11.0694 1.8001 16.7976
164.9313 -10.9974 1.8841 16.7976
164.8375 -10.9253 1.9425 16.7976
164.7436 -10.8533 1.6312 16.7976
164.6498 -10.7813 0.6992 16.7976
164.5560 -10.7093 0.1443 16.7976
164.4622 -10.6372 0.2767 16.7976
164.3683 -10.5652 0.2303 16.7976
164.2745 -10.4932 0.0942 16.7976
164.1807 -10.4211 0.0543 16.7976
166.0225 -11.7155 0.2683 20.1967
165.9286 -11.6434 0.0679 20.1967
165.8348 -11.5714 0.6019 20.1967
165.7410 -11.4994 0.5346 20.1967
165.6471 -11.4274 0.0275 20.1967
165.5533 -11.3553 1.0001 20.1967
165.4595 -11.2833 0.5109 20.1967
165.3656 -11.2113 0.0308 20.1967
165.2718 -11.1393 0.7595 20.1967
165.1780 -11.0672 1.2311 20.1967
165.0841 -10.9952 1.8739 20.1967
164.9903 -10.9232 1.8402 20.1967
164.8965 -10.8511 1.5778 20.1967
164.8026 -10.7791 1.2385 20.1967
164.7088 -10.7071 0.7060 20.1967
164.6150 -10.6351 0.0277 20.1967
164.5211 -10.5630 0.0077 20.1967
164.4273 -10.4910 0.0053 20.1967
164.3335 -10.4190 0.1559 20.1967
164.2396 -10.3470 0.0996 20.1967
166.0815 -11.6413 0.1209 23.5959
165.9876 -11.5692 0.0769 23.5959
165.8938 -11.4972 0.1607 23.5959
165.8000 -11.4252 0.0478 23.5959
165.7061 -11.3532 0.5678 23.5959
165.6123 -11.2811 1.2038 23.5959
165.5185 -11.2091 0.5409 23.5959
165.4246 -11.1371 0.1136 23.5959
165.3308 -11.0651 0.9730 23.5959
165.2370 -10.9930 1.2416 23.5959
165.1431 -10.9210 2.4756 23.5959
165.0493 -10.8490 3.1382 23.5959
164.9555 -10.7770 2.5670 23.5959
164.8616 -10.7049 1.8815 23.5959
164.7678 -10.6329 1.1025 23.5959
164.6740 -10.5609 0.2572 23.5959
164.5801 -10.4889 0.0383 23.5959
164.4863 -10.4168 0.4674 23.5959
164.3925 -10.3448 0.2612 23.5959
164.2986 -10.2728 0.0780 23.5959
166.1405 -11.5671 0.1557 26.9951
166.0466 -11.4951 0.1826 26.9951
165.9528 -11.4230 0.0584 26.9951
165.8590 -11.3510 0.0077 26.9951
165.7651 -11.2790 0.6006 26.9951
165.6713 -11.2070 0.7117 26.9951
165.5775 -11.1349 0.2053 26.9951
165.4836 -11.0629 0.3646 26.9951
165.3898 -10.9909 1.0858 26.9951
165.2960 -10.9188 1.9867 26.9951
165.2021 -10.8468 3.1122 26.9951
165.1083 -10.7748 4.7921 26.9951
165.0145 -10.7028 3.6189 26.9951
164.9206 -10.6307 2.3739 26.9951
164.8268 -10.5587 1.2567 26.9951
164.7330 -10.4867 1.1910 26.9951
164.6391 -10.4147 0.9541 26.9951
164.5453 -10.3426 0.5653 26.9951
164.4515 -10.2706 0.5539 26.9951
164.3576 -10.1986 0.5047 26.9951
166.1995 -11.4929 0.0236 30.3943
166.1056 -11.4209 0.1969 30.3943
166.0118 -11.3488 0.3272 30.3943
165.9180 -11.2768 1.0690 30.3943
165.8241 -11.2048 0.5869 30.3943
165.7303 -11.1328 0.3623 30.3943
165.6365 -11.0607 0.5382 30.3943
165.5426 -10.9887 0.5244 30.3943
165.4488 -10.9167 1.2578 30.3943
165.3550 -10.8447 1.8732 30.3943
165.2611 -10.7726 2.0436 30.3943
165.1673 -10.7006 2.2141 30.3943
165.0735 -10.6286 1.4043 30.3943
164.9796 -10.5566 0.9413 30.3943
164.8858 -10.4845 0.3628 30.3943
164.7920 -10.4125 1.2676 30.3943
164.6981 -10.3405 1.3917 30.3943
164.6043 -10.2684 0.6478 30.3943
164.5105 -10.1964 0.3292 30.3943
164.4166 -10.1244 0.0951 30.3943
166.2585 -11.4187 0.2624 33.7935
166.1646 -11.3467 0.4683 33.7935
166.0708 -11.2747 0.6746 33.7935
165.9770 -11.2026 1.1234 33.7935
165.8831 -11.1306 0.8728 33.7935
165.7893 -11.0586 0.6091 33.7935
165.6955 -10.9865 0.1527 33.7935
165.6016 -10.9145 0.7498 33.7935
165.5078 -10.8425 1.4446 33.7935
165.4140 -10.7705 0.5753 33.7935
165.3201 -10.6984 0.4281 33.7935
165.2263 -10.6264 0.9649 33.7935
165.1325 -10.5544 0.7245 33.7935
165.0386 -10.4824 0.2900 33.7935
164.9448 -10.4103 0.0591 33.7935
164.8510 -10.3383 0.6358 33.7935
164.7571 -10.2663 0.6349 33.7935
164.6633 -10.1943 0.4179 33.7935
164.5695 -10.1222 0.0651 33.7935
164.4756 -10.0502 0.5563 33.7935
166.3175 -11.3445 0.0089 37.1927
166.2236 -11.2725 0.1663 37.1927
166.1298 -11.2005 0.4556 37.1927
166.0360 -11.1284 0.4135 37.1927
165.9421 -11.0564 0.3333 37.1927
165.8483 -10.9844 0.3589 37.1927
165.7545 -10.9124 0.2020 37.1927
165.6606 -10.8403 0.4258 37.1927
165.5668 -10.7683 0.6189 37.1927
165.4730 -10.6963 0.3656 37.1927
165.3791 -10.6243 0.0775 37.1927
165.2853 -10.5522 0.0171 37.1927
165.1915 -10.4802 0.6282 37.1927
165.0976 -10.4082 0.6266 37.1927
165.0038 -10.3361 0.2190 37.1927
164.9100 -10.2641 0.0331 37.1927
164.8161 -10.1921 0.4686 37.1927
164.7223 -10.1201 0.6686 37.1927
164.6285 -10.0480 0.4717 37.1927
164.5346 -9.9760 0.3704 37.1927
166.3764 -11.2703 0.7005 40.5919
166.2826 -11.1983 0.2400 40.5919
166.1888 -11.1263 0.2924 40.5919
166.0949 -11.0543 0.1835 40.5919
166.0011 -10.9822 0.3492 40.5919
165.9073 -10.9102 0.5631 40.5919
165.8134 -10.8382 0.3754 40.5919
165.7196 -10.7661 0.1304 40.5919
165.6258 -10.6941 0.6077 40.5919
165.5320 -10.6221 0.3255 40.5919
165.4381 -10.5501 0.1513 40.5919
165.3443 -10.4780 0.5026 40.5919
165.2505 -10.4060 0.5221 40.5919
165.1566 -10.3340 0.4611 40.5919
165.0628 -10.2620 0.2118 40.5919
164.9690 -10.1899 0.0255 40.5919
164.8751 -10.1179 0.6850 40.5919
164.7813 -10.0459 0.4679 40.5919
164.6875 -9.9739 0.9778 40.5919
164.5936 -9.9018 0.0953 40.5919
166.4354 -11.1961 0.0618 43.9911
166.3416 -11.1241 0.2272 43.9911
166.2478 -11.0521 0.4948 43.9911
166.1539 -10.9801 0.6750 43.9911
166.0601 -10.9080 0.6839 43.9911
165.9663 -10.8360 0.3662 43.9911
165.8724 -10.7640 0.0794 43.9911
165.7786 -10.6920 0.0296 43.9911
165.6848 -10.6199 0.4794 43.9911
165.5909 -10.5479 0.5814 43.9911
165.4971 -10.4759 0.2449 43.9911
165.4033 -10.4038 0.4763 43.9911
165.3094 -10.3318 0.5232 43.9911
165.2156 -10.2598 0.6222 43.9911
165.1218 -10.1878 0.6145 43.9911
165.0279 -10.1157 0.2990 43.9911
164.9341 -10.0437 0.9250 43.9911
164.8403 -9.9717 0.4037 43.9911
164.7465 -9.8997 0.6059 43.9911
164.6526 -9.8276 0.4341 43.9911
166.4944 -11.1220 0.0446 47.3902
166.4006 -11.0499 0.1257 47.3902
166.3068 -10.9779 0.8227 47.3902
166.2129 -10.9059 0.7643 47.3902
166.1191 -10.8338 0.4219 47.3902
166.0253 -10.7618 0.1415 47.3902
165.9314 -10.6898 0.0103 47.3902
165.8376 -10.6178 0.1495 47.3902
165.7438 -10.5457 0.0380 47.3902
165.6499 -10.4737 0.3041 47.3902
165.5561 -10.4017 0.0475 47.3902
165.4623 -10.3297 0.0133 47.3902
165.3684 -10.2576 0.0846 47.3902
165.2746 -10.1856 0.0148 47.3902
165.1808 -10.1136 0.0371 47.3902
165.0869 -10.0416 0.7122 47.3902
164.9931 -9.9695 0.9078 47.3902
164.8993 -9.8975 0.5575 47.3902
164.8054 -9.8255 0.2527 47.3902
164.7116 -9.7534 0.3190 47.3902
