143.7581 38.8677 0.0022 6.1120
143.7348 38.7888 0.0084 6.1120
143.7116 38.7099 0.0107 6.1120
143.6883 38.6310 0.0681 6.1120
143.6650 38.5520 0.0748 6.1120
143.6418 38.4731 0.0570 6.1120
143.6185 38.3942 0.0398 6.1120
143.5953 38.3153 0.0203 6.1120
143.5720 38.2364 0.0092 6.1120
143.5487 38.1575 0.0052 6.1120
143.5255 38.0785 0.0018 6.1120
143.5022 37.9996 0.0042 6.1120
143.4789 37.9207 0.0059 6.1120
143.4557 37.8418 0.0338 6.1120
143.6597 38.8855 0.0044 8.0600
143.6365 38.8066 0.0457 8.0600
143.6132 38.7277 0.2504 8.0600
143.5899 38.6488 0.1923 8.0600
143.5667 38.5698 0.2251 8.0600
143.5434 38.4909 0.1282 8.0600
143.5201 38.4120 0.0205 8.0600
143.4969 38.3331 0.0189 8.0600
143.4736 38.2542 0.0053 8.0600
143.4503 38.1752 0.2090 8.0600
143.4271 38.0963 0.1872 8.0600
143.4038 38.0174 0.1549 8.0600
143.3806 37.9385 0.0045 8.0600
143.3573 37.8596 0.0320 8.0600
143.5613 38.9033 0.0226 10.0079
143.5381 38.8244 0.0352 10.0079
143.5148 38.7455 0.0049 10.0079
143.4916 38.6665 0.0073 10.0079
143.4683 38.5876 0.0392 10.0079
143.4450 38.5087 0.0006 10.0079
143.4218 38.4298 0.0001 10.0079
143.3985 38.3509 0.0001 10.0079
143.3752 38.2719 0.0006 10.0079
143.3520 38.1930 0.0020 10.0079
143.3287 38.1141 0.0114 10.0079
143.3054 38.0352 0.0746 10.0079
143.2822 37.9563 0.1102 10.0079
143.2589 37.8774 0.0001 10.0079
143.4630 38.9211 0.0810 11.9559
143.4397 38.8422 0.0838 11.9559
143.4164 38.7632 0.0097 11.9559
143.3932 38.6843 0.0082 11.9559
143.3699 38.6054 0.0043 11.9559
143.3466 38.5265 0.0182 11.9559
143.3234 38.4476 0.0882 11.9559
143.3001 38.3687 0.0305 11.9559
143.2769 38.2897 0.0021 11.9559
143.2536 38.2108 0.0046 11.9559
143.2303 38.1319 0.0044 11.9559
143.2071 38.0530 0.0011 11.9559
143.1838 37.9741 0.0676 11.9559
143.1605 37.8951 0.0929 11.9559
143.3646 38.9389 0.0909 13.9038
143.3413 38.8599 0.0610 13.9038
143.3181 38.7810 0.0018 13.9038
143.2948 38.7021 0.0003 13.9038
143.2715 38.6232 0.2556 13.9038
143.2483 38.5443 0.4528 13.9038
143.2250 38.4654 0.4839 13.9038
143.2017 38.3864 0.2769 13.9038
143.1785 38.3075 0.2499 13.9038
143.1552 38.2286 0.2821 13.9038
143.1319 38.1497 0.0068 13.9038
143.1087 38.0708 0.0019 13.9038
143.0854 37.9919 0.0032 13.9038
143.0622 37.9129 0.0341 13.9038
143.2662 38.9567 0.0871 15.8518
143.2429 38.8777 0.0019 15.8518
143.2197 38.7988 0.0031 15.8518
143.1964 38.7199 0.1063 15.8518
143.1731 38.6410 0.6060 15.8518
143.1499 38.5621 0.8659 15.8518
143.1266 38.4831 0.6681 15.8518
143.1034 38.4042 0.4357 15.8518
143.0801 38.3253 0.4254 15.8518
143.0568 38.2464 0.4943 15.8518
143.0336 38.1675 0.3094 15.8518
143.0103 38.0886 0.0011 15.8518
142.9870 38.0096 0.0029 15.8518
142.9638 37.9307 0.0190 15.8518
143.1678 38.9744 0.0713 17.7998
143.1446 38.8955 0.0008 17.7998
143.1213 38.8166 0.0563 17.7998
143.0980 38.7377 0.5236 17.7998
143.0748 38.6588 0.9856 17.7998
143.0515 38.5799 1.0436 17.7998
143.0282 38.5009 0.8317 17.7998
143.0050 38.4220 0.6551 17.7998
142.9817 38.3431 0.6781 17.7998
142.9585 38.2642 0.6430 17.7998
142.9352 38.1853 0.3386 17.7998
142.9119 38.1063 0.1486 17.7998
142.8887 38.0274 0.0007 17.7998
142.8654 37.9485 0.0004 17.7998
143.0694 38.9922 0.0894 19.7477
143.0462 38.9133 0.0023 19.7477
143.0229 38.8344 0.2479 19.7477
142.9997 38.7555 0.8277 19.7477
142.9764 38.6766 1.3463 19.7477
142.9531 38.5976 1.2307 19.7477
142.9299 38.5187 0.8525 19.7477
142.9066 38.4398 0.6545 19.7477
142.8833 38.3609 0.7427 19.7477
142.8601 38.2820 0.7558 19.7477
142.8368 38.2031 0.5428 19.7477
142.8135 38.1241 0.3629 19.7477
142.7903 38.0452 0.0108 19.7477
142.7670 37.9663 0.0009 19.7477
142.9711 39.0100 0.0857 21.6957
142.9478 38.9311 0.0046 21.6957
142.9245 38.8522 0.1353 21.6957
142.9013 38.7733 0.7119 21.6957
142.8780 38.6943 1.2728 21.6957
142.8547 38.6154 1.1825 21.6957
142.8315 38.5365 0.7985 21.6957
142.8082 38.4576 0.6536 21.6957
142.7850 38.3787 0.6857 21.6957
142.7617 38.2998 0.7170 21.6957
142.7384 38.2208 0.5968 21.6957
142.7152 38.1419 0.3991 21.6957
142.6919 38.0630 0.2371 21.6957
142.6686 37.9841 0.0010 21.6957
142.8727 39.0278 0.0015 23.6436
142.8494 38.9489 0.0038 23.6436
142.8262 38.8700 0.0030 23.6436
142.8029 38.7911 0.1721 23.6436
142.7796 38.7121 0.5532 23.6436
142.7564 38.6332 0.5648 23.6436
142.7331 38.5543 0.3601 23.6436
142.7098 38.4754 0.2872 23.6436
142.6866 38.3965 0.2812 23.6436
142.6633 38.3175 0.3729 23.6436
142.6400 38.2386 0.2383 23.6436
142.6168 38.1597 0.0187 23.6436
142.5935 38.0808 0.0006 23.6436
142.5703 38.0019 0.0032 23.6436
142.7743 39.0456 0.0086 25.5916
142.7510 38.9667 0.0123 25.5916
142.7278 38.8878 0.0006 25.5916
142.7045 38.8088 0.0000 25.5916
142.6813 38.7299 0.0614 25.5916
142.6580 38.6510 0.1366 25.5916
142.6347 38.5721 0.1765 25.5916
142.6115 38.4932 0.1527 25.5916
142.5882 38.4143 0.1902 25.5916
142.5649 38.3353 0.2803 25.5916
142.5417 38.2564 0.0110 25.5916
142.5184 38.1775 0.0011 25.5916
142.4951 38.0986 0.0001 25.5916
142.4719 38.0197 0.0139 25.5916
142.6759 39.0634 0.0696 27.5395
142.6527 38.9845 0.1287 27.5395
142.6294 38.9055 0.0966 27.5395
142.6061 38.8266 0.0025 27.5395
142.5829 38.7477 0.0010 27.5395
142.5596 38.6688 0.0020 27.5395
142.5363 38.5899 0.0939 27.5395
142.5131 38.5110 0.1131 27.5395
142.4898 38.4320 0.1684 27.5395
142.4666 38.3531 0.1048 27.5395
142.4433 38.2742 0.0003 27.5395
142.4200 38.1953 0.0076 27.5395
142.3968 38.1164 0.2079 27.5395
142.3735 38.0375 0.0973 27.5395
142.5776 39.0812 0.0982 29.4875
142.5543 39.0023 0.1943 29.4875
142.5310 38.9233 0.2434 29.4875
142.5078 38.8444 0.0553 29.4875
142.4845 38.7655 0.0020 29.4875
142.4612 38.6866 0.0007 29.4875
142.4380 38.6077 0.0175 29.4875
142.4147 38.5287 0.0364 29.4875
142.3914 38.4498 0.0110 29.4875
142.3682 38.3709 0.0009 29.4875
142.3449 38.2920 0.0008 29.4875
142.3216 38.2131 0.1086 29.4875
142.2984 38.1342 0.1930 29.4875
142.2751 38.0552 0.0549 29.4875
142.4792 39.0990 0.0000 31.4355
142.4559 39.0200 0.0797 31.4355
142.4326 38.9411 0.0928 31.4355
142.4094 38.8622 0.0921 31.4355
142.3861 38.7833 0.0005 31.4355
142.3629 38.7044 0.0006 31.4355
142.3396 38.6255 0.0001 31.4355
142.3163 38.5465 0.0002 31.4355
142.2931 38.4676 0.0002 31.4355
142.2698 38.3887 0.0006 31.4355
142.2465 38.3098 0.0037 31.4355
142.2233 38.2309 0.0791 31.4355
142.2000 38.1519 0.0111 31.4355
142.1767 38.0730 0.0060 31.4355
