-153.9165 59.6679 0.0982 96.3590
-153.8394 59.6904 0.0049 96.3590
-153.7623 59.7128 0.0256 96.3590
-153.6851 59.7353 0.0029 96.3590
-153.6080 59.7578 0.0084 96.3590
-153.5308 59.7803 0.0025 96.3590
-153.4537 59.8028 0.0084 96.3590
-153.3766 59.8253 0.0151 96.3590
-153.2994 59.8478 0.0080 96.3590
-153.2223 59.8703 0.0883 96.3590
-153.9039 59.6568 0.0143 99.5564
-153.8267 59.6793 0.2826 99.5564
-153.7496 59.7018 0.1288 99.5564
-153.6724 59.7243 0.0025 99.5564
-153.5953 59.7468 0.0032 99.5564
-153.5182 59.7692 0.0096 99.5564
-153.4410 59.7917 0.0807 99.5564
-153.3639 59.8142 0.0048 99.5564
-153.2867 59.8367 0.0048 99.5564
-153.2096 59.8592 0.0039 99.5564
-153.8912 59.6457 0.0168 102.7538
-153.8140 59.6682 0.0419 102.7538
-153.7369 59.6907 0.0010 102.7538
-153.6598 59.7132 0.0003 102.7538
-153.5826 59.7357 0.0066 102.7538
-153.5055 59.7582 0.0046 102.7538
-153.4283 59.7807 0.0087 102.7538
-153.3512 59.8032 0.0067 102.7538
-153.2741 59.8256 0.0063 102.7538
-153.1969 59.8481 0.0241 102.7538
-153.8785 59.6346 0.0100 105.9512
-153.8014 59.6571 0.0050 105.9512
-153.7242 59.6796 0.0014 105.9512
-153.6471 59.7021 1.0394 105.9512
-153.5699 59.7246 1.9518 105.9512
-153.4928 59.7471 1.5909 105.9512
-153.4157 59.7696 0.0066 105.9512
-153.3385 59.7921 0.0009 105.9512
-153.2614 59.8146 0.0175 105.9512
-153.1842 59.8371 0.0118 105.9512
-153.8658 59.6235 0.0039 109.1486
-153.7887 59.6460 0.0003 109.1486
-153.7115 59.6685 0.1901 109.1486
-153.6344 59.6910 1.9875 109.1486
-153.5573 59.7135 3.0201 109.1486
-153.4801 59.7360 2.7585 109.1486
-153.4030 59.7585 1.3626 109.1486
-153.3258 59.7810 0.0213 109.1486
-153.2487 59.8035 0.0018 109.1486
-153.1716 59.8260 0.0053 109.1486
-153.8531 59.6124 0.0051 112.3460
-153.7760 59.6349 0.0534 112.3460
-153.6989 59.6574 0.3812 112.3460
-153.6217 59.6799 1.9325 112.3460
-153.5446 59.7024 2.7846 112.3460
-153.4674 59.7249 2.7306 112.3460
-153.3903 59.7474 1.7076 112.3460
-153.3132 59.7699 0.6177 112.3460
-153.2360 59.7924 0.0056 112.3460
-153.1589 59.8149 0.0007 112.3460
-153.8405 59.6013 0.0012 115.5435
-153.7633 59.6238 0.1140 115.5435
-153.6862 59.6463 0.2194 115.5435
-153.6090 59.6688 1.3809 115.5435
-153.5319 59.6913 2.3233 115.5435
-153.4548 59.7138 2.1029 115.5435
-153.3776 59.7363 1.2510 115.5435
-153.3005 59.7588 0.6767 115.5435
-153.2233 59.7813 0.4962 115.5435
-153.1462 59.8038 0.0071 115.5435
-153.8278 59.5902 0.0440 118.7409
-153.7506 59.6127 0.0712 118.7409
-153.6735 59.6352 0.0375 118.7409
-153.5964 59.6577 1.0771 118.7409
-153.5192 59.6802 1.7199 118.7409
-153.4421 59.7027 1.1727 118.7409
-153.3649 59.7252 0.6637 118.7409
-153.2878 59.7477 0.5676 118.7409
-153.2107 59.7702 0.5531 118.7409
-153.1335 59.7927 0.0235 118.7409
-153.8151 59.5791 0.0016 121.9383
-153.7380 59.6016 0.0172 121.9383
-153.6608 59.6241 0.0184 121.9383
-153.5837 59.6466 1.3407 121.9383
-153.5065 59.6691 2.2807 121.9383
-153.4294 59.6916 1.0924 121.9383
-153.3523 59.7141 0.0384 121.9383
-153.2751 59.7366 0.2032 121.9383
-153.1980 59.7591 0.5167 121.9383
-153.1208 59.7816 0.0622 121.9383
-153.8024 59.5680 0.0002 125.1357
-153.7253 59.5905 0.0022 125.1357
-153.6481 59.6130 0.0225 125.1357
-153.5710 59.6355 1.3515 125.1357
-153.4939 59.6580 2.6219 125.1357
-153.4167 59.6805 1.1754 125.1357
-153.3396 59.7030 0.0170 125.1357
-153.2624 59.7255 0.0052 125.1357
-153.1853 59.7480 0.1357 125.1357
-153.1082 59.7705 0.0003 125.1357
-153.7897 59.5569 0.0140 128.3331
-153.7126 59.5794 0.0016 128.3331
-153.6355 59.6019 0.0050 128.3331
-153.5583 59.6244 0.4533 128.3331
-153.4812 59.6469 0.9668 128.3331
-153.4040 59.6694 0.3892 128.3331
-153.3269 59.6919 0.0015 128.3331
-153.2498 59.7144 0.0079 128.3331
-153.1726 59.7369 0.0024 128.3331
-153.0955 59.7594 0.0014 128.3331
-153.7771 59.5458 0.0069 131.5305
-153.6999 59.5683 0.0006 131.5305
-153.6228 59.5908 0.0009 131.5305
-153.5456 59.6133 0.0645 131.5305
-153.4685 59.6358 0.0061 131.5305
-153.3914 59.6583 0.0005 131.5305
-153.3142 59.6808 0.0066 131.5305
-153.2371 59.7033 0.0010 131.5305
-153.1599 59.7258 0.0001 131.5305
-153.0828 59.7483 0.0004 131.5305
-153.7644 59.5347 0.0091 134.7279
-153.6872 59.5572 0.0009 134.7279
-153.6101 59.5797 0.0003 134.7279
-153.5330 59.6022 0.0019 134.7279
-153.4558 59.6247 0.0067 134.7279
-153.3787 59.6472 0.0021 134.7279
-153.3015 59.6697 0.0009 134.7279
-153.2244 59.6922 0.0130 134.7279
-153.1473 59.7147 0.0036 134.7279
-153.0701 59.7372 0.0355 134.7279
-153.7517 59.5236 0.0045 137.9253
-153.6746 59.5461 0.0022 137.9253
-153.5974 59.5686 0.0022 137.9253
-153.5203 59.5911 0.0000 137.9253
-153.4431 59.6136 0.0036 137.9253
-153.3660 59.6361 0.0021 137.9253
-153.2889 59.6586 0.0004 137.9253
-153.2117 59.6811 0.0192 137.9253
-153.1346 59.7036 0.0023 137.9253
-153.0574 59.7261 0.0108 137.9253
-153.7390 59.5125 0.0031 141.1227
-153.6619 59.5350 0.0023 141.1227
-153.5847 59.5575 0.0001 141.1227
-153.5076 59.5800 0.0053 141.1227
-153.4305 59.6025 0.0039 141.1227
-153.3533 59.6250 0.0010 141.1227
-153.2762 59.6475 0.0002 141.1227
-153.1990 59.6700 0.0047 141.1227
-153.1219 59.6925 0.0084 141.1227
-153.0447 59.7150 0.0269 141.1227
