144.5413 39.1832 7.7782 1.3716
144.4555 39.0164 12.0684 1.3716
144.3698 38.8495 10.9287 1.3716
144.2841 38.6826 10.3613 1.3716
144.1983 38.5157 19.9166 1.3716
144.1126 38.3488 38.3030 1.3716
144.0269 38.1820 55.3377 1.3716
143.9411 38.0151 62.8137 1.3716
143.8554 37.8482 61.7762 1.3716
143.7697 37.6813 58.3226 1.3716
143.6839 37.5144 50.5591 1.3716
143.5982 37.3476 35.1628 1.3716
143.5125 37.1807 24.8767 1.3716
143.4267 37.0138 27.4796 1.3716
143.3410 36.8469 32.1520 1.3716
143.2553 36.6800 40.4073 1.3716
143.1695 36.5132 42.7621 1.3716
143.0838 36.3463 35.9860 1.3716
142.9980 36.1794 22.2084 1.3716
144.3323 39.2496 4.5724 4.8446
144.2466 39.0828 6.2596 4.8446
144.1608 38.9159 5.4923 4.8446
144.0751 38.7490 7.1407 4.8446
143.9894 38.5821 17.4486 4.8446
143.9036 38.4152 32.7354 4.8446
143.8179 38.2484 40.8200 4.8446
143.7321 38.0815 39.9353 4.8446
143.6464 37.9146 36.3078 4.8446
143.5607 37.7477 35.6165 4.8446
143.4749 37.5808 35.2488 4.8446
143.3892 37.4140 29.4882 4.8446
143.3035 37.2471 20.4246 4.8446
143.2177 37.0802 17.1077 4.8446
143.1320 36.9133 20.5007 4.8446
143.0463 36.7464 25.9166 4.8446
142.9605 36.5796 28.0755 4.8446
142.8748 36.4127 24.0424 4.8446
142.7891 36.2458 14.3597 4.8446
144.1233 39.3160 2.8784 8.3175
144.0376 39.1492 2.7830 8.3175
143.9518 38.9823 1.8335 8.3175
143.8661 38.8154 6.3071 8.3175
143.7804 38.6485 23.0046 8.3175
143.6946 38.4816 39.9399 8.3175
143.6089 38.3148 40.3396 8.3175
143.5232 38.1479 30.0245 8.3175
143.4374 37.9810 23.6836 8.3175
143.3517 37.8141 24.4092 8.3175
143.2660 37.6472 32.3443 8.3175
143.1802 37.4804 33.0753 8.3175
143.0945 37.3135 23.7974 8.3175
143.0088 37.1466 14.5923 8.3175
142.9230 36.9797 15.8127 8.3175
142.8373 36.8128 21.6880 8.3175
142.7516 36.6460 25.2737 8.3175
142.6658 36.4791 22.9118 8.3175
142.5801 36.3122 14.3438 8.3175
143.9143 39.3824 1.2728 11.7905
143.8286 39.2156 1.1732 11.7905
143.7429 39.0487 1.1196 11.7905
143.6571 38.8818 6.0595 11.7905
143.5714 38.7149 19.3444 11.7905
143.4857 38.5480 29.0004 11.7905
143.3999 38.3812 25.7022 11.7905
143.3142 38.2143 18.6060 11.7905
143.2285 38.0474 15.3821 11.7905
143.1427 37.8805 14.0298 11.7905
143.0570 37.7136 18.6479 11.7905
142.9713 37.5468 22.1928 11.7905
142.8855 37.3799 17.6936 11.7905
142.7998 37.2130 9.5363 11.7905
142.7141 37.0461 7.6726 11.7905
142.6283 36.8792 10.8458 11.7905
142.5426 36.7124 13.3924 11.7905
142.4569 36.5455 13.0256 11.7905
142.3711 36.3786 8.6584 11.7905
143.7054 39.4488 0.8626 15.2635
143.6196 39.2820 0.7792 15.2635
143.5339 39.1151 0.6240 15.2635
143.4482 38.9482 6.8540 15.2635
143.3624 38.7813 19.3350 15.2635
143.2767 38.6144 27.9647 15.2635
143.1910 38.4476 27.4185 15.2635
143.1052 38.2807 22.5472 15.2635
143.0195 38.1138 22.1421 15.2635
142.9338 37.9469 18.2001 15.2635
142.8480 37.7800 19.0180 15.2635
142.7623 37.6132 19.9627 15.2635
142.6766 37.4463 16.3372 15.2635
142.5908 37.2794 8.2239 15.2635
142.5051 37.1125 3.7203 15.2635
142.4193 36.9456 5.2997 15.2635
142.3336 36.7788 7.7123 15.2635
142.2479 36.6119 9.0943 15.2635
142.1621 36.4450 6.7067 15.2635
143.4964 39.5152 0.6945 18.7364
143.4107 39.3484 1.0085 18.7364
143.3249 39.1815 1.3778 18.7364
143.2392 39.0146 7.9976 18.7364
143.1534 38.8477 18.4641 18.7364
143.0677 38.6808 26.2813 18.7364
142.9820 38.5140 27.8902 18.7364
142.8962 38.3471 24.9942 18.7364
142.8105 38.1802 23.4246 18.7364
142.7248 38.0133 19.4457 18.7364
142.6390 37.8464 19.8640 18.7364
142.5533 37.6796 18.6954 18.7364
142.4676 37.5127 15.0176 18.7364
142.3818 37.3458 8.3503 18.7364
142.2961 37.1789 2.1877 18.7364
142.2104 37.0120 2.1732 18.7364
142.1246 36.8452 4.6601 18.7364
142.0389 36.6783 7.3420 18.7364
141.9532 36.5114 5.7011 18.7364
143.2874 39.5816 0.4480 22.2094
143.2017 39.4148 0.8719 22.2094
143.1159 39.2479 2.7920 22.2094
143.0302 39.0810 9.6591 22.2094
142.9445 38.9141 18.6522 22.2094
142.8587 38.7472 24.7942 22.2094
142.7730 38.5804 25.2884 22.2094
142.6873 38.4135 25.5956 22.2094
142.6015 38.2466 24.7476 22.2094
142.5158 38.0797 20.4391 22.2094
142.4301 37.9128 18.6428 22.2094
142.3443 37.7460 18.1303 22.2094
142.2586 37.5791 14.8479 22.2094
142.1729 37.4122 9.0554 22.2094
142.0871 37.2453 3.1293 22.2094
142.0014 37.0784 0.9657 22.2094
141.9157 36.9116 3.1981 22.2094
141.8299 36.7447 6.4933 22.2094
141.7442 36.5778 5.5238 22.2094
143.0784 39.6480 0.7987 25.6824
142.9927 39.4812 0.8996 25.6824
142.9070 39.3143 4.3646 25.6824
142.8212 39.1474 11.9897 25.6824
142.7355 38.9805 21.5687 25.6824
142.6498 38.8136 26.5221 25.6824
142.5640 38.6468 25.3589 25.6824
142.4783 38.4799 21.3500 25.6824
142.3926 38.3130 18.4758 25.6824
142.3068 38.1461 17.5445 25.6824
142.2211 37.9792 19.4105 25.6824
142.1354 37.8124 20.4478 25.6824
142.0496 37.6455 18.3726 25.6824
141.9639 37.4786 11.9649 25.6824
141.8782 37.3117 5.3547 25.6824
141.7924 37.1448 1.9425 25.6824
141.7067 36.9780 3.4309 25.6824
141.6210 36.8111 6.5715 25.6824
141.5352 36.6442 6.2276 25.6824
142.8695 39.7144 1.2283 29.1553
142.7837 39.5476 0.9066 29.1553
142.6980 39.3807 2.9725 29.1553
142.6123 39.2138 7.9029 29.1553
142.5265 39.0469 14.2753 29.1553
142.4408 38.8800 18.5722 29.1553
142.3551 38.7132 18.5845 29.1553
142.2693 38.5463 16.2301 29.1553
142.1836 38.3794 14.2548 29.1553
142.0979 38.2125 14.0712 29.1553
142.0121 38.0456 15.5014 29.1553
141.9264 37.8788 16.1480 29.1553
141.8406 37.7119 14.2397 29.1553
141.7549 37.5450 9.6503 29.1553
141.6692 37.3781 5.2775 29.1553
141.5834 37.2112 2.5293 29.1553
141.4977 37.0444 2.1966 29.1553
141.4120 36.8775 3.1670 29.1553
141.3262 36.7106 3.5958 29.1553
142.6605 39.7808 1.9093 32.6283
142.5747 39.6140 1.0867 32.6283
142.4890 39.4471 1.7450 32.6283
142.4033 39.2802 4.8981 32.6283
142.3175 39.1133 9.2336 32.6283
142.2318 38.9464 12.8472 32.6283
142.1461 38.7796 14.4567 32.6283
142.0603 38.6127 14.0027 32.6283
141.9746 38.4458 13.1143 32.6283
141.8889 38.2789 12.7785 32.6283
141.8031 38.1120 12.9952 32.6283
141.7174 37.9452 12.5587 32.6283
141.6317 37.7783 10.2860 32.6283
141.5459 37.6114 7.1225 32.6283
141.4602 37.4445 3.9791 32.6283
141.3745 37.2776 1.7251 32.6283
141.2887 37.1108 1.2346 32.6283
141.2030 36.9439 1.8072 32.6283
141.1173 36.7770 3.3730 32.6283
