-72.9157 -38.9021 0.9000 58.3390
-73.1756 -38.8481 1.3000 48.9740
-73.4368 -38.7908 1.4000 40.2190
-73.6967 -38.7369 1.7000 31.4640
-73.9700 -38.6791 1.8000 24.5740
-74.2299 -38.6211 1.2000 17.6830
-74.5131 -38.5623 0.8000 13.3410
-74.7830 -38.5033 0.5000 9.0000
-72.8360 -38.6884 1.1000 58.3390
-73.0959 -38.6334 1.6000 48.9740
-73.3571 -38.5780 2.3000 40.2190
-73.6170 -38.5220 3.0000 31.4640
-73.8802 -38.4641 3.3000 24.5740
-74.1501 -38.4071 1.8000 17.6830
-74.4232 -38.3472 0.9000 13.3410
-74.6931 -38.2892 1.1000 9.0000
-72.7632 -38.4712 1.0000 58.3390
-73.0231 -38.4162 1.3000 48.9740
-73.2843 -38.3610 2.1000 40.2190
-73.5342 -38.3050 3.9000 31.4640
-73.8076 -38.2474 4.4000 24.5740
-74.0775 -38.1904 2.1000 17.6830
-74.3507 -38.1309 0.8000 13.3410
-74.6205 -38.0729 0.6000 9.0000
-72.7333 -38.2495 0.8000 58.3390
-72.9932 -38.1935 1.1000 48.9740
-73.2444 -38.1384 1.8000 40.2190
-73.5043 -38.0824 5.3000 31.4640
-73.7777 -38.0252 7.0000 24.5740
-74.0376 -37.9682 5.5000 17.6830
-74.3109 -37.9099 2.4000 13.3410
-74.5807 -37.8509 0.7000 9.0000
-72.7099 -38.0255 1.1000 58.3390
-72.9598 -37.9705 0.9000 48.9740
-73.2210 -37.9144 2.3000 40.2190
-73.4809 -37.8584 6.2000 31.4640
-73.7443 -37.8011 8.5000 24.5740
-74.0142 -37.7441 7.8000 17.6830
-74.2874 -37.6859 4.2000 13.3410
-74.5573 -37.6269 1.1000 9.0000
-72.6865 -37.8029 1.1000 58.3390
-72.9364 -37.7479 1.2000 48.9740
-73.1977 -37.6918 2.9000 40.2190
-73.4576 -37.6368 7.8000 31.4640
-73.7209 -37.5783 9.4000 24.5740
-73.9808 -37.5213 7.4000 17.6830
-74.2540 -37.4630 4.6000 13.3410
-74.5239 -37.4040 1.6000 9.0000
-72.6461 -37.5789 1.3000 58.3390
-72.8960 -37.5249 1.1000 48.9740
-73.1573 -37.4677 3.3000 40.2190
-73.4172 -37.4127 8.0000 31.4640
-73.6805 -37.3553 7.9000 24.5740
-73.9404 -37.2983 5.4000 17.6830
-74.2136 -37.2389 2.4000 13.3410
-74.4835 -37.1819 0.9000 9.0000
-72.6147 -37.3568 1.7000 58.3390
-72.8646 -37.3018 2.3000 48.9740
-73.1259 -37.2457 5.1000 40.2190
-73.3858 -37.1907 8.9000 31.4640
-73.6491 -37.1333 8.0000 24.5740
-73.9090 -37.0763 5.0000 17.6830
-74.1822 -37.0169 1.4000 13.3410
-74.4421 -36.9589 0.9000 9.0000
-72.5734 -37.1348 1.6000 58.3390
-72.8233 -37.0798 2.8000 48.9740
-73.0845 -37.0246 5.6000 40.2190
-73.3344 -36.9686 9.4000 31.4640
-73.5977 -36.9112 9.7000 24.5740
-73.8676 -36.8542 7.3000 17.6830
-74.1308 -36.7948 3.4000 13.3410
-74.4007 -36.7368 1.2000 9.0000
-72.5152 -36.9149 1.8000 58.3390
-72.7651 -36.8599 2.8000 48.9740
-73.0263 -36.8046 5.0000 40.2190
-73.2762 -36.7496 7.1000 31.4640
-73.5395 -36.6909 7.5000 24.5740
-73.7994 -36.6349 6.1000 17.6830
-74.0725 -36.5743 3.8000 13.3410
-74.3424 -36.5163 1.6000 9.0000
-72.4549 -36.6988 1.9000 58.3390
-72.7148 -36.6438 2.1000 48.9740
-72.9660 -36.5876 3.5000 40.2190
-73.2159 -36.5316 4.9000 31.4640
-73.4791 -36.4739 4.1000 24.5740
-73.7390 -36.4169 2.6000 17.6830
-74.0121 -36.3582 1.9000 13.3410
-74.2720 -36.2992 1.4000 9.0000
-72.3864 -36.4853 2.2000 58.3390
-72.6363 -36.4303 3.0000 48.9740
-72.8874 -36.3739 4.5000 40.2190
-73.1374 -36.3179 5.3000 31.4640
-73.4005 -36.2600 2.8000 24.5740
-73.6604 -36.2030 1.2000 17.6830
-73.9234 -36.1440 1.6000 13.3410
-74.1933 -36.0850 1.3000 9.0000
-72.2896 -36.2802 2.3000 58.3390
-72.5395 -36.2252 3.5000 48.9740
-72.7906 -36.1687 5.3000 40.2190
-73.0405 -36.1137 7.4000 31.4640
-73.3035 -36.0555 5.0000 24.5740
-73.5634 -35.9975 0.8000 17.6830
-73.8262 -35.9383 1.4000 13.3410
-74.0861 -35.8793 1.9000 9.0000
-72.1652 -36.0791 2.1000 58.3390
-72.4151 -36.0241 2.3000 48.9740
-72.6662 -35.9676 4.9000 40.2190
-72.9161 -35.9126 9.1000 31.4640
-73.1791 -35.8544 7.9000 24.5740
-73.4290 -35.7974 1.2000 17.6830
-73.7018 -35.7372 1.7000 13.3410
-73.9618 -35.6792 2.5000 9.0000
-72.0548 -35.8705 1.4000 58.3390
-72.3048 -35.8155 1.0000 48.9740
-72.5559 -35.7602 3.2000 40.2190
-72.8058 -35.7042 11.0000 31.4640
-73.0690 -35.6463 12.4000 24.5740
-73.3189 -35.5893 3.1000 17.6830
-73.5919 -35.5295 2.9000 13.3410
-73.8518 -35.4715 2.9000 9.0000
-71.9781 -35.6555 2.2000 58.3390
-72.2280 -35.6005 1.3000 48.9740
-72.4792 -35.5452 2.6000 40.2190
-72.7291 -35.4892 12.3000 31.4640
-72.9923 -35.4315 17.2000 24.5740
-73.2422 -35.3745 6.8000 17.6830
-73.5052 -35.3149 3.0000 13.3410
-73.7751 -35.2569 2.5000 9.0000
-71.9177 -35.4384 3.1000 58.3390
-72.1676 -35.3834 3.0000 48.9740
-72.4188 -35.3282 4.6000 40.2190
-72.6687 -35.2712 13.6000 31.4640
-72.9319 -35.2144 18.8000 24.5740
-73.1818 -35.1564 8.6000 17.6830
-73.4449 -35.0988 2.3000 13.3410
-73.7048 -35.0398 1.7000 9.0000
-71.8364 -35.2294 2.4000 58.3390
-72.0763 -35.1744 3.3000 48.9740
-72.3274 -35.1179 6.0000 40.2190
-72.5773 -35.0619 15.0000 31.4640
-72.8303 -35.0038 18.5000 24.5740
-73.0902 -34.9468 9.1000 17.6830
-73.3530 -34.8876 2.5000 13.3410
-73.6129 -34.8286 1.6000 9.0000
-71.7025 -35.0319 2.6000 58.3390
-71.9425 -34.9769 2.8000 48.9740
-72.1935 -34.9203 6.3000 40.2190
-72.4434 -34.8653 14.3000 31.4640
-72.6963 -34.8059 16.4000 24.5740
-72.9562 -34.7489 8.0000 17.6830
-73.2189 -34.6896 2.0000 13.3410
-73.4788 -34.6306 1.3000 9.0000
-71.5632 -34.8368 2.8000 58.3390
-71.8131 -34.7818 2.9000 48.9740
-72.0542 -34.7252 5.5000 40.2190
-72.3041 -34.6702 12.7000 31.4640
-72.5569 -34.6118 14.1000 24.5740
-72.8168 -34.5548 7.4000 17.6830
-73.0795 -34.4945 1.5000 13.3410
-73.3394 -34.4365 1.2000 9.0000
-71.4371 -34.6435 2.8000 58.3390
-71.6871 -34.5885 3.5000 48.9740
-71.9381 -34.5329 6.8000 40.2190
-72.1781 -34.4769 12.2000 31.4640
-72.4309 -34.4186 13.8000 24.5740
-72.6908 -34.3616 7.1000 17.6830
-72.9535 -34.3012 1.7000 13.3410
-73.2034 -34.2432 1.3000 9.0000
-71.3131 -34.4468 2.9000 58.3390
-71.5531 -34.3918 3.5000 48.9740
-71.8041 -34.3363 6.2000 40.2190
-72.0440 -34.2803 10.4000 31.4640
-72.2969 -34.2219 12.1000 24.5740
-72.5568 -34.1649 6.7000 17.6830
-72.8095 -34.1046 1.6000 13.3410
-73.0694 -34.0466 1.5000 9.0000
-71.2188 -34.2384 2.5000 58.3390
-71.4587 -34.1824 2.6000 48.9740
-71.7099 -34.1272 3.8000 40.2190
-71.9498 -34.0712 6.0000 31.4640
-72.2030 -34.0136 6.7000 24.5740
-72.4629 -33.9566 5.3000 17.6830
-72.7159 -33.8980 0.8000 13.3410
-72.9759 -33.8390 0.9000 9.0000
-71.1726 -34.0172 1.9000 58.3390
-71.4226 -33.9622 1.5000 48.9740
-71.6638 -33.9060 1.6000 40.2190
-71.9037 -33.8500 2.1000 31.4640
-72.1669 -33.7927 2.7000 24.5740
-72.4168 -33.7357 3.9000 17.6830
-72.6699 -33.6773 0.8000 13.3410
-72.9298 -33.6183 0.5000 9.0000
-71.1583 -33.7920 1.0000 58.3390
-71.3982 -33.7370 0.9000 48.9740
-71.6394 -33.6809 1.0000 40.2190
-71.8893 -33.6260 1.0000 31.4640
-72.1425 -33.5678 1.2000 24.5740
-72.3925 -33.5108 2.8000 17.6830
-72.6455 -33.4527 0.5000 13.3410
-72.9054 -33.3937 0.3000 9.0000
