131.1740 32.9530 0.0020 -0.8870
131.1570 32.9420 0.0140 -0.8870
131.1400 32.9310 0.0360 -0.8870
131.1220 32.9210 0.0740 -0.8870
131.1050 32.9100 0.1490 -0.8870
131.0880 32.9000 0.2150 -0.8870
131.0700 32.8890 0.2510 -0.8870
131.0530 32.8790 0.1590 -0.8870
131.0360 32.8680 0.3950 -0.8870
131.0180 32.8580 1.0130 -0.8870
131.0010 32.8470 1.7440 -0.8870
130.9840 32.8360 2.4750 -0.8870
130.9660 32.8260 3.2160 -0.8870
130.9490 32.8150 3.9380 -0.8870
130.9320 32.8050 4.6640 -0.8870
130.9140 32.7940 5.1970 -0.8870
130.8970 32.7840 5.5380 -0.8870
130.8800 32.7730 5.6580 -0.8870
130.8630 32.7620 5.5980 -0.8870
130.8450 32.7520 5.3850 -0.8870
130.8280 32.7410 5.0730 -0.8870
130.8110 32.7310 4.6510 -0.8870
130.7930 32.7200 4.1240 -0.8870
130.7760 32.7090 3.5470 -0.8870
130.7590 32.6990 2.9500 -0.8870
130.7420 32.6880 2.3230 -0.8870
130.7240 32.6780 1.6150 -0.8870
130.7070 32.6670 0.7960 -0.8870
131.1690 32.9590 0.0060 0.9110
131.1510 32.9480 0.0170 0.9110
131.1340 32.9380 0.0300 0.9110
131.1170 32.9270 0.0160 0.9110
131.0990 32.9170 0.1620 0.9110
131.0820 32.9060 0.2740 0.9110
131.0650 32.8960 0.3420 0.9110
131.0470 32.8850 0.3080 0.9110
131.0300 32.8750 0.3050 0.9110
131.0130 32.8640 0.8370 0.9110
130.9950 32.8530 1.5430 0.9110
130.9780 32.8430 2.2650 0.9110
130.9610 32.8320 3.0840 0.9110
130.9440 32.8220 3.8040 0.9110
130.9260 32.8110 4.5760 0.9110
130.9090 32.8010 5.1970 0.9110
130.8920 32.7900 5.4510 0.9110
130.8740 32.7790 5.5980 0.9110
130.8570 32.7690 5.5490 0.9110
130.8400 32.7580 5.1540 0.9110
130.8230 32.7480 4.7600 0.9110
130.8050 32.7370 4.3090 0.9110
130.7880 32.7260 3.7560 0.9110
130.7710 32.7160 3.1980 0.9110
130.7530 32.7050 2.6430 0.9110
130.7360 32.6950 2.0810 0.9110
130.7190 32.6840 1.4290 0.9110
130.7020 32.6730 0.6260 0.9110
131.1630 32.9650 0.0210 2.7080
131.1460 32.9550 0.0950 2.7080
131.1290 32.9440 0.1430 2.7080
131.1110 32.9340 0.0580 2.7080
131.0940 32.9230 0.1860 2.7080
131.0770 32.9130 0.4220 2.7080
131.0590 32.9020 0.5230 2.7080
131.0420 32.8920 0.4950 2.7080
131.0250 32.8810 0.2790 2.7080
131.0070 32.8700 0.7280 2.7080
130.9900 32.8600 1.3290 2.7080
130.9730 32.8490 2.0520 2.7080
130.9550 32.8390 2.8200 2.7080
130.9380 32.8280 3.4670 2.7080
130.9210 32.8180 4.2810 2.7080
130.9030 32.8070 4.8830 2.7080
130.8860 32.7960 5.1120 2.7080
130.8690 32.7860 5.1890 2.7080
130.8520 32.7750 5.0290 2.7080
130.8340 32.7650 4.6060 2.7080
130.8170 32.7540 4.1890 2.7080
130.8000 32.7430 3.6870 2.7080
130.7830 32.7330 3.1400 2.7080
130.7650 32.7220 2.5870 2.7080
130.7480 32.7120 2.1120 2.7080
130.7310 32.7010 1.7260 2.7080
130.7130 32.6900 1.1540 2.7080
130.6960 32.6800 0.5940 2.7080
131.1580 32.9720 0.0180 4.5060
131.1400 32.9610 0.1000 4.5060
131.1230 32.9510 0.1440 4.5060
131.1060 32.9400 0.1170 4.5060
131.0880 32.9300 0.3700 4.5060
131.0710 32.9190 0.6240 4.5060
131.0540 32.9080 0.8190 4.5060
131.0360 32.8980 0.6410 4.5060
131.0190 32.8870 0.4760 4.5060
131.0020 32.8770 0.6330 4.5060
130.9840 32.8660 1.1310 4.5060
130.9670 32.8560 1.8290 4.5060
130.9500 32.8450 2.5540 4.5060
130.9330 32.8340 3.2300 4.5060
130.9150 32.8240 3.9780 4.5060
130.8980 32.8130 4.4230 4.5060
130.8810 32.8030 4.6620 4.5060
130.8630 32.7920 4.6930 4.5060
130.8460 32.7820 4.4290 4.5060
130.8290 32.7710 4.0360 4.5060
130.8120 32.7600 3.6290 4.5060
130.7940 32.7500 3.2760 4.5060
130.7770 32.7390 2.8200 4.5060
130.7600 32.7290 2.3120 4.5060
130.7420 32.7180 1.8130 4.5060
130.7250 32.7070 1.4570 4.5060
130.7080 32.6970 0.9990 4.5060
130.6910 32.6860 0.5180 4.5060
131.1520 32.9780 0.0160 6.3030
131.1350 32.9680 0.0880 6.3030
131.1180 32.9570 0.1200 6.3030
131.1000 32.9470 0.3020 6.3030
131.0830 32.9360 0.6170 6.3030
131.0660 32.9250 0.8210 6.3030
131.0480 32.9150 0.9310 6.3030
131.0310 32.9040 0.8570 6.3030
131.0140 32.8940 0.7950 6.3030
130.9960 32.8830 0.6990 6.3030
130.9790 32.8730 0.9740 6.3030
130.9620 32.8620 1.4880 6.3030
130.9440 32.8510 2.2280 6.3030
130.9270 32.8410 2.7990 6.3030
130.9100 32.8300 3.4990 6.3030
130.8920 32.8200 3.9300 6.3030
130.8750 32.8090 4.1680 6.3030
130.8580 32.7990 4.1210 6.3030
130.8410 32.7880 3.8390 6.3030
130.8230 32.7770 3.5310 6.3030
130.8060 32.7670 3.2690 6.3030
130.7890 32.7560 3.0350 6.3030
130.7710 32.7460 2.7250 6.3030
130.7540 32.7350 2.2890 6.3030
130.7370 32.7240 1.8240 6.3030
130.7200 32.7140 1.4180 6.3030
130.7020 32.7030 1.0280 6.3030
130.6850 32.6930 0.4910 6.3030
131.1470 32.9850 0.0140 8.1010
131.1290 32.9740 0.0430 8.1010
131.1120 32.9640 0.1580 8.1010
131.0950 32.9530 0.4130 8.1010
131.0770 32.9420 0.7380 8.1010
131.0600 32.9320 0.9650 8.1010
131.0430 32.9210 1.0280 8.1010
131.0250 32.9110 1.1640 8.1010
131.0080 32.9000 1.1230 8.1010
130.9910 32.8900 0.9500 8.1010
130.9730 32.8790 0.8570 8.1010
130.9560 32.8680 1.1130 8.1010
130.9390 32.8580 1.7050 8.1010
130.9220 32.8470 2.2740 8.1010
130.9040 32.8370 2.7620 8.1010
130.8870 32.8260 3.2460 8.1010
130.8700 32.8160 3.4150 8.1010
130.8520 32.8050 3.4420 8.1010
130.8350 32.7940 3.3360 8.1010
130.8180 32.7840 3.0330 8.1010
130.8010 32.7730 2.9600 8.1010
130.7830 32.7630 2.7070 8.1010
130.7660 32.7520 2.4660 8.1010
130.7490 32.7410 2.1930 8.1010
130.7310 32.7310 1.9640 8.1010
130.7140 32.7200 1.5050 8.1010
130.6970 32.7100 1.1000 8.1010
130.6800 32.6990 0.4990 8.1010
131.1410 32.9910 0.0180 9.8990
131.1240 32.9800 0.0670 9.8990
131.1070 32.9700 0.1520 9.8990
131.0890 32.9590 0.3670 9.8990
131.0720 32.9490 0.6010 9.8990
131.0550 32.9380 0.9000 9.8990
131.0370 32.9280 1.0410 9.8990
131.0200 32.9170 1.1620 9.8990
131.0030 32.9070 1.1510 9.8990
130.9850 32.8960 0.8910 9.8990
130.9680 32.8850 0.7150 9.8990
130.9510 32.8750 0.8690 9.8990
130.9330 32.8640 1.2700 9.8990
130.9160 32.8540 1.7200 9.8990
130.8990 32.8430 2.0670 9.8990
130.8810 32.8330 2.4890 9.8990
130.8640 32.8220 2.7110 9.8990
130.8470 32.8110 2.7290 9.8990
130.8300 32.8010 2.6710 9.8990
130.8120 32.7900 2.5070 9.8990
130.7950 32.7800 2.6000 9.8990
130.7780 32.7690 2.4110 9.8990
130.7600 32.7580 2.2640 9.8990
130.7430 32.7480 2.1300 9.8990
130.7260 32.7370 2.0070 9.8990
130.7090 32.7270 1.5630 9.8990
130.6910 32.7160 1.0860 9.8990
130.6740 32.7050 0.5130 9.8990
131.1360 32.9970 0.0100 11.6960
131.1180 32.9870 0.0450 11.6960
131.1010 32.9760 0.1340 11.6960
131.0840 32.9660 0.3020 11.6960
131.0660 32.9550 0.4670 11.6960
131.0490 32.9450 0.7240 11.6960
131.0320 32.9340 0.8760 11.6960
131.0140 32.9240 0.8770 11.6960
130.9970 32.9130 0.7800 11.6960
130.9800 32.9020 0.5810 11.6960
130.9620 32.8920 0.5580 11.6960
130.9450 32.8810 0.6320 11.6960
130.9280 32.8710 0.8530 11.6960
130.9110 32.8600 1.1370 11.6960
130.8930 32.8500 1.4280 11.6960
130.8760 32.8390 1.7670 11.6960
130.8590 32.8280 2.0620 11.6960
130.8410 32.8180 2.1130 11.6960
130.8240 32.8070 2.0030 11.6960
130.8070 32.7970 1.9530 11.6960
130.7900 32.7860 2.0260 11.6960
130.7720 32.7750 2.1910 11.6960
130.7550 32.7650 2.2260 11.6960
130.7380 32.7540 2.0970 11.6960
130.7200 32.7440 1.8670 11.6960
130.7030 32.7330 1.4480 11.6960
130.6860 32.7220 0.9110 11.6960
130.6690 32.7120 0.3780 11.6960
131.1300 33.0040 0.0240 13.4940
131.1130 32.9930 0.0630 13.4940
131.0960 32.9830 0.0910 13.4940
131.0780 32.9720 0.2440 13.4940
131.0610 32.9620 0.4230 13.4940
131.0440 32.9510 0.6090 13.4940
131.0260 32.9410 0.7090 13.4940
131.0090 32.9300 0.5690 13.4940
130.9920 32.9190 0.3840 13.4940
130.9740 32.9090 0.3280 13.4940
130.9570 32.8980 0.4140 13.4940
130.9400 32.8880 0.4570 13.4940
130.9220 32.8770 0.5010 13.4940
130.9050 32.8670 0.6740 13.4940
130.8880 32.8560 0.8160 13.4940
130.8700 32.8450 0.9830 13.4940
130.8530 32.8350 1.2340 13.4940
130.8360 32.8240 1.4150 13.4940
130.8190 32.8140 1.3880 13.4940
130.8010 32.8030 1.3110 13.4940
130.7840 32.7920 1.3910 13.4940
130.7670 32.7820 1.5070 13.4940
130.7490 32.7710 1.5890 13.4940
130.7320 32.7610 1.5750 13.4940
130.7150 32.7500 1.4030 13.4940
130.6980 32.7390 1.0820 13.4940
130.6800 32.7290 0.7110 13.4940
130.6630 32.7180 0.3460 13.4940
131.1250 33.0100 0.0060 15.2910
131.1080 33.0000 0.0850 15.2910
131.0900 32.9890 0.0220 15.2910
131.0730 32.9790 0.1140 15.2910
131.0550 32.9680 0.2490 15.2910
131.0380 32.9570 0.2920 15.2910
131.0210 32.9470 0.3660 15.2910
131.0030 32.9360 0.3240 15.2910
130.9860 32.9260 0.2310 15.2910
130.9690 32.9150 0.2160 15.2910
130.9520 32.9050 0.2790 15.2910
130.9340 32.8940 0.2980 15.2910
130.9170 32.8830 0.2620 15.2910
130.9000 32.8730 0.3060 15.2910
130.8820 32.8620 0.2980 15.2910
130.8650 32.8520 0.3930 15.2910
130.8480 32.8410 0.5490 15.2910
130.8300 32.8310 0.6750 15.2910
130.8130 32.8200 0.6810 15.2910
130.7960 32.8090 0.7040 15.2910
130.7790 32.7990 0.6980 15.2910
130.7610 32.7880 0.6800 15.2910
130.7440 32.7780 0.7000 15.2910
130.7270 32.7670 0.7180 15.2910
130.7090 32.7560 0.6600 15.2910
130.6920 32.7460 0.5960 15.2910
130.6750 32.7350 0.3960 15.2910
130.6580 32.7250 0.2040 15.2910
