144.2597 39.7325 0.0480 4.8987
144.1711 39.5185 0.0569 4.8987
144.0825 39.3046 5.8341 4.8987
143.9939 39.0906 10.4533 4.8987
143.9053 38.8766 17.1207 4.8987
143.8167 38.6627 23.7268 4.8987
143.7280 38.4487 30.1853 4.8987
143.6394 38.2347 34.7803 4.8987
143.5508 38.0207 37.4608 4.8987
143.4622 37.8068 35.2495 4.8987
143.3736 37.5928 32.5611 4.8987
143.2849 37.3788 27.3823 4.8987
143.1963 37.1649 22.2629 4.8987
143.1077 36.9509 16.2911 4.8987
143.0191 36.7369 11.8774 4.8987
142.9305 36.5230 8.9340 4.8987
142.8419 36.3090 4.6222 4.8987
142.7532 36.0950 1.1454 4.8987
142.6646 35.8810 0.1989 4.8987
142.5760 35.6671 0.7768 4.8987
144.0449 39.7873 0.0147 8.3717
143.9562 39.5733 0.6285 8.3717
143.8676 39.3593 6.8087 8.3717
143.7790 39.1454 14.0694 8.3717
143.6904 38.9314 25.8727 8.3717
143.6018 38.7174 37.8102 8.3717
143.5132 38.5035 48.8432 8.3717
143.4245 38.2895 56.2865 8.3717
143.3359 38.0755 58.1779 8.3717
143.2473 37.8615 55.0366 8.3717
143.1587 37.6476 48.1504 8.3717
143.0701 37.4336 40.5665 8.3717
142.9815 37.2196 33.4892 8.3717
142.8928 37.0057 25.5882 8.3717
142.8042 36.7917 19.5279 8.3717
142.7156 36.5777 14.1900 8.3717
142.6270 36.3638 10.3887 8.3717
142.5384 36.1498 7.0549 8.3717
142.4498 35.9358 4.0804 8.3717
142.3611 35.7218 3.4035 8.3717
143.8300 39.8421 0.0258 11.8446
143.7414 39.6281 0.0204 11.8446
143.6528 39.4141 5.6774 11.8446
143.5641 39.2001 14.6143 11.8446
143.4755 38.9862 28.1002 11.8446
143.3869 38.7722 42.0826 11.8446
143.2983 38.5582 52.7255 11.8446
143.2097 38.3443 57.7006 11.8446
143.1211 38.1303 55.8204 11.8446
143.0324 37.9163 50.7535 11.8446
142.9438 37.7024 43.8701 11.8446
142.8552 37.4884 35.9125 11.8446
142.7666 37.2744 28.2108 11.8446
142.6780 37.0604 20.7574 11.8446
142.5894 36.8465 14.5853 11.8446
142.5007 36.6325 12.6782 11.8446
142.4121 36.4185 9.2952 11.8446
142.3235 36.2046 7.9350 11.8446
142.2349 35.9906 6.9049 11.8446
142.1463 35.7766 4.8913 11.8446
143.6151 39.8968 0.0017 15.3176
143.5265 39.6829 0.0464 15.3176
143.4379 39.4689 4.1828 15.3176
143.3493 39.2549 14.1376 15.3176
143.2606 39.0409 25.5502 15.3176
143.1720 38.8270 38.4300 15.3176
143.0834 38.6130 43.8353 15.3176
142.9948 38.3990 40.9149 15.3176
142.9062 38.1851 36.4038 15.3176
142.8176 37.9711 30.5312 15.3176
142.7289 37.7571 26.0062 15.3176
142.6403 37.5432 19.8373 15.3176
142.5517 37.3292 13.1540 15.3176
142.4631 37.1152 8.4266 15.3176
142.3745 36.9012 5.2263 15.3176
142.2859 36.6873 4.6925 15.3176
142.1972 36.4733 4.5674 15.3176
142.1086 36.2593 7.5237 15.3176
142.0200 36.0454 7.8147 15.3176
141.9314 35.8314 5.0404 15.3176
143.4002 39.9516 4.3309 18.7906
143.3116 39.7376 0.0744 18.7906
143.2230 39.5237 1.9319 18.7906
143.1344 39.3097 10.6580 18.7906
143.0458 39.0957 22.2677 18.7906
142.9572 38.8818 31.1772 18.7906
142.8685 38.6678 29.4417 18.7906
142.7799 38.4538 20.4713 18.7906
142.6913 38.2398 15.3501 18.7906
142.6027 38.0259 9.8521 18.7906
142.5141 37.8119 7.2027 18.7906
142.4255 37.5979 5.4710 18.7906
142.3368 37.3840 3.6903 18.7906
142.2482 37.1700 4.2457 18.7906
142.1596 36.9560 3.2130 18.7906
142.0710 36.7420 1.2783 18.7906
141.9824 36.5281 3.0922 18.7906
141.8938 36.3141 6.6294 18.7906
141.8051 36.1001 7.8795 18.7906
141.7165 35.8862 6.6069 18.7906
143.1854 40.0064 8.4446 22.2635
143.0968 39.7924 2.1779 22.2635
143.0081 39.5784 0.1245 22.2635
142.9195 39.3645 8.4674 22.2635
142.8309 39.1505 18.4542 22.2635
142.7423 38.9365 22.7081 22.2635
142.6537 38.7226 16.2899 22.2635
142.5651 38.5086 10.2386 22.2635
142.4764 38.2946 5.9179 22.2635
142.3878 38.0806 2.0137 22.2635
142.2992 37.8667 2.1655 22.2635
142.2106 37.6527 2.3992 22.2635
142.1220 37.4387 3.4802 22.2635
142.0334 37.2248 5.6235 22.2635
141.9447 37.0108 4.7938 22.2635
141.8561 36.7968 0.4180 22.2635
141.7675 36.5828 1.2093 22.2635
141.6789 36.3689 5.1021 22.2635
141.5903 36.1549 8.5466 22.2635
141.5017 35.9409 7.5730 22.2635
142.9705 40.0612 9.3151 25.7365
142.8819 39.8472 3.7857 25.7365
142.7933 39.6332 2.2503 25.7365
142.7046 39.4192 8.3302 25.7365
142.6160 39.2053 14.5310 25.7365
142.5274 38.9913 13.2969 25.7365
142.4388 38.7773 8.2382 25.7365
142.3502 38.5634 7.2203 25.7365
142.2616 38.3494 5.2924 25.7365
142.1729 38.1354 1.1624 25.7365
142.0843 37.9214 0.6913 25.7365
141.9957 37.7075 0.5494 25.7365
141.9071 37.4935 4.0038 25.7365
141.8185 37.2795 7.1585 25.7365
141.7299 37.0656 5.5299 25.7365
141.6412 36.8516 0.7011 25.7365
141.5526 36.6376 0.6759 25.7365
141.4640 36.4237 3.6680 25.7365
141.3754 36.2097 8.1238 25.7365
141.2868 35.9957 7.1250 25.7365
142.7556 40.1159 14.5299 29.2095
142.6670 39.9020 8.3683 29.2095
142.5784 39.6880 8.4381 29.2095
142.4898 39.4740 12.3468 29.2095
142.4012 39.2600 12.2178 29.2095
142.3125 39.0461 8.6552 29.2095
142.2239 38.8321 0.0636 29.2095
142.1353 38.6181 4.1090 29.2095
142.0467 38.4042 2.9212 29.2095
141.9581 38.1902 0.1330 29.2095
141.8695 37.9762 0.4004 29.2095
141.7808 37.7622 0.7652 29.2095
141.6922 37.5483 4.0739 29.2095
141.6036 37.3343 8.1031 29.2095
141.5150 37.1203 6.1166 29.2095
141.4264 36.9064 2.9980 29.2095
141.3378 36.6924 0.4739 29.2095
141.2491 36.4784 2.8564 29.2095
141.1605 36.2645 6.1061 29.2095
141.0719 36.0505 7.0357 29.2095
142.5408 40.1707 13.6731 32.6824
142.4521 39.9567 9.4260 32.6824
142.3635 39.7428 13.7543 32.6824
142.2749 39.5288 16.1004 32.6824
142.1863 39.3148 11.4673 32.6824
142.0977 39.1008 7.5119 32.6824
142.0091 38.8869 0.0306 32.6824
141.9204 38.6729 4.3804 32.6824
141.8318 38.4589 5.4788 32.6824
141.7432 38.2450 2.3385 32.6824
141.6546 38.0310 4.6378 32.6824
141.5660 37.8170 4.3190 32.6824
141.4774 37.6031 5.4292 32.6824
141.3887 37.3891 7.8890 32.6824
141.3001 37.1751 4.7770 32.6824
141.2115 36.9611 3.1116 32.6824
141.1229 36.7472 0.6373 32.6824
141.0343 36.5332 2.7241 32.6824
140.9457 36.3192 5.0259 32.6824
140.8570 36.1053 6.6244 32.6824
142.3259 40.2255 5.8853 36.1554
142.2373 40.0115 8.4846 36.1554
142.1486 39.7975 11.7179 36.1554
142.0600 39.5836 11.4009 36.1554
141.9714 39.3696 7.1944 36.1554
141.8828 39.1556 6.1686 36.1554
141.7942 38.9416 0.0321 36.1554
141.7056 38.7277 5.4399 36.1554
141.6169 38.5137 7.8971 36.1554
141.5283 38.2997 7.3655 36.1554
141.4397 38.0858 8.1092 36.1554
141.3511 37.8718 5.7352 36.1554
141.2625 37.6578 3.8090 36.1554
141.1739 37.4439 4.5010 36.1554
141.0852 37.2299 2.2148 36.1554
140.9966 37.0159 2.6109 36.1554
140.9080 36.8019 1.3784 36.1554
140.8194 36.5880 1.9856 36.1554
140.7308 36.3740 3.4330 36.1554
140.6422 36.1600 4.9958 36.1554
