88.3189 27.9117 1.0800 23.1683
88.2876 27.8762 0.8610 23.1683
88.2563 27.8408 0.6370 23.1683
88.2250 27.8053 0.3800 23.1683
88.1936 27.7698 0.2280 23.1683
88.1623 27.7344 0.1480 23.1683
88.1310 27.6989 0.1910 23.1683
88.0997 27.6635 0.5240 23.1683
88.0684 27.6280 0.7030 23.1683
88.3092 27.9184 0.6990 28.0198
88.2779 27.8829 0.4550 28.0198
88.2466 27.8475 0.1930 28.0198
88.2153 27.8120 0.1460 28.0198
88.1839 27.7765 0.2160 28.0198
88.1526 27.7411 0.1440 28.0198
88.1213 27.7056 0.1620 28.0198
88.0900 27.6702 0.1550 28.0198
88.0587 27.6347 0.5250 28.0198
88.2995 27.9251 0.3060 32.8713
88.2682 27.8896 0.2800 32.8713
88.2369 27.8542 0.2330 32.8713
88.2056 27.8187 0.2690 32.8713
88.1742 27.7832 0.4670 32.8713
88.1429 27.7478 0.3690 32.8713
88.1116 27.7123 0.2790 32.8713
88.0803 27.6769 0.1370 32.8713
88.0490 27.6414 0.3030 32.8713
88.2898 27.9318 0.2430 37.7228
88.2585 27.8963 0.2680 37.7228
88.2272 27.8609 0.6000 37.7228
88.1959 27.8254 0.7540 37.7228
88.1645 27.7899 0.3860 37.7228
88.1332 27.7545 0.4520 37.7228
88.1019 27.7190 0.3020 37.7228
88.0706 27.6836 0.1440 37.7228
88.0393 27.6481 0.0535 37.7228
88.2801 27.9385 0.3490 42.5743
88.2488 27.9030 0.4390 42.5743
88.2175 27.8676 1.1900 42.5743
88.1862 27.8321 1.2800 42.5743
88.1548 27.7966 0.3800 42.5743
88.1235 27.7612 0.3230 42.5743
88.0922 27.7257 0.1610 42.5743
88.0609 27.6903 0.1160 42.5743
88.0296 27.6548 0.0812 42.5743
88.2704 27.9452 0.2150 47.4257
88.2391 27.9097 0.2090 47.4257
88.2078 27.8743 1.0800 47.4257
88.1765 27.8388 1.5900 47.4257
88.1452 27.8034 1.2500 47.4257
88.1138 27.7679 0.7740 47.4257
88.0825 27.7324 0.2250 47.4257
88.0512 27.6970 0.1450 47.4257
88.0199 27.6615 0.2960 47.4257
88.2607 27.9519 0.2530 52.2772
88.2294 27.9164 0.1200 52.2772
88.1981 27.8810 0.5620 52.2772
88.1668 27.8455 1.1400 52.2772
88.1355 27.8101 1.1400 52.2772
88.1041 27.7746 0.9200 52.2772
88.0728 27.7391 0.3230 52.2772
88.0415 27.7037 0.2460 52.2772
88.0102 27.6682 0.5750 52.2772
88.2510 27.9586 0.1030 57.1287
88.2197 27.9231 0.0000 57.1287
88.1884 27.8877 0.0750 57.1287
88.1571 27.8522 0.2710 57.1287
88.1258 27.8168 0.3990 57.1287
88.0944 27.7813 0.3530 57.1287
88.0631 27.7458 0.1230 57.1287
88.0318 27.7104 0.0333 57.1287
88.0005 27.6749 0.1210 57.1287
88.2413 27.9653 0.1030 61.9802
88.2100 27.9298 0.0247 61.9802
88.1787 27.8944 0.0371 61.9802
88.1474 27.8589 0.0894 61.9802
88.1161 27.8235 0.1190 61.9802
88.0847 27.7880 0.1180 61.9802
88.0534 27.7525 0.1430 61.9802
88.0221 27.7171 0.1740 61.9802
87.9908 27.6816 0.1740 61.9802
