-71.3244 -21.1543 0.0000 0.6864
-71.3319 -21.0195 0.0000 0.6864
-71.3394 -20.8847 0.0000 0.6864
-71.3469 -20.7498 0.0000 0.6864
-71.3544 -20.6150 0.0000 0.6864
-71.3619 -20.4802 0.0000 0.6864
-71.3694 -20.3454 0.5263 0.6864
-71.3769 -20.2106 1.0526 0.6864
-71.3844 -20.0758 1.0526 0.6864
-71.3919 -19.9410 0.5263 0.6864
-71.3994 -19.8062 0.0000 0.6864
-71.4069 -19.6714 0.0000 0.6864
-71.4144 -19.5366 0.0000 0.6864
-71.4219 -19.4018 0.0000 0.6864
-71.4294 -19.2670 0.0000 0.6864
-71.4369 -19.1322 0.0000 0.6864
-71.4444 -18.9974 0.0000 0.6864
-71.4519 -18.8626 0.0000 0.6864
-71.4594 -18.7278 0.0000 0.6864
-71.2336 -21.1498 0.0000 3.7766
-71.2411 -21.0150 0.0000 3.7766
-71.2486 -20.8802 0.0000 3.7766
-71.2561 -20.7454 0.0000 3.7766
-71.2636 -20.6106 0.0000 3.7766
-71.2711 -20.4758 0.0000 3.7766
-71.2786 -20.3410 1.0526 3.7766
-71.2861 -20.2062 1.5789 3.7766
-71.2936 -20.0713 1.5789 3.7766
-71.3011 -19.9365 0.5263 3.7766
-71.3086 -19.8017 0.0000 3.7766
-71.3161 -19.6669 0.0000 3.7766
-71.3236 -19.5321 0.0000 3.7766
-71.3311 -19.3973 0.0000 3.7766
-71.3386 -19.2625 0.0000 3.7766
-71.3461 -19.1277 0.0000 3.7766
-71.3536 -18.9929 0.0000 3.7766
-71.3611 -18.8581 0.0000 3.7766
-71.3686 -18.7233 0.0000 3.7766
-71.1429 -21.1453 0.0000 6.8668
-71.1504 -21.0105 0.0000 6.8668
-71.1579 -20.8757 0.0000 6.8668
-71.1654 -20.7409 0.0000 6.8668
-71.1729 -20.6061 0.0000 6.8668
-71.1804 -20.4713 0.5263 6.8668
-71.1879 -20.3365 1.5789 6.8668
-71.1954 -20.2017 2.1053 6.8668
-71.2029 -20.0669 1.5789 6.8668
-71.2104 -19.9321 0.5263 6.8668
-71.2179 -19.7973 0.0000 6.8668
-71.2254 -19.6625 0.0000 6.8668
-71.2329 -19.5277 0.0000 6.8668
-71.2404 -19.3928 0.0000 6.8668
-71.2479 -19.2580 0.0000 6.8668
-71.2554 -19.1232 0.0000 6.8668
-71.2629 -18.9884 0.0000 6.8668
-71.2704 -18.8536 0.0000 6.8668
-71.2779 -18.7188 0.0000 6.8668
-71.0521 -21.1408 0.0000 9.9569
-71.0596 -21.0060 0.0000 9.9569
-71.0671 -20.8712 0.0000 9.9569
-71.0746 -20.7364 0.0000 9.9569
-71.0821 -20.6016 0.0000 9.9569
-71.0896 -20.4668 0.5263 9.9569
-71.0971 -20.3320 1.5789 9.9569
-71.1046 -20.1972 2.1053 9.9569
-71.1121 -20.0624 1.5789 9.9569
-71.1196 -19.9276 0.5263 9.9569
-71.1271 -19.7928 0.5263 9.9569
-71.1346 -19.6580 0.5263 9.9569
-71.1421 -19.5232 0.0000 9.9569
-71.1496 -19.3884 0.0000 9.9569
-71.1571 -19.2536 0.0000 9.9569
-71.1646 -19.1188 0.0000 9.9569
-71.1721 -18.9840 0.5263 9.9569
-71.1796 -18.8492 0.5263 9.9569
-71.1871 -18.7143 0.5263 9.9569
-70.9614 -21.1363 0.0000 13.0471
-70.9689 -21.0015 0.0000 13.0471
-70.9764 -20.8667 0.0000 13.0471
-70.9839 -20.7319 0.0000 13.0471
-70.9914 -20.5971 0.5263 13.0471
-70.9989 -20.4623 1.0526 13.0471
-71.0064 -20.3275 1.5789 13.0471
-71.0139 -20.1927 2.1053 13.0471
-71.0214 -20.0579 1.0526 13.0471
-71.0289 -19.9231 0.0000 13.0471
-71.0364 -19.7883 0.0000 13.0471
-71.0439 -19.6535 0.5263 13.0471
-71.0514 -19.5187 0.5263 13.0471
-71.0589 -19.3839 0.5263 13.0471
-71.0664 -19.2491 0.0000 13.0471
-71.0739 -19.1143 0.0000 13.0471
-71.0814 -18.9795 0.0000 13.0471
-71.0889 -18.8447 0.0000 13.0471
-71.0964 -18.7099 0.0000 13.0471
-70.8706 -21.1319 0.5263 16.1373
-70.8781 -20.9971 0.5263 16.1373
-70.8856 -20.8623 0.0000 16.1373
-70.8931 -20.7275 0.0000 16.1373
-70.9006 -20.5926 0.5263 16.1373
-70.9081 -20.4578 1.0526 16.1373
-70.9156 -20.3230 1.5789 16.1373
-70.9231 -20.1882 1.5789 16.1373
-70.9306 -20.0534 0.5263 16.1373
-70.9381 -19.9186 0.0000 16.1373
-70.9456 -19.7838 0.0000 16.1373
-70.9531 -19.6490 0.5263 16.1373
-70.9606 -19.5142 0.5263 16.1373
-70.9681 -19.3794 0.5263 16.1373
-70.9756 -19.2446 0.0000 16.1373
-70.9831 -19.1098 0.0000 16.1373
-70.9906 -18.9750 0.0000 16.1373
-70.9981 -18.8402 0.0000 16.1373
-71.0056 -18.7054 0.0000 16.1373
-70.7799 -21.1274 0.5263 19.2275
-70.7874 -20.9926 0.5263 19.2275
-70.7949 -20.8578 0.5263 19.2275
-70.8024 -20.7230 0.5263 19.2275
-70.8099 -20.5882 0.5263 19.2275
-70.8174 -20.4534 0.5263 19.2275
-70.8249 -20.3186 1.0526 19.2275
-70.8324 -20.1838 1.0526 19.2275
-70.8399 -20.0490 0.5263 19.2275
-70.8474 -19.9141 0.0000 19.2275
-70.8549 -19.7793 0.0000 19.2275
-70.8624 -19.6445 0.5263 19.2275
-70.8699 -19.5097 0.5263 19.2275
-70.8774 -19.3749 0.5263 19.2275
-70.8849 -19.2401 0.0000 19.2275
-70.8924 -19.1053 0.0000 19.2275
-70.8999 -18.9705 0.0000 19.2275
-70.9074 -18.8357 0.0000 19.2275
-70.9149 -18.7009 0.0000 19.2275
-70.6891 -21.1229 0.5263 22.3176
-70.6966 -20.9881 0.5263 22.3176
-70.7041 -20.8533 0.5263 22.3176
-70.7116 -20.7185 0.5263 22.3176
-70.7191 -20.5837 0.5263 22.3176
-70.7266 -20.4489 0.5263 22.3176
-70.7341 -20.3141 1.0526 22.3176
-70.7416 -20.1793 1.0526 22.3176
-70.7491 -20.0445 1.0526 22.3176
-70.7566 -19.9097 0.5263 22.3176
-70.7641 -19.7749 0.5263 22.3176
-70.7716 -19.6401 0.5263 22.3176
-70.7791 -19.5053 0.5263 22.3176
-70.7866 -19.3705 0.5263 22.3176
-70.7941 -19.2356 0.0000 22.3176
-70.8016 -19.1008 0.0000 22.3176
-70.8091 -18.9660 0.5263 22.3176
-70.8166 -18.8312 0.5263 22.3176
-70.8241 -18.6964 0.5263 22.3176
-70.5984 -21.1184 0.5263 25.4078
-70.6059 -20.9836 0.5263 25.4078
-70.6134 -20.8488 1.0526 25.4078
-70.6209 -20.7140 1.0526 25.4078
-70.6284 -20.5792 1.0526 25.4078
-70.6359 -20.4444 1.0526 25.4078
-70.6434 -20.3096 1.5789 25.4078
-70.6509 -20.1748 2.1053 25.4078
-70.6584 -20.0400 2.1053 25.4078
-70.6659 -19.9052 1.0526 25.4078
-70.6734 -19.7704 0.5263 25.4078
-70.6809 -19.6356 0.0000 25.4078
-70.6884 -19.5008 0.0000 25.4078
-70.6959 -19.3660 0.0000 25.4078
-70.7034 -19.2312 0.0000 25.4078
-70.7109 -19.0964 0.0000 25.4078
-70.7184 -18.9616 0.0000 25.4078
-70.7259 -18.8268 0.0000 25.4078
-70.7334 -18.6920 0.5263 25.4078
-70.5076 -21.1139 0.0000 28.4980
-70.5151 -20.9791 0.0000 28.4980
-70.5226 -20.8443 0.5263 28.4980
-70.5301 -20.7095 1.0526 28.4980
-70.5376 -20.5747 1.0526 28.4980
-70.5451 -20.4399 1.5789 28.4980
-70.5526 -20.3051 2.1053 28.4980
-70.5601 -20.1703 3.1579 28.4980
-70.5676 -20.0355 3.1579 28.4980
-70.5751 -19.9007 2.1053 28.4980
-70.5826 -19.7659 1.0526 28.4980
-70.5901 -19.6311 0.0000 28.4980
-70.5976 -19.4963 0.0000 28.4980
-70.6051 -19.3615 0.0000 28.4980
-70.6126 -19.2267 0.0000 28.4980
-70.6201 -19.0919 0.0000 28.4980
-70.6276 -18.9571 0.0000 28.4980
-70.6351 -18.8223 0.0000 28.4980
-70.6426 -18.6875 0.5263 28.4980
-70.4169 -21.1095 0.5263 31.5881
-70.4244 -20.9747 0.0000 31.5881
-70.4319 -20.8399 0.5263 31.5881
-70.4394 -20.7051 0.5263 31.5881
-70.4469 -20.5703 0.5263 31.5881
-70.4544 -20.4354 1.5789 31.5881
-70.4619 -20.3006 2.6316 31.5881
-70.4694 -20.1658 3.6842 31.5881
-70.4769 -20.0310 4.2105 31.5881
-70.4844 -19.8962 3.1579 31.5881
-70.4919 -19.7614 2.1053 31.5881
-70.4994 -19.6266 0.5263 31.5881
-70.5069 -19.4918 0.5263 31.5881
-70.5144 -19.3570 1.0526 31.5881
-70.5219 -19.2222 0.5263 31.5881
-70.5294 -19.0874 0.0000 31.5881
-70.5369 -18.9526 0.0000 31.5881
-70.5444 -18.8178 0.0000 31.5881
-70.5519 -18.6830 0.5263 31.5881
-70.3261 -21.1050 1.0526 34.6783
-70.3336 -20.9702 0.5263 34.6783
-70.3411 -20.8354 0.5263 34.6783
-70.3486 -20.7006 0.0000 34.6783
-70.3561 -20.5658 0.0000 34.6783
-70.3636 -20.4310 1.5789 34.6783
-70.3711 -20.2962 2.6316 34.6783
-70.3786 -20.1614 3.6842 34.6783
-70.3861 -20.0266 4.2105 34.6783
-70.3936 -19.8918 3.6842 34.6783
-70.4011 -19.7569 2.6316 34.6783
-70.4086 -19.6221 1.5789 34.6783
-70.4161 -19.4873 1.5789 34.6783
-70.4236 -19.3525 2.1053 34.6783
-70.4311 -19.2177 1.5789 34.6783
-70.4386 -19.0829 0.5263 34.6783
-70.4461 -18.9481 0.0000 34.6783
-70.4536 -18.8133 0.5263 34.6783
-70.4611 -18.6785 1.0526 34.6783
-70.2354 -21.1005 1.5789 37.7685
-70.2429 -20.9657 1.0526 37.7685
-70.2504 -20.8309 0.5263 37.7685
-70.2579 -20.6961 0.0000 37.7685
-70.2654 -20.5613 0.0000 37.7685
-70.2729 -20.4265 1.0526 37.7685
-70.2804 -20.2917 1.5789 37.7685
-70.2879 -20.1569 2.6316 37.7685
-70.2954 -20.0221 3.1579 37.7685
-70.3029 -19.8873 3.1579 37.7685
-70.3104 -19.7525 2.1053 37.7685
-70.3179 -19.6177 1.5789 37.7685
-70.3254 -19.4829 2.1053 37.7685
-70.3329 -19.3481 2.6316 37.7685
-70.3404 -19.2133 1.5789 37.7685
-70.3479 -19.0784 0.5263 37.7685
-70.3554 -18.9436 0.5263 37.7685
-70.3629 -18.8088 0.5263 37.7685
-70.3704 -18.6740 0.5263 37.7685
-70.1446 -21.0960 1.5789 40.8586
-70.1521 -20.9612 1.5789 40.8586
-70.1596 -20.8264 1.0526 40.8586
-70.1671 -20.6916 0.0000 40.8586
-70.1746 -20.5568 0.0000 40.8586
-70.1821 -20.4220 0.5263 40.8586
-70.1896 -20.2872 0.5263 40.8586
-70.1971 -20.1524 1.0526 40.8586
-70.2046 -20.0176 1.5789 40.8586
-70.2121 -19.8828 1.5789 40.8586
-70.2196 -19.7480 1.5789 40.8586
-70.2271 -19.6132 1.0526 40.8586
-70.2346 -19.4784 1.5789 40.8586
-70.2421 -19.3436 2.1053 40.8586
-70.2496 -19.2088 1.0526 40.8586
-70.2571 -19.0740 0.5263 40.8586
-70.2646 -18.9392 1.0526 40.8586
-70.2721 -18.8044 0.5263 40.8586
-70.2796 -18.6696 0.5263 40.8586
-70.0538 -21.0916 1.5789 43.9488
-70.0613 -20.9567 1.5789 43.9488
-70.0688 -20.8219 1.0526 43.9488
-70.0764 -20.6871 0.0000 43.9488
-70.0839 -20.5523 0.0000 43.9488
-70.0914 -20.4175 0.5263 43.9488
-70.0989 -20.2827 0.5263 43.9488
-70.1064 -20.1479 0.5263 43.9488
-70.1139 -20.0131 0.0000 43.9488
-70.1214 -19.8783 0.0000 43.9488
-70.1289 -19.7435 0.5263 43.9488
-70.1364 -19.6087 0.5263 43.9488
-70.1439 -19.4739 0.5263 43.9488
-70.1514 -19.3391 0.5263 43.9488
-70.1589 -19.2043 0.0000 43.9488
-70.1664 -19.0695 0.5263 43.9488
-70.1739 -18.9347 1.0526 43.9488
-70.1814 -18.7999 0.5263 43.9488
-70.1889 -18.6651 0.5263 43.9488
-69.9631 -21.0871 1.5789 47.0390
-69.9706 -20.9523 1.5789 47.0390
-69.9781 -20.8175 1.0526 47.0390
-69.9856 -20.6827 0.0000 47.0390
-69.9931 -20.5479 0.0000 47.0390
-70.0006 -20.4131 0.5263 47.0390
-70.0081 -20.2782 0.5263 47.0390
-70.0156 -20.1434 0.5263 47.0390
-70.0231 -20.0086 0.0000 47.0390
-70.0306 -19.8738 0.0000 47.0390
-70.0381 -19.7390 0.0000 47.0390
-70.0456 -19.6042 0.0000 47.0390
-70.0531 -19.4694 0.0000 47.0390
-70.0606 -19.3346 0.0000 47.0390
-70.0681 -19.1998 0.0000 47.0390
-70.0756 -19.0650 0.0000 47.0390
-70.0831 -18.9302 0.5263 47.0390
-70.0906 -18.7954 0.5263 47.0390
-70.0981 -18.6606 0.5263 47.0390
