173.4508 -42.7380 0.1845 0.0000
173.3620 -42.7554 0.2376 0.0000
173.2732 -42.7729 0.1861 0.0000
173.1844 -42.7904 0.0724 0.0000
173.0956 -42.8079 0.1296 0.0000
173.0068 -42.8253 0.1539 0.0000
172.9180 -42.8428 0.1876 0.0000
172.8292 -42.8603 0.3708 0.0000
172.7404 -42.8777 0.4654 0.0000
172.6516 -42.8952 0.1269 0.0000
172.5629 -42.9127 0.0750 0.0000
172.4741 -42.9301 0.3069 0.0000
172.3853 -42.9476 0.1453 0.0000
173.4472 -42.7282 0.3743 6.4013
173.3584 -42.7456 0.8958 6.4013
173.2696 -42.7631 0.6083 6.4013
173.1808 -42.7806 0.0652 6.4013
173.0920 -42.7980 0.0024 6.4013
173.0032 -42.8155 0.0848 6.4013
172.9144 -42.8330 0.7587 6.4013
172.8257 -42.8504 0.1665 6.4013
172.7369 -42.8679 0.2394 6.4013
172.6481 -42.8854 0.0330 6.4013
172.5593 -42.9029 0.1095 6.4013
172.4705 -42.9203 0.1134 6.4013
172.3817 -42.9378 0.6062 6.4013
173.4436 -42.7184 0.0292 12.8025
173.3548 -42.7358 0.4429 12.8025
173.2660 -42.7533 0.3412 12.8025
173.1772 -42.7708 0.4168 12.8025
173.0884 -42.7882 0.3882 12.8025
172.9997 -42.8057 0.2461 12.8025
172.9109 -42.8232 0.0407 12.8025
172.8221 -42.8406 0.1109 12.8025
172.7333 -42.8581 0.0808 12.8025
172.6445 -42.8756 0.5180 12.8025
172.5557 -42.8930 0.1103 12.8025
172.4669 -42.9105 0.0431 12.8025
172.3781 -42.9280 0.3832 12.8025
173.4400 -42.7085 0.1711 19.2038
173.3512 -42.7260 0.4832 19.2038
173.2625 -42.7435 0.5540 19.2038
173.1737 -42.7609 0.1645 19.2038
173.0849 -42.7784 0.0145 19.2038
172.9961 -42.7959 0.2832 19.2038
172.9073 -42.8134 0.2033 19.2038
172.8185 -42.8308 0.0581 19.2038
172.7297 -42.8483 0.0876 19.2038
172.6409 -42.8658 0.3714 19.2038
172.5521 -42.8832 0.1217 19.2038
172.4633 -42.9007 0.0036 19.2038
172.3745 -42.9182 0.0138 19.2038
175.1598 -41.4896 0.1021 0.0000
175.0948 -41.5374 0.1072 0.0000
175.0298 -41.5851 0.0874 0.0000
174.9648 -41.6328 0.0591 0.0000
174.8998 -41.6805 0.0319 0.0000
174.8348 -41.7283 0.3083 0.0000
174.7698 -41.7760 0.1647 0.0000
174.7048 -41.8237 0.3184 0.0000
174.6398 -41.8715 0.5247 0.0000
174.5748 -41.9192 0.1366 0.0000
174.5098 -41.9669 0.0690 0.0000
174.4448 -42.0146 0.4583 0.0000
174.3798 -42.0624 0.7301 0.0000
174.3148 -42.1101 0.5654 0.0000
174.2498 -42.1578 0.6250 0.0000
174.1848 -42.2055 0.7654 0.0000
174.1198 -42.2533 1.0934 0.0000
174.0548 -42.3010 0.7085 0.0000
173.9898 -42.3487 0.8948 0.0000
173.9248 -42.3964 0.7852 0.0000
173.8598 -42.4442 0.1341 0.0000
173.7948 -42.4919 0.1994 0.0000
173.7298 -42.5396 0.4728 0.0000
173.6648 -42.5873 0.0210 0.0000
173.5998 -42.6351 0.1350 0.0000
173.5348 -42.6828 0.4467 0.0000
173.4698 -42.7305 0.0423 0.0000
175.1143 -41.4562 0.0681 3.8206
175.0493 -41.5039 0.0148 3.8206
174.9843 -41.5516 0.1640 3.8206
174.9193 -41.5994 0.1342 3.8206
174.8543 -41.6471 0.0267 3.8206
174.7893 -41.6948 0.0421 3.8206
174.7243 -41.7425 0.5302 3.8206
174.6593 -41.7903 0.0644 3.8206
174.5943 -41.8380 0.0449 3.8206
174.5293 -41.8857 0.0305 3.8206
174.4643 -41.9334 0.2648 3.8206
174.3993 -41.9812 0.2726 3.8206
174.3343 -42.0289 0.6761 3.8206
174.2693 -42.0766 0.8392 3.8206
174.2043 -42.1243 0.7672 3.8206
174.1393 -42.1721 1.6098 3.8206
174.0743 -42.2198 2.8708 3.8206
174.0093 -42.2675 1.9939 3.8206
173.9443 -42.3152 1.7234 3.8206
173.8793 -42.3630 1.4860 3.8206
173.8143 -42.4107 1.2195 3.8206
173.7493 -42.4584 0.2820 3.8206
173.6843 -42.5062 0.1290 3.8206
173.6193 -42.5539 0.3609 3.8206
173.5543 -42.6016 0.0482 3.8206
173.4893 -42.6493 0.2119 3.8206
173.4243 -42.6971 0.1120 3.8206
175.0687 -41.4227 0.2030 7.6412
175.0037 -41.4704 0.2263 7.6412
174.9387 -41.5182 0.0963 7.6412
174.8737 -41.5659 0.1062 7.6412
174.8087 -41.6136 0.1256 7.6412
174.7437 -41.6613 0.0949 7.6412
174.6787 -41.7091 0.1704 7.6412
174.6137 -41.7568 0.1047 7.6412
174.5487 -41.8045 0.2296 7.6412
174.4837 -41.8523 0.4043 7.6412
174.4187 -41.9000 0.1036 7.6412
174.3537 -41.9477 0.1865 7.6412
174.2887 -41.9954 1.0026 7.6412
174.2237 -42.0432 0.7527 7.6412
174.1587 -42.0909 0.8485 7.6412
174.0937 -42.1386 0.9363 7.6412
174.0287 -42.1863 2.0595 7.6412
173.9637 -42.2341 2.3022 7.6412
173.8987 -42.2818 2.4276 7.6412
173.8337 -42.3295 1.6921 7.6412
173.7687 -42.3772 1.5646 7.6412
173.7037 -42.4250 0.7295 7.6412
173.6387 -42.4727 0.1359 7.6412
173.5737 -42.5204 0.3317 7.6412
173.5087 -42.5681 0.6727 7.6412
173.4437 -42.6159 0.2628 7.6412
173.3787 -42.6636 0.5715 7.6412
175.0231 -41.3893 0.0537 11.4618
174.9581 -41.4370 0.0519 11.4618
174.8931 -41.4847 0.1325 11.4618
174.8281 -41.5324 0.1797 11.4618
174.7631 -41.5802 0.0206 11.4618
174.6981 -41.6279 0.2882 11.4618
174.6331 -41.6756 0.2352 11.4618
174.5681 -41.7233 0.1142 11.4618
174.5031 -41.7711 1.0946 11.4618
174.4381 -41.8188 0.5278 11.4618
174.3731 -41.8665 0.3260 11.4618
174.3081 -41.9142 0.0668 11.4618
174.2431 -41.9620 0.4903 11.4618
174.1781 -42.0097 0.1731 11.4618
174.1131 -42.0574 0.2190 11.4618
174.0481 -42.1051 0.4984 11.4618
173.9831 -42.1529 1.4982 11.4618
173.9181 -42.2006 2.4640 11.4618
173.8531 -42.2483 3.3662 11.4618
173.7881 -42.2960 2.6706 11.4618
173.7231 -42.3438 1.5779 11.4618
173.6581 -42.3915 0.5967 11.4618
173.5931 -42.4392 0.8691 11.4618
173.5281 -42.4870 1.0478 11.4618
173.4631 -42.5347 1.2895 11.4618
173.3981 -42.5824 0.9564 11.4618
173.3331 -42.6301 0.3540 11.4618
174.9775 -41.3558 0.0207 15.2824
174.9125 -41.4035 0.0258 15.2824
174.8475 -41.4512 0.2261 15.2824
174.7825 -41.4990 0.8348 15.2824
174.7175 -41.5467 0.1815 15.2824
174.6525 -41.5944 0.0215 15.2824
174.5875 -41.6421 0.0701 15.2824
174.5225 -41.6899 0.4122 15.2824
174.4575 -41.7376 0.5937 15.2824
174.3925 -41.7853 0.0165 15.2824
174.3275 -41.8331 0.1026 15.2824
174.2625 -41.8808 0.5593 15.2824
174.1975 -41.9285 0.4055 15.2824
174.1325 -41.9762 0.1216 15.2824
174.0675 -42.0240 0.3926 15.2824
174.0025 -42.0717 0.4758 15.2824
173.9375 -42.1194 1.8505 15.2824
173.8725 -42.1671 3.2558 15.2824
173.8075 -42.2149 3.4290 15.2824
173.7425 -42.2626 2.2792 15.2824
173.6775 -42.3103 1.6453 15.2824
173.6125 -42.3580 0.3243 15.2824
173.5475 -42.4058 0.4470 15.2824
173.4825 -42.4535 0.3858 15.2824
173.4175 -42.5012 0.7478 15.2824
173.3525 -42.5489 0.5827 15.2824
173.2875 -42.5967 0.1234 15.2824
174.9320 -41.3223 0.0141 19.1030
174.8670 -41.3701 0.1224 19.1030
174.8020 -41.4178 0.1940 19.1030
174.7370 -41.4655 0.8270 19.1030
174.6720 -41.5132 0.4742 19.1030
174.6070 -41.5610 0.0787 19.1030
174.5420 -41.6087 0.1531 19.1030
174.4770 -41.6564 0.6324 19.1030
174.4120 -41.7041 0.6794 19.1030
174.3470 -41.7519 0.9803 19.1030
174.2820 -41.7996 0.1497 19.1030
174.2170 -41.8473 0.4897 19.1030
174.1520 -41.8950 0.3170 19.1030
174.0870 -41.9428 0.5329 19.1030
174.0220 -41.9905 1.2054 19.1030
173.9570 -42.0382 2.0080 19.1030
173.8920 -42.0859 3.0510 19.1030
173.8270 -42.1337 3.8742 19.1030
173.7620 -42.1814 3.7782 19.1030
173.6970 -42.2291 2.5446 19.1030
173.6320 -42.2768 1.9895 19.1030
173.5670 -42.3246 0.4791 19.1030
173.5020 -42.3723 0.1823 19.1030
173.4370 -42.4200 0.1094 19.1030
173.3720 -42.4678 0.2154 19.1030
173.3070 -42.5155 0.1086 19.1030
173.2420 -42.5632 0.0066 19.1030
174.8864 -41.2889 0.0175 22.9236
174.8214 -41.3366 0.6369 22.9236
174.7564 -41.3843 0.5781 22.9236
174.6914 -41.4320 1.1954 22.9236
174.6264 -41.4798 0.1566 22.9236
174.5614 -41.5275 0.1774 22.9236
174.4964 -41.5752 0.1092 22.9236
174.4314 -41.6229 0.2223 22.9236
174.3664 -41.6707 0.1796 22.9236
174.3014 -41.7184 0.2090 22.9236
174.2364 -41.7661 0.3024 22.9236
174.1714 -41.8139 0.7125 22.9236
174.1064 -41.8616 0.9991 22.9236
174.0414 -41.9093 0.9022 22.9236
173.9764 -41.9570 1.5628 22.9236
173.9114 -42.0048 2.1736 22.9236
173.8464 -42.0525 3.6593 22.9236
173.7814 -42.1002 4.6726 22.9236
173.7164 -42.1479 3.6727 22.9236
173.6514 -42.1957 1.9495 22.9236
173.5864 -42.2434 0.9955 22.9236
173.5214 -42.2911 0.8977 22.9236
173.4564 -42.3388 0.1085 22.9236
173.3914 -42.3866 0.8611 22.9236
173.3264 -42.4343 0.3271 22.9236
173.2614 -42.4820 0.0325 22.9236
173.1964 -42.5297 0.0748 22.9236
174.8408 -41.2554 0.1278 26.7442
174.7758 -41.3031 0.0192 26.7442
174.7108 -41.3509 0.8267 26.7442
174.6458 -41.3986 0.3107 26.7442
174.5808 -41.4463 0.0476 26.7442
174.5158 -41.4940 0.0504 26.7442
174.4508 -41.5418 0.1223 26.7442
174.3858 -41.5895 0.0055 26.7442
174.3208 -41.6372 0.1087 26.7442
174.2558 -41.6849 0.1044 26.7442
174.1908 -41.7327 0.5730 26.7442
174.1258 -41.7804 1.1559 26.7442
174.0608 -41.8281 1.1171 26.7442
173.9958 -41.8758 1.4864 26.7442
173.9308 -41.9236 1.5583 26.7442
173.8658 -41.9713 2.8029 26.7442
173.8008 -42.0190 4.5166 26.7442
173.7358 -42.0667 5.2485 26.7442
173.6708 -42.1145 3.7210 26.7442
173.6058 -42.1622 1.2581 26.7442
173.5408 -42.2099 0.0153 26.7442
173.4758 -42.2576 0.2495 26.7442
173.4108 -42.3054 0.4098 26.7442
173.3458 -42.3531 1.7027 26.7442
173.2808 -42.4008 1.3137 26.7442
173.2158 -42.4486 0.1409 26.7442
173.1508 -42.4963 0.1889 26.7442
174.7952 -41.2219 0.0024 30.5648
174.7302 -41.2697 0.1295 30.5648
174.6652 -41.3174 1.0405 30.5648
174.6002 -41.3651 0.1257 30.5648
174.5352 -41.4128 1.0972 30.5648
174.4702 -41.4606 0.0291 30.5648
174.4052 -41.5083 0.7751 30.5648
174.3402 -41.5560 0.2608 30.5648
174.2752 -41.6037 0.2466 30.5648
174.2102 -41.6515 0.7558 30.5648
174.1452 -41.6992 0.7951 30.5648
174.0802 -41.7469 0.8253 30.5648
174.0152 -41.7947 0.8506 30.5648
173.9502 -41.8424 1.4602 30.5648
173.8852 -41.8901 1.3120 30.5648
173.8202 -41.9378 1.9622 30.5648
173.7552 -41.9856 3.4751 30.5648
173.6902 -42.0333 3.7409 30.5648
173.6252 -42.0810 2.0386 30.5648
173.5602 -42.1287 1.2590 30.5648
173.4952 -42.1765 0.3682 30.5648
173.4302 -42.2242 0.4584 30.5648
173.3652 -42.2719 0.5733 30.5648
173.3002 -42.3196 1.7726 30.5648
173.2352 -42.3674 1.5216 30.5648
173.1702 -42.4151 0.7608 30.5648
173.1052 -42.4628 1.6239 30.5648
174.7497 -41.1885 0.1370 34.3854
174.6847 -41.2362 0.1838 34.3854
174.6197 -41.2839 0.0850 34.3854
174.5547 -41.3317 0.0287 34.3854
174.4897 -41.3794 0.2343 34.3854
174.4247 -41.4271 0.0465 34.3854
174.3597 -41.4748 0.0786 34.3854
174.2947 -41.5226 0.3327 34.3854
174.2297 -41.5703 0.0381 34.3854
174.1647 -41.6180 0.0197 34.3854
174.0997 -41.6657 0.0857 34.3854
174.0347 -41.7135 0.2855 34.3854
173.9697 -41.7612 0.7964 34.3854
173.9047 -41.8089 0.7228 34.3854
173.8397 -41.8566 0.7802 34.3854
173.7747 -41.9044 1.2850 34.3854
173.7097 -41.9521 1.8337 34.3854
173.6447 -41.9998 1.1170 34.3854
173.5797 -42.0475 0.1375 34.3854
173.5147 -42.0953 0.8854 34.3854
173.4497 -42.1430 0.2394 34.3854
173.3847 -42.1907 0.3696 34.3854
173.3197 -42.2384 0.0374 34.3854
173.2547 -42.2862 0.1620 34.3854
173.1897 -42.3339 0.0142 34.3854
173.1247 -42.3816 0.2574 34.3854
173.0597 -42.4294 0.1463 34.3854
174.7041 -41.1550 0.1247 38.2060
174.6391 -41.2027 0.1216 38.2060
174.5741 -41.2505 0.0969 38.2060
174.5091 -41.2982 0.0836 38.2060
174.4441 -41.3459 0.1736 38.2060
174.3791 -41.3936 0.1411 38.2060
174.3141 -41.4414 0.1472 38.2060
174.2491 -41.4891 0.1031 38.2060
174.1841 -41.5368 0.0700 38.2060
174.1191 -41.5845 0.1193 38.2060
174.0541 -41.6323 0.0043 38.2060
173.9891 -41.6800 0.1857 38.2060
173.9241 -41.7277 0.1401 38.2060
173.8591 -41.7755 0.3018 38.2060
173.7941 -41.8232 0.3834 38.2060
173.7291 -41.8709 0.8829 38.2060
173.6641 -41.9186 0.4572 38.2060
173.5991 -41.9664 0.5328 38.2060
173.5341 -42.0141 0.8694 38.2060
173.4691 -42.0618 0.4756 38.2060
173.4041 -42.1095 0.0127 38.2060
173.3391 -42.1573 0.0591 38.2060
173.2741 -42.2050 0.3866 38.2060
173.2091 -42.2527 0.0669 38.2060
173.1441 -42.3004 0.0835 38.2060
173.0791 -42.3482 0.0026 38.2060
173.0141 -42.3959 0.0085 38.2060
174.6585 -41.1216 0.0010 42.0266
174.5935 -41.1693 0.0230 42.0266
174.5285 -41.2170 0.0246 42.0266
174.4635 -41.2647 0.0344 42.0266
174.3985 -41.3125 0.0811 42.0266
174.3335 -41.3602 0.0330 42.0266
174.2685 -41.4079 0.1562 42.0266
174.2035 -41.4556 0.3085 42.0266
174.1385 -41.5034 0.1413 42.0266
174.0735 -41.5511 0.0764 42.0266
174.0085 -41.5988 0.1013 42.0266
173.9435 -41.6465 0.1151 42.0266
173.8785 -41.6943 0.3997 42.0266
173.8135 -41.7420 0.3795 42.0266
173.7485 -41.7897 0.0019 42.0266
173.6835 -41.8374 0.3415 42.0266
173.6185 -41.8852 0.8915 42.0266
173.5535 -41.9329 1.2535 42.0266
173.4885 -41.9806 1.3043 42.0266
173.4235 -42.0283 0.4220 42.0266
173.3585 -42.0761 0.4215 42.0266
173.2935 -42.1238 0.2267 42.0266
173.2285 -42.1715 0.1152 42.0266
173.1635 -42.2192 0.0788 42.0266
173.0985 -42.2670 0.0405 42.0266
173.0335 -42.3147 0.0343 42.0266
172.9685 -42.3624 0.1192 42.0266
174.6129 -41.0881 0.0780 45.8472
174.5479 -41.1358 0.0515 45.8472
174.4829 -41.1835 0.0271 45.8472
174.4179 -41.2313 0.1698 45.8472
174.3529 -41.2790 0.0609 45.8472
174.2879 -41.3267 0.2514 45.8472
174.2229 -41.3744 0.1097 45.8472
174.1579 -41.4222 0.0149 45.8472
174.0929 -41.4699 0.5965 45.8472
174.0279 -41.5176 0.2005 45.8472
173.9629 -41.5653 0.2248 45.8472
173.8979 -41.6131 0.0021 45.8472
173.8329 -41.6608 0.1745 45.8472
173.7679 -41.7085 0.5587 45.8472
173.7029 -41.7563 0.2957 45.8472
173.6379 -41.8040 0.0721 45.8472
173.5729 -41.8517 0.5845 45.8472
173.5079 -41.8994 0.4301 45.8472
173.4429 -41.9472 0.5945 45.8472
173.3779 -41.9949 0.1751 45.8472
173.3129 -42.0426 0.2507 45.8472
173.2479 -42.0903 0.0893 45.8472
173.1829 -42.1381 0.0214 45.8472
173.1179 -42.1858 0.1180 45.8472
173.0529 -42.2335 0.0335 45.8472
172.9879 -42.2812 0.1202 45.8472
172.9229 -42.3290 0.1875 45.8472
174.5674 -41.0546 0.5037 49.6679
174.5024 -41.1024 0.0635 49.6679
174.4374 -41.1501 0.0022 49.6679
174.3724 -41.1978 0.2096 49.6679
174.3074 -41.2455 0.0102 49.6679
174.2424 -41.2933 0.0502 49.6679
174.1774 -41.3410 0.0240 49.6679
174.1124 -41.3887 0.0060 49.6679
174.0474 -41.4364 0.4244 49.6679
173.9824 -41.4842 0.3583 49.6679
173.9174 -41.5319 0.2717 49.6679
173.8524 -41.5796 0.1484 49.6679
173.7874 -41.6273 0.6214 49.6679
173.7224 -41.6751 0.2729 49.6679
173.6574 -41.7228 0.1356 49.6679
173.5924 -41.7705 0.2540 49.6679
173.5274 -41.8182 0.3826 49.6679
173.4624 -41.8660 0.2259 49.6679
173.3974 -41.9137 0.1755 49.6679
173.3324 -41.9614 0.0747 49.6679
173.2674 -42.0091 0.1306 49.6679
173.2024 -42.0569 0.0708 49.6679
173.1374 -42.1046 0.0989 49.6679
173.0724 -42.1523 0.1096 49.6679
173.0074 -42.2000 0.2162 49.6679
172.9424 -42.2478 0.6555 49.6679
172.8774 -42.2955 0.0015 49.6679
174.5218 -41.0212 0.4181 53.4885
174.4568 -41.0689 0.1570 53.4885
174.3918 -41.1166 0.2480 53.4885
174.3268 -41.1643 0.3215 53.4885
174.2618 -41.2121 0.0466 53.4885
174.1968 -41.2598 0.1052 53.4885
174.1318 -41.3075 0.3841 53.4885
174.0668 -41.3552 0.0374 53.4885
174.0018 -41.4030 0.2461 53.4885
173.9368 -41.4507 0.1792 53.4885
173.8718 -41.4984 0.0421 53.4885
173.8068 -41.5461 0.3423 53.4885
173.7418 -41.5939 0.0122 53.4885
173.6768 -41.6416 0.2616 53.4885
173.6118 -41.6893 0.2322 53.4885
173.5468 -41.7371 0.0930 53.4885
173.4818 -41.7848 0.0577 53.4885
173.4168 -41.8325 0.0135 53.4885
173.3518 -41.8802 0.0617 53.4885
173.2868 -41.9280 0.1726 53.4885
173.2218 -41.9757 0.1732 53.4885
173.1568 -42.0234 0.0324 53.4885
173.0918 -42.0711 0.1151 53.4885
173.0268 -42.1189 0.0033 53.4885
172.9618 -42.1666 0.1003 53.4885
172.8968 -42.2143 0.1176 53.4885
172.8318 -42.2620 0.0852 53.4885
174.4762 -40.9877 0.0915 57.3091
174.4112 -41.0354 0.2221 57.3091
174.3462 -41.0832 0.1443 57.3091
174.2812 -41.1309 0.1341 57.3091
174.2162 -41.1786 0.4514 57.3091
174.1512 -41.2263 0.1528 57.3091
174.0862 -41.2741 0.1967 57.3091
174.0212 -41.3218 0.2901 57.3091
173.9562 -41.3695 0.0939 57.3091
173.8912 -41.4172 0.0764 57.3091
173.8262 -41.4650 0.5697 57.3091
173.7612 -41.5127 0.2735 57.3091
173.6962 -41.5604 0.5080 57.3091
173.6312 -41.6081 0.0973 57.3091
173.5662 -41.6559 0.1159 57.3091
173.5012 -41.7036 0.0720 57.3091
173.4362 -41.7513 0.3745 57.3091
173.3712 -41.7990 0.0189 57.3091
173.3062 -41.8468 0.0005 57.3091
173.2412 -41.8945 0.0607 57.3091
173.1762 -41.9422 0.7034 57.3091
173.1112 -41.9899 0.2971 57.3091
173.0462 -42.0377 0.2084 57.3091
172.9812 -42.0854 0.2625 57.3091
172.9162 -42.1331 0.1183 57.3091
172.8512 -42.1808 0.0263 57.3091
172.7862 -42.2286 0.0677 57.3091
174.4306 -40.9542 0.0020 61.1297
174.3656 -41.0020 0.3615 61.1297
174.3006 -41.0497 0.3337 61.1297
174.2356 -41.0974 0.0223 61.1297
174.1706 -41.1451 0.0294 61.1297
174.1056 -41.1929 0.0045 61.1297
174.0406 -41.2406 0.0912 61.1297
173.9756 -41.2883 0.8787 61.1297
173.9106 -41.3360 0.4735 61.1297
173.8456 -41.3838 0.1841 61.1297
173.7806 -41.4315 1.5806 61.1297
173.7156 -41.4792 0.6086 61.1297
173.6506 -41.5269 0.3410 61.1297
173.5856 -41.5747 0.0073 61.1297
173.5206 -41.6224 0.0194 61.1297
173.4556 -41.6701 0.0876 61.1297
173.3906 -41.7179 0.0107 61.1297
173.3256 -41.7656 0.0364 61.1297
173.2606 -41.8133 0.1801 61.1297
173.1956 -41.8610 0.1327 61.1297
173.1306 -41.9088 0.1821 61.1297
173.0656 -41.9565 0.0821 61.1297
173.0006 -42.0042 0.0999 61.1297
172.9356 -42.0519 0.0935 61.1297
172.8706 -42.0997 0.0684 61.1297
172.8056 -42.1474 0.0213 61.1297
172.7406 -42.1951 0.1238 61.1297
174.3851 -40.9208 0.5191 64.9503
174.3201 -40.9685 0.1750 64.9503
174.2551 -41.0162 0.3785 64.9503
174.1901 -41.0640 0.1835 64.9503
174.1251 -41.1117 0.1840 64.9503
174.0601 -41.1594 0.0231 64.9503
173.9951 -41.2071 0.1899 64.9503
173.9301 -41.2549 0.6345 64.9503
173.8651 -41.3026 1.0971 64.9503
173.8001 -41.3503 0.2699 64.9503
173.7351 -41.3980 0.9367 64.9503
173.6701 -41.4458 0.2363 64.9503
173.6051 -41.4935 0.1072 64.9503
173.5401 -41.5412 0.1176 64.9503
173.4751 -41.5889 0.0293 64.9503
173.4101 -41.6367 0.4976 64.9503
173.3451 -41.6844 0.2919 64.9503
173.2801 -41.7321 0.0246 64.9503
173.2151 -41.7798 0.7857 64.9503
173.1501 -41.8276 0.9539 64.9503
173.0851 -41.8753 0.0838 64.9503
173.0201 -41.9230 0.0862 64.9503
172.9551 -41.9707 0.4082 64.9503
172.8901 -42.0185 0.0042 64.9503
172.8251 -42.0662 0.0385 64.9503
172.7601 -42.1139 0.0825 64.9503
172.6951 -42.1616 0.1431 64.9503
173.3976 -42.7815 0.3154 0.0000
173.3326 -42.8292 0.3086 0.0000
173.2676 -42.8770 0.2108 0.0000
173.2026 -42.9247 0.0303 0.0000
173.1376 -42.9724 0.0819 0.0000
173.3520 -42.7480 0.2479 3.8206
173.2870 -42.7958 0.1289 3.8206
173.2220 -42.8435 0.1045 3.8206
173.1570 -42.8912 0.1600 3.8206
173.0920 -42.9390 0.1514 3.8206
173.3065 -42.7146 0.4029 7.6412
173.2415 -42.7623 0.6819 7.6412
173.1765 -42.8100 0.3284 7.6412
173.1115 -42.8578 0.2838 7.6412
173.0465 -42.9055 0.3904 7.6412
173.2609 -42.6811 1.2689 11.4618
173.1959 -42.7288 0.5761 11.4618
173.1309 -42.7766 0.1612 11.4618
173.0659 -42.8243 0.0849 11.4618
173.0009 -42.8720 0.1504 11.4618
173.2153 -42.6477 0.0260 15.2824
173.1503 -42.6954 0.0766 15.2824
173.0853 -42.7431 0.1982 15.2824
173.0203 -42.7908 0.4605 15.2824
172.9553 -42.8386 0.0647 15.2824
173.1697 -42.6142 0.0135 19.1030
173.1047 -42.6619 0.2758 19.1030
173.0397 -42.7096 0.1424 19.1030
172.9747 -42.7574 0.2399 19.1030
172.9097 -42.8051 0.0669 19.1030
173.1242 -42.5807 0.3268 22.9236
173.0592 -42.6285 0.4542 22.9236
172.9942 -42.6762 0.1421 22.9236
172.9292 -42.7239 0.0358 22.9236
172.8642 -42.7716 0.0464 22.9236
173.0786 -42.5473 0.1366 26.7442
173.0136 -42.5950 0.7536 26.7442
172.9486 -42.6427 0.2354 26.7442
172.8836 -42.6904 0.1287 26.7442
172.8186 -42.7382 0.4717 26.7442
173.0330 -42.5138 0.0247 30.5648
172.9680 -42.5615 0.0780 30.5648
172.9030 -42.6093 0.0378 30.5648
172.8380 -42.6570 0.0032 30.5648
172.7730 -42.7047 0.2068 30.5648
172.9874 -42.4803 0.0188 34.3854
172.9224 -42.5281 0.0819 34.3854
172.8574 -42.5758 0.0050 34.3854
172.7924 -42.6235 0.0790 34.3854
172.7274 -42.6712 0.0150 34.3854
172.9419 -42.4469 0.1491 38.2060
172.8769 -42.4946 0.0038 38.2060
172.8119 -42.5423 0.0216 38.2060
172.7469 -42.5901 0.0064 38.2060
172.6819 -42.6378 0.1223 38.2060
172.8963 -42.4134 0.0193 42.0266
172.8313 -42.4611 0.1286 42.0266
172.7663 -42.5089 0.1529 42.0266
172.7013 -42.5566 0.1512 42.0266
172.6363 -42.6043 0.0135 42.0266
172.8507 -42.3800 0.0256 45.8472
172.7857 -42.4277 0.0008 45.8472
172.7207 -42.4754 0.0475 45.8472
172.6557 -42.5231 0.1948 45.8472
172.5907 -42.5709 0.1595 45.8472
172.8051 -42.3465 0.1014 49.6679
172.7401 -42.3942 0.0883 49.6679
172.6751 -42.4419 0.0187 49.6679
172.6101 -42.4897 0.1130 49.6679
172.5451 -42.5374 0.0483 49.6679
172.7596 -42.3130 0.0033 53.4885
172.6946 -42.3608 0.0834 53.4885
172.6296 -42.4085 0.1414 53.4885
172.5646 -42.4562 0.1375 53.4885
172.4996 -42.5039 0.0466 53.4885
172.7140 -42.2796 0.0213 57.3091
172.6490 -42.3273 0.2078 57.3091
172.5840 -42.3750 0.0139 57.3091
172.5190 -42.4227 0.1265 57.3091
172.4540 -42.4705 0.0006 57.3091
172.6684 -42.2461 0.0866 61.1297
172.6034 -42.2938 0.1853 61.1297
172.5384 -42.3416 0.0715 61.1297
172.4734 -42.3893 0.2391 61.1297
172.4084 -42.4370 0.1366 61.1297
172.6228 -42.2126 0.3361 64.9503
172.5578 -42.2604 0.0438 64.9503
172.4928 -42.3081 0.1982 64.9503
172.4278 -42.3558 0.1713 64.9503
172.3628 -42.4035 0.1971 64.9503
174.8468 -41.4736 0.2910 1.4100
174.7818 -41.5213 0.2860 1.4100
174.7168 -41.5690 0.5768 1.4100
174.6518 -41.6167 1.4458 1.4100
174.5868 -41.6645 2.1429 1.4100
174.5218 -41.7122 2.7906 1.4100
174.4568 -41.7599 2.5508 1.4100
174.3918 -41.8077 2.3541 1.4100
174.3268 -41.8554 2.4852 1.4100
174.2618 -41.9031 1.9286 1.4100
174.1968 -41.9508 2.4533 1.4100
174.1318 -41.9986 1.9329 1.4100
174.0668 -42.0463 1.0991 1.4100
174.0018 -42.0940 0.8775 1.4100
173.9368 -42.1417 1.2355 1.4100
173.8718 -42.1895 1.3582 1.4100
173.8068 -42.2372 0.8213 1.4100
173.7418 -42.2849 0.5307 1.4100
173.6768 -42.3326 0.0923 1.4100
173.6118 -42.3804 0.1206 1.4100
173.5468 -42.4281 0.2303 1.4100
174.8276 -41.4594 0.8523 7.5180
174.7626 -41.5071 1.2264 7.5180
174.6976 -41.5549 1.5590 7.5180
174.6326 -41.6026 2.3722 7.5180
174.5676 -41.6503 3.0027 7.5180
174.5026 -41.6981 3.7697 7.5180
174.4376 -41.7458 3.5859 7.5180
174.3725 -41.7935 3.3514 7.5180
174.3075 -41.8412 3.2487 7.5180
174.2425 -41.8890 2.7649 7.5180
174.1775 -41.9367 2.3423 7.5180
174.1125 -41.9844 1.9730 7.5180
174.0475 -42.0321 1.6171 7.5180
173.9825 -42.0799 2.0151 7.5180
173.9175 -42.1276 2.1057 7.5180
173.8525 -42.1753 1.4708 7.5180
173.7875 -42.2230 0.8945 7.5180
173.7225 -42.2708 0.4799 7.5180
173.6575 -42.3185 0.2673 7.5180
173.5925 -42.3662 0.2486 7.5180
173.5275 -42.4139 0.5187 7.5180
174.8083 -41.4453 0.0258 13.6260
174.7433 -41.4930 0.0084 13.6260
174.6783 -41.5407 0.3677 13.6260
174.6133 -41.5885 1.6669 13.6260
174.5483 -41.6362 2.3789 13.6260
174.4833 -41.6839 2.6180 13.6260
174.4183 -41.7316 2.2456 13.6260
174.3533 -41.7794 2.3682 13.6260
174.2883 -41.8271 2.1201 13.6260
174.2233 -41.8748 1.7503 13.6260
174.1583 -41.9225 1.5282 13.6260
174.0933 -41.9703 1.4704 13.6260
174.0283 -42.0180 1.0250 13.6260
173.9633 -42.0657 1.5743 13.6260
173.8983 -42.1134 1.8666 13.6260
173.8333 -42.1612 1.4657 13.6260
173.7683 -42.2089 1.4572 13.6260
173.7033 -42.2566 1.4172 13.6260
173.6383 -42.3043 0.4573 13.6260
173.5733 -42.3521 0.1441 13.6260
173.5083 -42.3998 0.7578 13.6260
174.0921 -42.2606 1.0498 20.3700
174.0088 -42.2891 0.2736 20.3700
173.9255 -42.3177 0.5975 20.3700
173.8422 -42.3462 0.4633 20.3700
173.7588 -42.3747 1.0906 20.3700
173.6755 -42.4032 1.1369 20.3700
173.5922 -42.4317 1.0700 20.3700
173.5089 -42.4603 1.0823 20.3700
173.4256 -42.4888 0.0309 20.3700
173.3423 -42.5173 0.4342 20.3700
173.2590 -42.5458 0.8665 20.3700
173.1757 -42.5744 0.4911 20.3700
173.0924 -42.6029 0.3663 20.3700
173.0090 -42.6314 0.5664 20.3700
172.9257 -42.6599 0.7373 20.3700
172.8424 -42.6885 0.0708 20.3700
172.7591 -42.7170 0.2193 20.3700
172.6758 -42.7455 0.1420 20.3700
172.5925 -42.7740 0.3118 20.3700
172.5092 -42.8026 0.9958 20.3700
172.4259 -42.8311 0.8826 20.3700
174.0806 -42.2425 0.4800 26.4780
173.9973 -42.2710 0.4754 26.4780
173.9140 -42.2995 0.3659 26.4780
173.8306 -42.3280 1.6644 26.4780
173.7473 -42.3566 1.6925 26.4780
173.6640 -42.3851 1.2984 26.4780
173.5807 -42.4136 1.0028 26.4780
173.4974 -42.4421 0.6526 26.4780
173.4141 -42.4707 0.0895 26.4780
173.3308 -42.4992 0.4801 26.4780
173.2475 -42.5277 0.9965 26.4780
173.1642 -42.5562 0.1675 26.4780
173.0808 -42.5848 0.0316 26.4780
172.9975 -42.6133 0.9776 26.4780
172.9142 -42.6418 1.1749 26.4780
172.8309 -42.6703 1.0735 26.4780
172.7476 -42.6989 0.1389 26.4780
172.6643 -42.7274 0.5103 26.4780
172.5810 -42.7559 0.4971 26.4780
172.4977 -42.7844 0.2607 26.4780
172.4143 -42.8130 0.0050 26.4780
174.0691 -42.2243 0.1870 32.5860
173.9858 -42.2529 0.2688 32.5860
173.9024 -42.2814 0.0473 32.5860
173.8191 -42.3099 0.7337 32.5860
173.7358 -42.3384 1.2535 32.5860
173.6525 -42.3670 0.8747 32.5860
173.5692 -42.3955 0.6826 32.5860
173.4859 -42.4240 0.1207 32.5860
173.4026 -42.4525 0.1317 32.5860
173.3193 -42.4811 0.0924 32.5860
173.2359 -42.5096 0.0813 32.5860
173.1526 -42.5381 0.0272 32.5860
173.0693 -42.5666 0.2112 32.5860
172.9860 -42.5952 0.0807 32.5860
172.9027 -42.6237 0.3525 32.5860
172.8194 -42.6522 0.1895 32.5860
172.7361 -42.6807 0.0585 32.5860
172.6528 -42.7093 0.2085 32.5860
172.5695 -42.7378 0.0512 32.5860
172.4861 -42.7663 0.0562 32.5860
172.4028 -42.7948 0.1004 32.5860
174.0575 -42.2062 0.5455 38.6940
173.9742 -42.2347 0.3031 38.6940
173.8909 -42.2633 0.1452 38.6940
173.8076 -42.2918 0.2531 38.6940
173.7243 -42.3203 0.5699 38.6940
173.6410 -42.3488 0.4323 38.6940
173.5577 -42.3774 0.1217 38.6940
173.4744 -42.4059 0.2602 38.6940
173.3911 -42.4344 0.2136 38.6940
173.3077 -42.4629 0.0190 38.6940
173.2244 -42.4915 0.3390 38.6940
173.1411 -42.5200 0.1221 38.6940
173.0578 -42.5485 0.2416 38.6940
172.9745 -42.5770 0.1100 38.6940
172.8912 -42.6055 0.1660 38.6940
172.8079 -42.6341 0.0043 38.6940
172.7246 -42.6626 0.0541 38.6940
172.6412 -42.6911 0.2445 38.6940
172.5579 -42.7196 0.0271 38.6940
172.4746 -42.7482 0.1363 38.6940
172.3913 -42.7767 0.1090 38.6940
174.0460 -42.1881 0.4975 44.8020
173.9627 -42.2166 0.0846 44.8020
173.8794 -42.2451 0.0377 44.8020
173.7961 -42.2736 0.2854 44.8020
173.7128 -42.3022 0.0698 44.8020
173.6295 -42.3307 0.1006 44.8020
173.5462 -42.3592 0.0561 44.8020
173.4629 -42.3877 0.1236 44.8020
173.3795 -42.4163 0.1022 44.8020
173.2962 -42.4448 0.0260 44.8020
173.2129 -42.4733 0.0182 44.8020
173.1296 -42.5018 0.1516 44.8020
173.0463 -42.5304 0.1526 44.8020
172.9630 -42.5589 0.0432 44.8020
172.8797 -42.5874 0.1563 44.8020
172.7964 -42.6159 0.0347 44.8020
172.7130 -42.6445 0.0118 44.8020
172.6297 -42.6730 0.0362 44.8020
172.5464 -42.7015 0.0193 44.8020
172.4631 -42.7300 0.0840 44.8020
172.3798 -42.7586 0.2369 44.8020
