-85.1726 9.2797 0.0150 10.5857
-85.2456 9.3338 0.0037 10.5857
-85.3186 9.3880 0.0941 10.5857
-85.3916 9.4421 0.2029 10.5857
-85.4646 9.4963 0.1475 10.5857
-85.5376 9.5504 0.2276 10.5857
-85.6106 9.6046 0.1837 10.5857
-85.6836 9.6588 0.0027 10.5857
-85.7566 9.7129 0.0082 10.5857
-85.8296 9.7671 0.0202 10.5857
-85.9026 9.8212 0.0105 10.5857
-85.9756 9.8754 0.1399 10.5857
-86.0486 9.9296 0.0923 10.5857
-86.1217 9.9837 0.2937 10.5857
-86.1947 10.0379 0.4912 10.5857
-85.1327 9.3318 0.1225 13.9667
-85.2057 9.3859 0.0515 13.9667
-85.2787 9.4401 0.4264 13.9667
-85.3517 9.4942 0.3632 13.9667
-85.4247 9.5484 0.2054 13.9667
-85.4977 9.6026 0.0753 13.9667
-85.5707 9.6567 0.0547 13.9667
-85.6437 9.7109 0.0564 13.9667
-85.7167 9.7650 0.0504 13.9667
-85.7898 9.8192 0.0941 13.9667
-85.8628 9.8734 0.0186 13.9667
-85.9358 9.9275 0.0234 13.9667
-86.0088 9.9817 0.0984 13.9667
-86.0818 10.0358 0.3905 13.9667
-86.1548 10.0900 0.5011 13.9667
-85.0928 9.3839 0.2181 17.3476
-85.1658 9.4380 0.1700 17.3476
-85.2388 9.4922 0.2571 17.3476
-85.3118 9.5463 0.1324 17.3476
-85.3849 9.6005 0.0274 17.3476
-85.4579 9.6547 0.0255 17.3476
-85.5309 9.7088 0.0104 17.3476
-85.6039 9.7630 0.0122 17.3476
-85.6769 9.8171 0.0098 17.3476
-85.7499 9.8713 0.0193 17.3476
-85.8229 9.9255 0.0095 17.3476
-85.8959 9.9796 0.0478 17.3476
-85.9689 10.0338 0.0031 17.3476
-86.0419 10.0879 0.1287 17.3476
-86.1149 10.1421 0.2721 17.3476
-85.0530 9.4360 0.2504 20.7286
-85.1260 9.4901 0.0562 20.7286
-85.1990 9.5443 0.0278 20.7286
-85.2720 9.5985 0.0121 20.7286
-85.3450 9.6526 0.0752 20.7286
-85.4180 9.7068 0.0030 20.7286
-85.4910 9.7609 0.0140 20.7286
-85.5640 9.8151 0.0039 20.7286
-85.6370 9.8693 0.0850 20.7286
-85.7100 9.9234 0.0657 20.7286
-85.7830 9.9776 0.0075 20.7286
-85.8560 10.0317 0.0036 20.7286
-85.9290 10.0859 0.0051 20.7286
-86.0020 10.1400 0.0134 20.7286
-86.0750 10.1942 0.0127 20.7286
-85.0131 9.4881 0.1246 24.1095
-85.0861 9.5423 0.0103 24.1095
-85.1591 9.5964 0.0133 24.1095
-85.2321 9.6506 0.1959 24.1095
-85.3051 9.7047 0.0447 24.1095
-85.3781 9.7589 0.0117 24.1095
-85.4511 9.8130 0.0020 24.1095
-85.5241 9.8672 0.1041 24.1095
-85.5971 9.9214 0.0318 24.1095
-85.6701 9.9755 0.0043 24.1095
-85.7431 10.0297 0.0262 24.1095
-85.8161 10.0838 0.0894 24.1095
-85.8891 10.1380 0.0027 24.1095
-85.9621 10.1922 0.0178 24.1095
-86.0351 10.2463 0.0018 24.1095
-84.9732 9.5402 0.0315 27.4905
-85.0462 9.5944 0.0364 27.4905
-85.1192 9.6485 0.0609 27.4905
-85.1922 9.7027 0.2255 27.4905
-85.2652 9.7568 0.0379 27.4905
-85.3382 9.8110 0.4583 27.4905
-85.4112 9.8652 0.9339 27.4905
-85.4842 9.9193 1.0138 27.4905
-85.5572 9.9735 0.5118 27.4905
-85.6302 10.0276 0.1435 27.4905
-85.7032 10.0818 0.0098 27.4905
-85.7762 10.1360 0.0291 27.4905
-85.8492 10.1901 0.0084 27.4905
-85.9222 10.2443 0.0001 27.4905
-85.9952 10.2984 0.0517 27.4905
-84.9333 9.5923 0.0131 30.8714
-85.0063 9.6465 0.0890 30.8714
-85.0793 9.7006 0.2014 30.8714
-85.1523 9.7548 0.0795 30.8714
-85.2253 9.8089 0.0335 30.8714
-85.2983 9.8631 1.3260 30.8714
-85.3713 9.9173 2.2802 30.8714
-85.4443 9.9714 2.4030 30.8714
-85.5173 10.0256 1.4104 30.8714
-85.5903 10.0797 0.4856 30.8714
-85.6633 10.1339 0.2510 30.8714
-85.7363 10.1881 0.0052 30.8714
-85.8093 10.2422 0.0407 30.8714
-85.8823 10.2964 0.0570 30.8714
-85.9553 10.3505 0.0021 30.8714
-84.8934 9.6444 0.0078 34.2523
-84.9664 9.6986 0.0268 34.2523
-85.0394 9.7527 0.4885 34.2523
-85.1124 9.8069 0.1750 34.2523
-85.1854 9.8611 0.5863 34.2523
-85.2584 9.9152 2.1548 34.2523
-85.3314 9.9694 3.0512 34.2523
-85.4044 10.0235 2.6497 34.2523
-85.4774 10.0777 1.4597 34.2523
-85.5504 10.1319 0.6510 34.2523
-85.6234 10.1860 0.2434 34.2523
-85.6964 10.2402 0.0021 34.2523
-85.7694 10.2943 0.0884 34.2523
-85.8424 10.3485 0.1103 34.2523
-85.9155 10.4026 0.0138 34.2523
-84.8535 9.6965 0.0237 37.6333
-84.9265 9.7507 0.2995 37.6333
-84.9995 9.8048 0.5282 37.6333
-85.0725 9.8590 0.0311 37.6333
-85.1455 9.9132 0.8594 37.6333
-85.2185 9.9673 1.7654 37.6333
-85.2915 10.0215 2.0395 37.6333
-85.3645 10.0756 1.6326 37.6333
-85.4375 10.1298 0.7785 37.6333
-85.5105 10.1840 0.4582 37.6333
-85.5836 10.2381 0.3565 37.6333
-85.6566 10.2923 0.0188 37.6333
-85.7296 10.3464 0.0849 37.6333
-85.8026 10.4006 0.2044 37.6333
-85.8756 10.4548 0.0030 37.6333
-84.8136 9.7486 0.0874 41.0142
-84.8866 9.8028 0.3236 41.0142
-84.9596 9.8570 0.5239 41.0142
-85.0326 9.9111 0.0136 41.0142
-85.1056 9.9653 0.6225 41.0142
-85.1787 10.0194 1.1510 41.0142
-85.2517 10.0736 1.1531 41.0142
-85.3247 10.1278 0.7317 41.0142
-85.3977 10.1819 0.2348 41.0142
-85.4707 10.2361 0.2308 41.0142
-85.5437 10.2902 0.3504 41.0142
-85.6167 10.3444 0.0822 41.0142
-85.6897 10.3986 0.3912 41.0142
-85.7627 10.4527 0.2777 41.0142
-85.8357 10.5069 0.0068 41.0142
-84.7737 9.8008 0.0135 44.3952
-84.8468 9.8549 0.1174 44.3952
-84.9198 9.9091 0.3677 44.3952
-84.9928 9.9632 0.0498 44.3952
-85.0658 10.0174 0.3248 44.3952
-85.1388 10.0715 0.5616 44.3952
-85.2118 10.1257 0.6290 44.3952
-85.2848 10.1799 0.3416 44.3952
-85.3578 10.2340 0.0787 44.3952
-85.4308 10.2882 0.1734 44.3952
-85.5038 10.3423 0.4384 44.3952
-85.5768 10.3965 0.0317 44.3952
-85.6498 10.4507 0.4377 44.3952
-85.7228 10.5048 0.0049 44.3952
-85.7958 10.5590 0.0361 44.3952
-84.7339 9.8529 0.2771 47.7761
-84.8069 9.9070 0.2240 47.7761
-84.8799 9.9612 0.0487 47.7761
-84.9529 10.0153 0.0505 47.7761
-85.0259 10.0695 0.0155 47.7761
-85.0989 10.1237 0.2885 47.7761
-85.1719 10.1778 0.5002 47.7761
-85.2449 10.2320 0.3007 47.7761
-85.3179 10.2861 0.2741 47.7761
-85.3909 10.3403 0.2508 47.7761
-85.4639 10.3945 0.1258 47.7761
-85.5369 10.4486 0.0488 47.7761
-85.6099 10.5028 0.3236 47.7761
-85.6829 10.5569 0.0035 47.7761
-85.7559 10.6111 0.0156 47.7761
-84.6940 9.9050 0.4163 51.1571
-84.7670 9.9591 0.1667 51.1571
-84.8400 10.0133 0.0480 51.1571
-84.9130 10.0674 0.0550 51.1571
-84.9860 10.1216 0.0311 51.1571
-85.0590 10.1758 0.1504 51.1571
-85.1320 10.2299 0.4895 51.1571
-85.2050 10.2841 0.4957 51.1571
-85.2780 10.3382 0.4873 51.1571
-85.3510 10.3924 0.2255 51.1571
-85.4240 10.4466 0.0332 51.1571
-85.4970 10.5007 0.0522 51.1571
-85.5700 10.5549 0.0597 51.1571
-85.6430 10.6090 0.1007 51.1571
-85.7160 10.6632 0.3177 51.1571
-84.6541 9.9571 0.7533 54.5380
-84.7271 10.0112 0.5274 54.5380
-84.8001 10.0654 0.0274 54.5380
-84.8731 10.1196 0.0765 54.5380
-84.9461 10.1737 0.0224 54.5380
-85.0191 10.2279 0.0124 54.5380
-85.0921 10.2820 0.3970 54.5380
-85.1651 10.3362 0.3430 54.5380
-85.2381 10.3904 0.3515 54.5380
-85.3111 10.4445 0.2267 54.5380
-85.3841 10.4987 0.0161 54.5380
-85.4571 10.5528 0.0304 54.5380
-85.5301 10.6070 0.4247 54.5380
-85.6031 10.6611 0.5501 54.5380
-85.6761 10.7153 0.6812 54.5380
-84.6142 10.0092 0.7347 57.9190
-84.6872 10.0634 0.5942 57.9190
-84.7602 10.1175 0.1402 57.9190
-84.8332 10.1717 0.2044 57.9190
-84.9062 10.2258 0.1007 57.9190
-84.9792 10.2800 0.0070 57.9190
-85.0522 10.3341 0.1879 57.9190
-85.1252 10.3883 0.0889 57.9190
-85.1982 10.4425 0.0644 57.9190
-85.2712 10.4966 0.2440 57.9190
-85.3442 10.5508 0.0081 57.9190
-85.4172 10.6049 0.3133 57.9190
-85.4902 10.6591 0.6623 57.9190
-85.5632 10.7133 0.7357 57.9190
-85.6362 10.7674 0.6912 57.9190
