-1.6783 37.7179 0.0025 4.0200
-1.6809 37.7170 0.0042 4.0200
-1.6835 37.7162 0.0082 4.0200
-1.6861 37.7153 0.0140 4.0200
-1.6887 37.7144 0.0165 4.0200
-1.6914 37.7135 0.0169 4.0200
-1.6940 37.7126 0.0170 4.0200
-1.6966 37.7118 0.0153 4.0200
-1.6992 37.7109 0.0133 4.0200
-1.7018 37.7100 0.0114 4.0200
-1.7045 37.7091 0.0061 4.0200
-1.7071 37.7083 0.0035 4.0200
-1.7097 37.7074 0.0022 4.0200
-1.6790 37.7194 0.0027 4.1998
-1.6817 37.7185 0.0053 4.1998
-1.6843 37.7176 0.0126 4.1998
-1.6869 37.7167 0.0215 4.1998
-1.6895 37.7158 0.0276 4.1998
-1.6921 37.7150 0.0302 4.1998
-1.6948 37.7141 0.0313 4.1998
-1.6974 37.7132 0.0299 4.1998
-1.7000 37.7123 0.0258 4.1998
-1.7026 37.7115 0.0206 4.1998
-1.7052 37.7106 0.0119 4.1998
-1.7078 37.7097 0.0055 4.1998
-1.7105 37.7088 0.0027 4.1998
-1.6798 37.7208 0.0030 4.3797
-1.6824 37.7199 0.0062 4.3797
-1.6851 37.7190 0.0160 4.3797
-1.6877 37.7182 0.0303 4.3797
-1.6903 37.7173 0.0398 4.3797
-1.6929 37.7164 0.0440 4.3797
-1.6955 37.7155 0.0465 4.3797
-1.6981 37.7146 0.0465 4.3797
-1.7008 37.7138 0.0424 4.3797
-1.7034 37.7129 0.0334 4.3797
-1.7060 37.7120 0.0208 4.3797
-1.7086 37.7111 0.0100 4.3797
-1.7112 37.7103 0.0037 4.3797
-1.6806 37.7222 0.0024 4.5595
-1.6832 37.7214 0.0061 4.5595
-1.6858 37.7205 0.0184 4.5595
-1.6884 37.7196 0.0356 4.5595
-1.6911 37.7187 0.0465 4.5595
-1.6937 37.7178 0.0540 4.5595
-1.6963 37.7170 0.0584 4.5595
-1.6989 37.7161 0.0607 4.5595
-1.7015 37.7152 0.0579 4.5595
-1.7042 37.7143 0.0483 4.5595
-1.7068 37.7134 0.0314 4.5595
-1.7094 37.7126 0.0134 4.5595
-1.7120 37.7117 0.0040 4.5595
-1.6814 37.7237 0.0017 4.7393
-1.6840 37.7228 0.0054 4.7393
-1.6866 37.7219 0.0185 4.7393
-1.6892 37.7210 0.0364 4.7393
-1.6918 37.7202 0.0492 4.7393
-1.6945 37.7193 0.0590 4.7393
-1.6971 37.7184 0.0667 4.7393
-1.6997 37.7175 0.0701 4.7393
-1.7023 37.7166 0.0681 4.7393
-1.7049 37.7158 0.0576 4.7393
-1.7075 37.7149 0.0369 4.7393
-1.7102 37.7140 0.0139 4.7393
-1.7128 37.7131 0.0029 4.7393
-1.6821 37.7251 0.0010 4.9192
-1.6848 37.7242 0.0038 4.9192
-1.6874 37.7234 0.0160 4.9192
-1.6900 37.7225 0.0347 4.9192
-1.6926 37.7216 0.0493 4.9192
-1.6952 37.7207 0.0602 4.9192
-1.6978 37.7198 0.0686 4.9192
-1.7005 37.7190 0.0732 4.9192
-1.7031 37.7181 0.0711 4.9192
-1.7057 37.7172 0.0600 4.9192
-1.7083 37.7163 0.0369 4.9192
-1.7109 37.7154 0.0133 4.9192
-1.7136 37.7146 0.0026 4.9192
-1.6829 37.7266 0.0006 5.0990
-1.6855 37.7257 0.0028 5.0990
-1.6881 37.7248 0.0131 5.0990
-1.6908 37.7239 0.0302 5.0990
-1.6934 37.7230 0.0447 5.0990
-1.6960 37.7222 0.0565 5.0990
-1.6986 37.7213 0.0643 5.0990
-1.7012 37.7204 0.0700 5.0990
-1.7039 37.7195 0.0675 5.0990
-1.7065 37.7186 0.0551 5.0990
-1.7091 37.7178 0.0319 5.0990
-1.7117 37.7169 0.0109 5.0990
-1.7143 37.7160 0.0022 5.0990
-1.6837 37.7280 0.0009 5.2788
-1.6863 37.7271 0.0025 5.2788
-1.6889 37.7262 0.0092 5.2788
-1.6915 37.7254 0.0228 5.2788
-1.6941 37.7245 0.0368 5.2788
-1.6968 37.7236 0.0469 5.2788
-1.6994 37.7227 0.0545 5.2788
-1.7020 37.7218 0.0587 5.2788
-1.7046 37.7210 0.0572 5.2788
-1.7072 37.7201 0.0453 5.2788
-1.7099 37.7192 0.0246 5.2788
-1.7125 37.7183 0.0073 5.2788
-1.7151 37.7174 0.0016 5.2788
-1.6844 37.7294 0.0013 5.4587
-1.6871 37.7286 0.0020 5.4587
-1.6897 37.7277 0.0059 5.4587
-1.6923 37.7268 0.0154 5.4587
-1.6949 37.7259 0.0266 5.4587
-1.6975 37.7250 0.0342 5.4587
-1.7002 37.7242 0.0410 5.4587
-1.7028 37.7233 0.0450 5.4587
-1.7054 37.7224 0.0418 5.4587
-1.7080 37.7215 0.0305 5.4587
-1.7106 37.7206 0.0148 5.4587
-1.7132 37.7198 0.0045 5.4587
-1.7159 37.7189 0.0019 5.4587
-1.6852 37.7309 0.0011 5.6385
-1.6878 37.7300 0.0014 5.6385
-1.6905 37.7291 0.0033 5.6385
-1.6931 37.7282 0.0091 5.6385
-1.6957 37.7274 0.0153 5.6385
-1.6983 37.7265 0.0209 5.6385
-1.7009 37.7256 0.0248 5.6385
-1.7035 37.7247 0.0281 5.6385
-1.7062 37.7238 0.0246 5.6385
-1.7088 37.7230 0.0162 5.6385
-1.7114 37.7221 0.0068 5.6385
-1.7140 37.7212 0.0030 5.6385
-1.7166 37.7203 0.0017 5.6385
-1.6860 37.7323 0.0010 5.8183
-1.6886 37.7314 0.0013 5.8183
-1.6912 37.7306 0.0028 5.8183
-1.6938 37.7297 0.0055 5.8183
-1.6965 37.7288 0.0081 5.8183
-1.6991 37.7279 0.0102 5.8183
-1.7017 37.7270 0.0131 5.8183
-1.7043 37.7262 0.0142 5.8183
-1.7069 37.7253 0.0120 5.8183
-1.7096 37.7244 0.0082 5.8183
-1.7122 37.7235 0.0039 5.8183
-1.7148 37.7226 0.0024 5.8183
-1.7174 37.7218 0.0014 5.8183
-1.6868 37.7337 0.0016 5.9982
-1.6894 37.7329 0.0022 5.9982
-1.6920 37.7320 0.0034 5.9982
-1.6946 37.7311 0.0049 5.9982
-1.6972 37.7302 0.0060 5.9982
-1.6999 37.7294 0.0065 5.9982
-1.7025 37.7285 0.0078 5.9982
-1.7051 37.7276 0.0073 5.9982
-1.7077 37.7267 0.0070 5.9982
-1.7103 37.7258 0.0053 5.9982
-1.7129 37.7250 0.0032 5.9982
-1.7156 37.7241 0.0022 5.9982
-1.7182 37.7232 0.0014 5.9982
-1.6875 37.7352 0.0023 6.1780
-1.6902 37.7343 0.0030 6.1780
-1.6928 37.7334 0.0049 6.1780
-1.6954 37.7325 0.0078 6.1780
-1.6980 37.7317 0.0086 6.1780
-1.7006 37.7308 0.0085 6.1780
-1.7032 37.7299 0.0084 6.1780
-1.7059 37.7290 0.0080 6.1780
-1.7085 37.7282 0.0076 6.1780
-1.7111 37.7273 0.0060 6.1780
-1.7137 37.7264 0.0035 6.1780
-1.7163 37.7255 0.0022 6.1780
-1.7190 37.7246 0.0021 6.1780
