72.9613 38.4225 0.2968 0.0000
72.9366 38.3977 0.1765 0.0000
72.9119 38.3729 0.9805 0.0000
72.8872 38.3480 1.5092 0.0000
72.8625 38.3232 1.5904 0.0000
72.8378 38.2984 1.6754 0.0000
72.8132 38.2736 2.0882 0.0000
72.7885 38.2488 2.0347 0.0000
72.7638 38.2239 1.6035 0.0000
72.7391 38.1991 1.1798 0.0000
72.7144 38.1743 0.4969 0.0000
72.6897 38.1495 0.0500 0.0000
72.6650 38.1247 0.0749 0.0000
72.6403 38.0998 0.0666 0.0000
72.9601 38.4233 0.8914 3.9976
72.9354 38.3985 1.1243 3.9976
72.9107 38.3736 1.5312 3.9976
72.8860 38.3488 1.8333 3.9976
72.8613 38.3240 2.1917 3.9976
72.8366 38.2992 2.4805 3.9976
72.8119 38.2744 2.5772 3.9976
72.7872 38.2495 2.2901 3.9976
72.7625 38.2247 1.9820 3.9976
72.7378 38.1999 1.5970 3.9976
72.7131 38.1751 0.9372 3.9976
72.6884 38.1503 0.2342 3.9976
72.6637 38.1254 0.1283 3.9976
72.6390 38.1006 0.0406 3.9976
72.9588 38.4240 1.4904 7.9951
72.9341 38.3992 1.5135 7.9951
72.9094 38.3744 1.7016 7.9951
72.8847 38.3496 1.6728 7.9951
72.8600 38.3248 1.6722 7.9951
72.8353 38.2999 1.6813 7.9951
72.8106 38.2751 1.9943 7.9951
72.7859 38.2503 1.9271 7.9951
72.7612 38.2255 1.8902 7.9951
72.7365 38.2007 1.4142 7.9951
72.7118 38.1758 0.8936 7.9951
72.6871 38.1510 0.0353 7.9951
72.6625 38.1262 0.1176 7.9951
72.6378 38.1014 0.2644 7.9951
72.9575 38.4248 1.3444 11.9927
72.9329 38.4000 1.7290 11.9927
72.9082 38.3752 2.1358 11.9927
72.8835 38.3504 1.8966 11.9927
72.8588 38.3255 1.7165 11.9927
72.8341 38.3007 1.0878 11.9927
72.8094 38.2759 1.3845 11.9927
72.7847 38.2511 1.4792 11.9927
72.7600 38.2263 1.5975 11.9927
72.7353 38.2014 1.0661 11.9927
72.7106 38.1766 0.4197 11.9927
72.6859 38.1518 0.0304 11.9927
72.6612 38.1270 0.4164 11.9927
72.6365 38.1022 0.1034 11.9927
72.9563 38.4256 1.1941 15.9903
72.9316 38.4008 1.6144 15.9903
72.9069 38.3760 2.2493 15.9903
72.8822 38.3511 1.8638 15.9903
72.8575 38.3263 1.4411 15.9903
72.8328 38.3015 1.1722 15.9903
72.8081 38.2767 1.2433 15.9903
72.7834 38.2519 1.1632 15.9903
72.7587 38.2270 1.4368 15.9903
72.7340 38.2022 0.9041 15.9903
72.7093 38.1774 0.2549 15.9903
72.6846 38.1526 0.2217 15.9903
72.6599 38.1278 0.2603 15.9903
72.6352 38.1029 0.0114 15.9903
72.9550 38.4264 0.5626 19.9878
72.9303 38.4015 1.2054 19.9878
72.9056 38.3767 1.6137 19.9878
72.8809 38.3519 1.5506 19.9878
72.8562 38.3271 1.0441 19.9878
72.8315 38.3023 1.0603 19.9878
72.8068 38.2774 1.0830 19.9878
72.7822 38.2526 1.2961 19.9878
72.7575 38.2278 1.5396 19.9878
72.7328 38.2030 0.8671 19.9878
72.7081 38.1782 0.0023 19.9878
72.6834 38.1533 0.1407 19.9878
72.6587 38.1285 0.1394 19.9878
72.6340 38.1037 0.3851 19.9878
72.9538 38.4271 0.1418 23.9854
72.9291 38.4023 0.5633 23.9854
72.9044 38.3775 0.7288 23.9854
72.8797 38.3527 0.6184 23.9854
72.8550 38.3279 0.3003 23.9854
72.8303 38.3030 0.1941 23.9854
72.8056 38.2782 0.2474 23.9854
72.7809 38.2534 0.6414 23.9854
72.7562 38.2286 1.1369 23.9854
72.7315 38.2038 0.7657 23.9854
72.7068 38.1789 0.2892 23.9854
72.6821 38.1541 0.0702 23.9854
72.6574 38.1293 0.0910 23.9854
72.6327 38.1045 0.0342 23.9854
72.9525 38.4279 0.2991 27.9829
72.9278 38.4031 0.3600 27.9829
72.9031 38.3783 0.4004 27.9829
72.8784 38.3535 0.2126 27.9829
72.8537 38.3286 0.0345 27.9829
72.8290 38.3038 0.1236 27.9829
72.8043 38.2790 0.1000 27.9829
72.7796 38.2542 0.3011 27.9829
72.7549 38.2294 0.1832 27.9829
72.7302 38.2045 0.2359 27.9829
72.7055 38.1797 0.4937 27.9829
72.6808 38.1549 0.0880 27.9829
72.6561 38.1301 0.0508 27.9829
72.6315 38.1053 0.0888 27.9829
73.0759 38.5063 0.0236 0.0000
73.0456 38.4857 0.0128 0.0000
73.0153 38.4650 0.0066 0.0000
72.9851 38.4443 0.3328 0.0000
73.0722 38.5096 0.1170 3.9702
73.0419 38.4890 0.0381 3.9702
73.0117 38.4683 0.0285 3.9702
72.9814 38.4477 1.1032 3.9702
73.0686 38.5130 0.4807 7.9404
73.0383 38.4923 0.1702 7.9404
73.0080 38.4716 0.0864 7.9404
72.9777 38.4510 1.2146 7.9404
73.0649 38.5163 0.7067 11.9106
73.0346 38.4956 0.4945 11.9106
73.0043 38.4749 0.5842 11.9106
72.9741 38.4543 0.7696 11.9106
73.0612 38.5196 0.6345 15.8807
73.0310 38.4989 0.0587 15.8807
73.0007 38.4782 0.1251 15.8807
72.9704 38.4576 0.3363 15.8807
73.0576 38.5229 0.1828 19.8509
73.0273 38.5022 0.0831 19.8509
72.9970 38.4816 0.0493 19.8509
72.9667 38.4609 0.0650 19.8509
73.0539 38.5262 0.2106 23.8211
73.0236 38.5055 0.1488 23.8211
72.9933 38.4849 0.0298 23.8211
72.9631 38.4642 0.1772 23.8211
73.0502 38.5295 0.2301 27.7913
73.0200 38.5088 0.2210 27.7913
72.9897 38.4882 0.3140 27.7913
72.9594 38.4675 0.0341 27.7913
73.0651 38.5438 0.7739 0.6600
73.0801 38.5730 0.8929 0.6600
73.0951 38.6022 0.9757 0.6600
73.1102 38.6314 0.4448 0.6600
73.1252 38.6606 0.4825 0.6600
73.1402 38.6898 0.1016 0.6600
73.1553 38.7190 0.1335 0.6600
73.1703 38.7482 0.1460 0.6600
73.0688 38.5426 1.6337 4.6448
73.0838 38.5718 1.6394 4.6448
73.0988 38.6011 0.9895 4.6448
73.1139 38.6303 0.0950 4.6448
73.1289 38.6595 0.0926 4.6448
73.1439 38.6887 0.0969 4.6448
73.1590 38.7179 0.1363 4.6448
73.1740 38.7471 0.4071 4.6448
73.0725 38.5415 2.4895 8.6296
73.0875 38.5707 1.9072 8.6296
73.1026 38.5999 0.6171 8.6296
73.1176 38.6291 0.0490 8.6296
73.1326 38.6583 0.0178 8.6296
73.1476 38.6875 0.6804 8.6296
73.1627 38.7167 0.2610 8.6296
73.1777 38.7459 0.1850 8.6296
73.0762 38.5403 2.3110 12.6143
73.0912 38.5695 1.5170 12.6143
73.1063 38.5987 0.4117 12.6143
73.1213 38.6279 0.0215 12.6143
73.1363 38.6571 0.2525 12.6143
73.1513 38.6863 0.6464 12.6143
73.1664 38.7155 0.0795 12.6143
73.1814 38.7447 0.3767 12.6143
73.0799 38.5391 1.6889 16.5991
73.0949 38.5683 1.0767 16.5991
73.1100 38.5975 0.2703 16.5991
73.1250 38.6267 0.0304 16.5991
73.1400 38.6559 0.1214 16.5991
73.1550 38.6851 0.1659 16.5991
73.1701 38.7143 0.0388 16.5991
73.1851 38.7435 0.5487 16.5991
73.0836 38.5379 0.7897 20.5839
73.0986 38.5671 0.3169 20.5839
73.1137 38.5963 0.0868 20.5839
73.1287 38.6256 0.5374 20.5839
73.1437 38.6548 0.7587 20.5839
73.1587 38.6840 0.6355 20.5839
73.1738 38.7132 0.6454 20.5839
73.1888 38.7424 0.8611 20.5839
73.0873 38.5368 0.0957 24.5687
73.1023 38.5660 0.2296 24.5687
73.1174 38.5952 1.1758 24.5687
73.1324 38.6244 1.2877 24.5687
73.1474 38.6536 1.0925 24.5687
73.1625 38.6828 0.8150 24.5687
73.1775 38.7120 1.1906 24.5687
73.1925 38.7412 1.0188 24.5687
73.0910 38.5356 0.0054 28.5535
73.1060 38.5648 0.4914 28.5535
73.1211 38.5940 1.2641 28.5535
73.1361 38.6232 0.8058 28.5535
73.1511 38.6524 0.4299 28.5535
73.1662 38.6816 0.6530 28.5535
73.1812 38.7108 0.9914 28.5535
73.1962 38.7400 0.9905 28.5535
