63.5431 29.0494 0.0934 47.7242
63.5924 29.0622 0.0951 47.7242
63.6416 29.0750 0.0928 47.7242
63.6909 29.0878 0.0955 47.7242
63.7401 29.1006 0.0145 47.7242
63.7894 29.1134 0.0057 47.7242
63.8386 29.1262 0.0302 47.7242
63.8879 29.1390 0.0050 47.7242
63.9371 29.1518 0.0532 47.7242
63.9864 29.1646 0.0154 47.7242
64.0356 29.1774 0.0007 47.7242
64.0849 29.1902 0.0519 47.7242
63.5532 29.0198 0.0922 49.7862
63.6024 29.0326 1.0076 49.7862
63.6516 29.0454 0.8480 49.7862
63.7009 29.0582 0.3176 49.7862
63.7501 29.0710 0.0285 49.7862
63.7994 29.0839 0.0366 49.7862
63.8486 29.0967 0.0277 49.7862
63.8979 29.1095 0.0004 49.7862
63.9471 29.1223 0.0146 49.7862
63.9964 29.1351 0.0390 49.7862
64.0456 29.1479 0.0261 49.7862
64.0949 29.1607 0.0075 49.7862
63.5632 28.9903 0.0995 51.8481
63.6124 29.0031 0.7224 51.8481
63.6617 29.0159 0.4918 51.8481
63.7109 29.0287 0.0010 51.8481
63.7602 29.0415 0.0005 51.8481
63.8094 29.0543 0.0457 51.8481
63.8587 29.0671 0.0222 51.8481
63.9079 29.0799 0.0197 51.8481
63.9571 29.0927 0.0088 51.8481
64.0064 29.1055 0.0009 51.8481
64.0556 29.1183 0.0207 51.8481
64.1049 29.1311 0.0155 51.8481
63.5732 28.9607 0.0799 53.9101
63.6224 28.9735 0.1630 53.9101
63.6717 28.9863 0.0375 53.9101
63.7209 28.9991 0.0472 53.9101
63.7702 29.0119 0.0047 53.9101
63.8194 29.0247 0.0393 53.9101
63.8687 29.0375 0.0951 53.9101
63.9179 29.0503 0.1081 53.9101
63.9672 29.0631 0.0862 53.9101
64.0164 29.0759 0.0369 53.9101
64.0657 29.0887 0.0139 53.9101
64.1149 29.1015 0.0035 53.9101
63.5832 28.9311 0.0803 55.9720
63.6325 28.9439 0.0731 55.9720
63.6817 28.9567 0.0109 55.9720
63.7310 28.9695 0.0324 55.9720
63.7802 28.9823 0.0204 55.9720
63.8294 28.9951 0.2161 55.9720
63.8787 29.0079 0.4443 55.9720
63.9279 29.0207 0.4319 55.9720
63.9772 29.0335 0.1145 55.9720
64.0264 29.0463 0.0034 55.9720
64.0757 29.0591 0.0339 55.9720
64.1249 29.0720 0.0511 55.9720
63.5932 28.9016 0.0304 58.0340
63.6425 28.9144 0.0290 58.0340
63.6917 28.9272 0.0250 58.0340
63.7410 28.9400 0.0211 58.0340
63.7902 28.9528 0.0021 58.0340
63.8395 28.9656 0.7287 58.0340
63.8887 28.9784 1.0315 58.0340
63.9380 28.9912 0.7186 58.0340
63.9872 29.0040 0.2276 58.0340
64.0365 29.0168 0.0176 58.0340
64.0857 29.0296 0.0029 58.0340
64.1349 29.0424 0.0039 58.0340
63.6033 28.8720 0.0111 60.0959
63.6525 28.8848 0.0287 60.0959
63.7017 28.8976 0.0222 60.0959
63.7510 28.9104 0.0335 60.0959
63.8002 28.9232 0.4838 60.0959
63.8495 28.9360 1.2018 60.0959
63.8987 28.9488 1.5061 60.0959
63.9480 28.9616 0.9356 60.0959
63.9972 28.9744 0.2643 60.0959
64.0465 28.9872 0.0007 60.0959
64.0957 29.0000 0.0081 60.0959
64.1450 29.0128 0.0107 60.0959
63.6133 28.8424 0.0946 62.1579
63.6625 28.8552 0.0480 62.1579
63.7118 28.8680 0.0416 62.1579
63.7610 28.8808 0.4111 62.1579
63.8103 28.8936 1.1056 62.1579
63.8595 28.9064 1.7352 62.1579
63.9088 28.9192 2.1539 62.1579
63.9580 28.9320 1.4647 62.1579
64.0072 28.9448 0.3717 62.1579
64.0565 28.9576 0.0015 62.1579
64.1057 28.9704 0.0303 62.1579
64.1550 28.9832 0.0542 62.1579
63.6233 28.8128 0.0066 64.2198
63.6725 28.8256 0.0579 64.2198
63.7218 28.8384 0.2707 64.2198
63.7710 28.8512 1.1444 64.2198
63.8203 28.8641 1.7292 64.2198
63.8695 28.8769 2.5993 64.2198
63.9188 28.8897 3.1547 64.2198
63.9680 28.9025 2.2543 64.2198
64.0173 28.9153 0.6338 64.2198
64.0665 28.9281 0.0047 64.2198
64.1158 28.9409 0.0002 64.2198
64.1650 28.9537 0.0220 64.2198
63.6333 28.7833 0.0166 66.2818
63.6826 28.7961 0.0025 66.2818
63.7318 28.8089 0.2257 66.2818
63.7810 28.8217 1.2691 66.2818
63.8303 28.8345 2.0891 66.2818
63.8795 28.8473 2.6790 66.2818
63.9288 28.8601 3.4302 66.2818
63.9780 28.8729 2.4623 66.2818
64.0273 28.8857 0.6535 66.2818
64.0765 28.8985 0.0312 66.2818
64.1258 28.9113 0.0330 66.2818
64.1750 28.9241 0.0248 66.2818
63.6433 28.7537 0.0281 68.3437
63.6926 28.7665 0.0148 68.3437
63.7418 28.7793 0.2003 68.3437
63.7911 28.7921 0.9031 68.3437
63.8403 28.8049 1.6249 68.3437
63.8896 28.8177 1.7518 68.3437
63.9388 28.8305 2.0333 68.3437
63.9881 28.8433 1.5106 68.3437
64.0373 28.8561 0.2827 68.3437
64.0866 28.8689 0.0132 68.3437
64.1358 28.8817 0.0162 68.3437
64.1850 28.8945 0.0170 68.3437
63.6533 28.7241 0.0820 70.4056
63.7026 28.7369 0.0855 70.4056
63.7518 28.7497 0.0129 70.4056
63.8011 28.7625 0.5564 70.4056
63.8503 28.7753 0.8415 70.4056
63.8996 28.7881 0.7555 70.4056
63.9488 28.8009 0.5642 70.4056
63.9981 28.8137 0.2941 70.4056
64.0473 28.8265 0.0187 70.4056
64.0966 28.8394 0.0054 70.4056
64.1458 28.8522 0.0014 70.4056
64.1951 28.8650 0.0669 70.4056
63.6634 28.6946 0.0426 72.4676
63.7126 28.7074 0.3049 72.4676
63.7619 28.7202 0.0931 72.4676
63.8111 28.7330 0.0318 72.4676
63.8604 28.7458 0.0114 72.4676
63.9096 28.7586 0.0123 72.4676
63.9588 28.7714 0.0052 72.4676
64.0081 28.7842 0.0069 72.4676
64.0573 28.7970 0.0117 72.4676
64.1066 28.8098 0.0054 72.4676
64.1558 28.8226 0.0424 72.4676
64.2051 28.8354 0.0510 72.4676
63.6734 28.6650 0.0154 74.5295
63.7226 28.6778 0.2545 74.5295
63.7719 28.6906 0.0568 74.5295
63.8211 28.7034 0.0114 74.5295
63.8704 28.7162 0.0110 74.5295
63.9196 28.7290 0.0012 74.5295
63.9689 28.7418 0.0091 74.5295
64.0181 28.7546 0.0474 74.5295
64.0674 28.7674 0.0029 74.5295
64.1166 28.7802 0.0055 74.5295
64.1659 28.7930 0.0198 74.5295
64.2151 28.8058 0.0183 74.5295
63.6834 28.6354 0.0198 76.5915
63.7327 28.6482 0.0264 76.5915
63.7819 28.6610 0.0352 76.5915
63.8311 28.6738 0.0028 76.5915
63.8804 28.6866 0.0199 76.5915
63.9296 28.6994 0.0052 76.5915
63.9789 28.7122 0.0135 76.5915
64.0281 28.7250 0.0006 76.5915
64.0774 28.7378 0.0028 76.5915
64.1266 28.7506 0.0087 76.5915
64.1759 28.7634 0.0003 76.5915
64.2251 28.7762 0.0057 76.5915
