95.3158 -5.0014 0.2480 1.6200
95.2257 -4.9952 0.1469 1.6200
95.1356 -4.9889 0.1244 1.6200
95.0455 -4.9826 0.1592 1.6200
94.9553 -4.9763 0.1457 1.6200
94.8652 -4.9701 0.0396 1.6200
94.7751 -4.9638 0.2693 1.6200
94.6850 -4.9575 0.2921 1.6200
94.5949 -4.9512 3.1682 1.6200
94.5048 -4.9449 6.6387 1.6200
94.4147 -4.9387 8.3837 1.6200
94.3246 -4.9324 8.0038 1.6200
94.2345 -4.9261 7.7413 1.6200
94.1444 -4.9198 6.7133 1.6200
94.0543 -4.9136 5.0738 1.6200
93.9642 -4.9073 2.8862 1.6200
93.8741 -4.9010 2.0681 1.6200
93.7840 -4.8947 0.0840 1.6200
93.6939 -4.8884 0.2118 1.6200
93.6038 -4.8822 0.2744 1.6200
93.5137 -4.8759 0.3676 1.6200
93.4236 -4.8696 0.0543 1.6200
93.3335 -4.8633 0.1087 1.6200
93.2434 -4.8571 0.2351 1.6200
93.1533 -4.8508 0.0825 1.6200
95.3161 -4.9968 0.0153 6.5926
95.2260 -4.9905 0.0236 6.5926
95.1359 -4.9842 0.0054 6.5926
95.0458 -4.9779 0.0018 6.5926
94.9557 -4.9716 0.0102 6.5926
94.8656 -4.9654 0.0115 6.5926
94.7755 -4.9591 0.0099 6.5926
94.6854 -4.9528 0.0054 6.5926
94.5953 -4.9465 4.2746 6.5926
94.5052 -4.9403 9.3234 6.5926
94.4151 -4.9340 11.8709 6.5926
94.3250 -4.9277 10.9506 6.5926
94.2348 -4.9214 10.0222 6.5926
94.1447 -4.9151 8.0286 6.5926
94.0546 -4.9089 5.4007 6.5926
93.9645 -4.9026 3.3966 6.5926
93.8744 -4.8963 1.8051 6.5926
93.7843 -4.8900 0.0017 6.5926
93.6942 -4.8838 0.0053 6.5926
93.6041 -4.8775 0.0058 6.5926
93.5140 -4.8712 0.0145 6.5926
93.4239 -4.8649 0.0234 6.5926
93.3338 -4.8586 0.0449 6.5926
93.2437 -4.8524 0.0031 6.5926
93.1536 -4.8461 0.0743 6.5926
95.3164 -4.9921 0.0106 11.5652
95.2263 -4.9858 0.0101 11.5652
95.1362 -4.9795 0.0101 11.5652
95.0461 -4.9732 0.0037 11.5652
94.9560 -4.9670 0.0034 11.5652
94.8659 -4.9607 0.0232 11.5652
94.7758 -4.9544 0.0045 11.5652
94.6857 -4.9481 0.0078 11.5652
94.5956 -4.9418 2.9711 11.5652
94.5055 -4.9356 6.7013 11.5652
94.4154 -4.9293 9.2591 11.5652
94.3253 -4.9230 8.3097 11.5652
94.2352 -4.9167 5.5881 11.5652
94.1451 -4.9105 2.9547 11.5652
94.0550 -4.9042 1.4585 11.5652
93.9649 -4.8979 0.4194 11.5652
93.8748 -4.8916 0.0738 11.5652
93.7847 -4.8853 0.0104 11.5652
93.6946 -4.8791 0.0135 11.5652
93.6045 -4.8728 0.0011 11.5652
93.5143 -4.8665 0.0181 11.5652
93.4242 -4.8602 0.0045 11.5652
93.3341 -4.8540 0.0272 11.5652
93.2440 -4.8477 0.0123 11.5652
93.1539 -4.8414 0.0241 11.5652
95.3167 -4.9874 0.0149 16.5378
95.2266 -4.9811 0.0083 16.5378
95.1365 -4.9748 0.0108 16.5378
95.0464 -4.9685 0.0033 16.5378
94.9563 -4.9623 0.0196 16.5378
94.8662 -4.9560 0.0060 16.5378
94.7761 -4.9497 0.0069 16.5378
94.6860 -4.9434 0.0034 16.5378
94.5959 -4.9371 1.3754 16.5378
94.5058 -4.9309 5.2284 16.5378
94.4157 -4.9246 8.3931 16.5378
94.3256 -4.9183 7.3106 16.5378
94.2355 -4.9120 4.3301 16.5378
94.1454 -4.9058 1.4223 16.5378
94.0553 -4.8995 0.1854 16.5378
93.9652 -4.8932 0.0988 16.5378
93.8751 -4.8869 0.0798 16.5378
93.7850 -4.8807 0.0256 16.5378
93.6949 -4.8744 0.0020 16.5378
93.6048 -4.8681 0.0077 16.5378
93.5147 -4.8618 0.0099 16.5378
93.4246 -4.8555 0.0266 16.5378
93.3345 -4.8493 0.0120 16.5378
93.2444 -4.8430 0.0762 16.5378
93.1543 -4.8367 0.0129 16.5378
95.3171 -4.9827 0.0040 21.5104
95.2270 -4.9764 0.0125 21.5104
95.1369 -4.9701 0.0005 21.5104
95.0468 -4.9638 0.0312 21.5104
94.9567 -4.9576 0.0235 21.5104
94.8666 -4.9513 0.0412 21.5104
94.7765 -4.9450 0.0288 21.5104
94.6864 -4.9387 0.0020 21.5104
94.5962 -4.9325 0.0244 21.5104
94.5061 -4.9262 3.1861 21.5104
94.4160 -4.9199 6.6496 21.5104
94.3259 -4.9136 7.0224 21.5104
94.2358 -4.9073 4.5640 21.5104
94.1457 -4.9011 3.0176 21.5104
94.0556 -4.8948 1.2194 21.5104
93.9655 -4.8885 1.5872 21.5104
93.8754 -4.8822 0.3584 21.5104
93.7853 -4.8760 0.0043 21.5104
93.6952 -4.8697 0.0037 21.5104
93.6051 -4.8634 0.0816 21.5104
93.5150 -4.8571 0.0396 21.5104
93.4249 -4.8508 0.0116 21.5104
93.3348 -4.8446 0.0196 21.5104
93.2447 -4.8383 0.0019 21.5104
93.1546 -4.8320 0.0094 21.5104
95.3174 -4.9780 0.0375 26.4830
95.2273 -4.9717 0.0225 26.4830
95.1372 -4.9654 0.0214 26.4830
95.0471 -4.9592 0.0142 26.4830
94.9570 -4.9529 0.0131 26.4830
94.8669 -4.9466 0.0021 26.4830
94.7768 -4.9403 0.0041 26.4830
94.6867 -4.9340 0.0588 26.4830
94.5966 -4.9278 0.0318 26.4830
94.5065 -4.9215 0.8021 26.4830
94.4164 -4.9152 4.2962 26.4830
94.3263 -4.9089 5.8707 26.4830
94.2362 -4.9027 4.0252 26.4830
94.1461 -4.8964 2.4400 26.4830
94.0560 -4.8901 1.1317 26.4830
93.9659 -4.8838 0.2720 26.4830
93.8758 -4.8775 0.0487 26.4830
93.7856 -4.8713 0.0013 26.4830
93.6955 -4.8650 0.0033 26.4830
93.6054 -4.8587 0.7598 26.4830
93.5153 -4.8524 0.0065 26.4830
93.4252 -4.8462 0.0202 26.4830
93.3351 -4.8399 0.0129 26.4830
93.2450 -4.8336 0.0534 26.4830
93.1549 -4.8273 0.0113 26.4830
95.3177 -4.9733 0.0208 31.4557
95.2276 -4.9670 0.0003 31.4557
95.1375 -4.9607 0.0099 31.4557
95.0474 -4.9545 0.0168 31.4557
94.9573 -4.9482 0.0122 31.4557
94.8672 -4.9419 0.0242 31.4557
94.7771 -4.9356 0.0090 31.4557
94.6870 -4.9293 0.2958 31.4557
94.5969 -4.9231 0.0131 31.4557
94.5068 -4.9168 0.8847 31.4557
94.4167 -4.9105 1.7619 31.4557
94.3266 -4.9042 2.7452 31.4557
94.2365 -4.8980 2.6195 31.4557
94.1464 -4.8917 0.7883 31.4557
94.0563 -4.8854 0.4447 31.4557
93.9662 -4.8791 0.0791 31.4557
93.8761 -4.8729 0.0121 31.4557
93.7860 -4.8666 0.0292 31.4557
93.6959 -4.8603 0.0023 31.4557
93.6058 -4.8540 0.0020 31.4557
93.5157 -4.8477 0.0114 31.4557
93.4256 -4.8415 0.0044 31.4557
93.3355 -4.8352 0.0359 31.4557
93.2454 -4.8289 0.0157 31.4557
93.1553 -4.8226 0.0045 31.4557
95.3181 -4.9686 0.0052 36.4283
95.2280 -4.9623 0.0043 36.4283
95.1379 -4.9560 0.0304 36.4283
95.0478 -4.9498 0.0482 36.4283
94.9577 -4.9435 0.0293 36.4283
94.8675 -4.9372 0.0102 36.4283
94.7774 -4.9309 0.1731 36.4283
94.6873 -4.9247 0.0053 36.4283
94.5972 -4.9184 0.0205 36.4283
94.5071 -4.9121 0.0381 36.4283
94.4170 -4.9058 0.9634 36.4283
94.3269 -4.8995 1.1574 36.4283
94.2368 -4.8933 0.3623 36.4283
94.1467 -4.8870 0.2319 36.4283
94.0566 -4.8807 0.0427 36.4283
93.9665 -4.8744 0.0145 36.4283
93.8764 -4.8682 1.3985 36.4283
93.7863 -4.8619 0.0223 36.4283
93.6962 -4.8556 0.0104 36.4283
93.6061 -4.8493 0.0256 36.4283
93.5160 -4.8430 0.1717 36.4283
93.4259 -4.8368 0.0018 36.4283
93.3358 -4.8305 0.0014 36.4283
93.2457 -4.8242 0.0344 36.4283
93.1556 -4.8179 0.0378 36.4283
95.3184 -4.9639 0.0158 41.4009
95.2283 -4.9576 0.0150 41.4009
95.1382 -4.9514 0.0139 41.4009
95.0481 -4.9451 0.0169 41.4009
94.9580 -4.9388 0.3689 41.4009
94.8679 -4.9325 0.0092 41.4009
94.7778 -4.9262 0.0250 41.4009
94.6877 -4.9200 0.0039 41.4009
94.5976 -4.9137 0.0088 41.4009
94.5075 -4.9074 0.0107 41.4009
94.4174 -4.9011 0.1014 41.4009
94.3273 -4.8949 1.0456 41.4009
94.2372 -4.8886 0.2714 41.4009
94.1470 -4.8823 0.0649 41.4009
94.0569 -4.8760 0.1067 41.4009
93.9668 -4.8697 0.0482 41.4009
93.8767 -4.8635 0.0353 41.4009
93.7866 -4.8572 0.0255 41.4009
93.6965 -4.8509 0.0023 41.4009
93.6064 -4.8446 0.0092 41.4009
93.5163 -4.8384 0.0300 41.4009
93.4262 -4.8321 0.0043 41.4009
93.3361 -4.8258 0.0634 41.4009
93.2460 -4.8195 0.0106 41.4009
93.1559 -4.8132 0.0064 41.4009
