-97.9747 16.1426 0.0000 8.1901
-98.0205 16.1527 0.0000 8.1901
-98.0663 16.1628 0.0000 8.1901
-98.1120 16.1730 0.0000 8.1901
-98.1578 16.1831 0.0000 8.1901
-98.2036 16.1932 0.0000 8.1901
-98.2493 16.2033 0.0000 8.1901
-98.2951 16.2134 0.0000 8.1901
-98.3409 16.2236 0.0000 8.1901
-98.3866 16.2337 0.0000 8.1901
-98.4324 16.2438 0.3000 8.1901
-98.4782 16.2539 0.6000 8.1901
-98.5239 16.2641 0.6000 8.1901
-98.5697 16.2742 0.6000 8.1901
-98.6154 16.2843 0.5000 8.1901
-97.9644 16.1853 0.0000 9.3148
-98.0102 16.1954 0.0000 9.3148
-98.0560 16.2056 0.0000 9.3148
-98.1017 16.2157 0.0000 9.3148
-98.1475 16.2258 0.0000 9.3148
-98.1933 16.2359 0.0000 9.3148
-98.2390 16.2460 0.0000 9.3148
-98.2848 16.2562 0.0000 9.3148
-98.3306 16.2663 0.0000 9.3148
-98.3763 16.2764 0.0000 9.3148
-98.4221 16.2865 0.3000 9.3148
-98.4679 16.2967 0.6000 9.3148
-98.5136 16.3068 0.9000 9.3148
-98.5594 16.3169 0.9000 9.3148
-98.6052 16.3270 0.5000 9.3148
-97.9542 16.2280 0.0000 10.4396
-97.9999 16.2382 0.0000 10.4396
-98.0457 16.2483 0.0000 10.4396
-98.0914 16.2584 0.0000 10.4396
-98.1372 16.2685 0.0000 10.4396
-98.1830 16.2786 0.0000 10.4396
-98.2287 16.2888 0.0000 10.4396
-98.2745 16.2989 0.0000 10.4396
-98.3203 16.3090 0.0000 10.4396
-98.3660 16.3191 0.0000 10.4396
-98.4118 16.3293 0.3000 10.4396
-98.4576 16.3394 0.6000 10.4396
-98.5033 16.3495 0.9000 10.4396
-98.5491 16.3596 0.9000 10.4396
-98.5949 16.3697 0.5000 10.4396
-97.9439 16.2708 0.0000 11.5643
-97.9896 16.2809 0.0000 11.5643
-98.0354 16.2910 0.0000 11.5643
-98.0812 16.3011 0.0000 11.5643
-98.1269 16.3112 0.0000 11.5643
-98.1727 16.3214 0.0000 11.5643
-98.2184 16.3315 0.0000 11.5643
-98.2642 16.3416 0.0000 11.5643
-98.3100 16.3517 0.0000 11.5643
-98.3557 16.3618 0.0000 11.5643
-98.4015 16.3720 0.3000 11.5643
-98.4473 16.3821 0.6000 11.5643
-98.4930 16.3922 0.9000 11.5643
-98.5388 16.4023 0.9000 11.5643
-98.5846 16.4125 0.5000 11.5643
-97.9336 16.3135 0.0000 12.6891
-97.9793 16.3236 0.0000 12.6891
-98.0251 16.3337 0.0000 12.6891
-98.0709 16.3438 0.0000 12.6891
-98.1166 16.3540 0.0000 12.6891
-98.1624 16.3641 0.0000 12.6891
-98.2082 16.3742 0.0000 12.6891
-98.2539 16.3843 0.0000 12.6891
-98.2997 16.3944 0.0000 12.6891
-98.3454 16.4046 0.0000 12.6891
-98.3912 16.4147 0.3000 12.6891
-98.4370 16.4248 0.6000 12.6891
-98.4827 16.4349 0.9000 12.6891
-98.5285 16.4451 0.9000 12.6891
-98.5743 16.4552 0.5000 12.6891
-97.9233 16.3562 0.0000 13.8138
-97.9690 16.3663 0.0000 13.8138
-98.0148 16.3764 0.0000 13.8138
-98.0606 16.3866 0.0000 13.8138
-98.1063 16.3967 0.0000 13.8138
-98.1521 16.4068 0.0000 13.8138
-98.1979 16.4169 0.0000 13.8138
-98.2436 16.4270 0.0000 13.8138
-98.2894 16.4372 0.0000 13.8138
-98.3352 16.4473 0.0000 13.8138
-98.3809 16.4574 0.0000 13.8138
-98.4267 16.4675 0.3000 13.8138
-98.4724 16.4777 0.6000 13.8138
-98.5182 16.4878 0.6000 13.8138
-98.5640 16.4979 0.5000 13.8138
-97.9130 16.3989 0.0000 14.9386
-97.9587 16.4090 0.0000 14.9386
-98.0045 16.4192 0.0000 14.9386
-98.0503 16.4293 0.0000 14.9386
-98.0960 16.4394 0.0000 14.9386
-98.1418 16.4495 0.3000 14.9386
-98.1876 16.4596 0.6000 14.9386
-98.2333 16.4698 0.6000 14.9386
-98.2791 16.4799 0.6000 14.9386
-98.3249 16.4900 0.3000 14.9386
-98.3706 16.5001 0.0000 14.9386
-98.4164 16.5103 0.0000 14.9386
-98.4622 16.5204 0.0000 14.9386
-98.5079 16.5305 0.0000 14.9386
-98.5537 16.5406 0.0000 14.9386
-97.9027 16.4416 0.0000 16.0634
-97.9484 16.4518 0.0000 16.0634
-97.9942 16.4619 0.0000 16.0634
-98.0400 16.4720 0.0000 16.0634
-98.0857 16.4821 0.3000 16.0634
-98.1315 16.4922 0.9000 16.0634
-98.1773 16.5024 1.5000 16.0634
-98.2230 16.5125 1.8000 16.0634
-98.2688 16.5226 1.8000 16.0634
-98.3146 16.5327 1.2000 16.0634
-98.3603 16.5428 0.3000 16.0634
-98.4061 16.5530 0.0000 16.0634
-98.4519 16.5631 0.0000 16.0634
-98.4976 16.5732 0.0000 16.0634
-98.5434 16.5833 0.0000 16.0634
-97.8924 16.4843 0.0000 17.1881
-97.9381 16.4945 0.0000 17.1881
-97.9839 16.5046 0.0000 17.1881
-98.0297 16.5147 0.0000 17.1881
-98.0754 16.5248 0.6000 17.1881
-98.1212 16.5350 1.5000 17.1881
-98.1670 16.5451 2.4000 17.1881
-98.2127 16.5552 3.0000 17.1881
-98.2585 16.5653 3.0000 17.1881
-98.3043 16.5754 2.1000 17.1881
-98.3500 16.5856 0.9000 17.1881
-98.3958 16.5957 0.0000 17.1881
-98.4416 16.6058 0.0000 17.1881
-98.4873 16.6159 0.0000 17.1881
-98.5331 16.6261 0.0000 17.1881
-97.8821 16.5271 0.0000 18.3129
-97.9279 16.5372 0.0000 18.3129
-97.9736 16.5473 0.0000 18.3129
-98.0194 16.5574 0.3000 18.3129
-98.0651 16.5676 0.9000 18.3129
-98.1109 16.5777 2.1000 18.3129
-98.1567 16.5878 3.3000 18.3129
-98.2024 16.5979 3.9000 18.3129
-98.2482 16.6080 3.6000 18.3129
-98.2940 16.6182 2.7000 18.3129
-98.3397 16.6283 1.5000 18.3129
-98.3855 16.6384 0.3000 18.3129
-98.4313 16.6485 0.0000 18.3129
-98.4770 16.6587 0.0000 18.3129
-98.5228 16.6688 0.0000 18.3129
-97.8718 16.5698 0.0000 19.4376
-97.9176 16.5799 0.0000 19.4376
-97.9633 16.5900 0.0000 19.4376
-98.0091 16.6002 0.3000 19.4376
-98.0549 16.6103 1.2000 19.4376
-98.1006 16.6204 2.4000 19.4376
-98.1464 16.6305 3.6000 19.4376
-98.1921 16.6406 4.2000 19.4376
-98.2379 16.6508 3.9000 19.4376
-98.2837 16.6609 3.0000 19.4376
-98.3294 16.6710 1.8000 19.4376
-98.3752 16.6811 0.6000 19.4376
-98.4210 16.6913 0.0000 19.4376
-98.4667 16.7014 0.0000 19.4376
-98.5125 16.7115 0.0000 19.4376
-97.8615 16.6125 0.0000 20.5624
-97.9073 16.6226 0.0000 20.5624
-97.9530 16.6327 0.0000 20.5624
-97.9988 16.6429 0.3000 20.5624
-98.0446 16.6530 1.2000 20.5624
-98.0903 16.6631 2.1000 20.5624
-98.1361 16.6732 3.3000 20.5624
-98.1819 16.6834 3.9000 20.5624
-98.2276 16.6935 3.6000 20.5624
-98.2734 16.7036 2.7000 20.5624
-98.3191 16.7137 1.5000 20.5624
-98.3649 16.7238 0.6000 20.5624
-98.4107 16.7340 0.0000 20.5624
-98.4564 16.7441 0.0000 20.5624
-98.5022 16.7542 0.0000 20.5624
-97.8512 16.6552 0.0000 21.6871
-97.8970 16.6653 0.0000 21.6871
-97.9427 16.6755 0.0000 21.6871
-97.9885 16.6856 0.3000 21.6871
-98.0343 16.6957 0.9000 21.6871
-98.0800 16.7058 1.5000 21.6871
-98.1258 16.7160 2.4000 21.6871
-98.1716 16.7261 3.0000 21.6871
-98.2173 16.7362 2.7000 21.6871
-98.2631 16.7463 1.8000 21.6871
-98.3089 16.7564 0.9000 21.6871
-98.3546 16.7666 0.3000 21.6871
-98.4004 16.7767 0.0000 21.6871
-98.4461 16.7868 0.0000 21.6871
-98.4919 16.7969 0.0000 21.6871
-97.8409 16.6979 0.0000 22.8119
-97.8867 16.7081 0.0000 22.8119
-97.9324 16.7182 0.0000 22.8119
-97.9782 16.7283 0.0000 22.8119
-98.0240 16.7384 0.3000 22.8119
-98.0697 16.7486 0.9000 22.8119
-98.1155 16.7587 1.5000 22.8119
-98.1613 16.7688 1.8000 22.8119
-98.2070 16.7789 1.5000 22.8119
-98.2528 16.7890 0.9000 22.8119
-98.2986 16.7992 0.3000 22.8119
-98.3443 16.8093 0.0000 22.8119
-98.3901 16.8194 0.0000 22.8119
-98.4359 16.8295 0.0000 22.8119
-98.4816 16.8397 0.0000 22.8119
-97.8306 16.7407 0.0000 23.9366
-97.8764 16.7508 0.0000 23.9366
-97.9221 16.7609 0.0000 23.9366
-97.9679 16.7710 0.0000 23.9366
-98.0137 16.7812 0.0000 23.9366
-98.0594 16.7913 0.3000 23.9366
-98.1052 16.8014 0.6000 23.9366
-98.1510 16.8115 0.6000 23.9366
-98.1967 16.8216 0.6000 23.9366
-98.2425 16.8318 0.3000 23.9366
-98.2883 16.8419 0.0000 23.9366
-98.3340 16.8520 0.0000 23.9366
-98.3798 16.8621 0.0000 23.9366
-98.4256 16.8722 0.0000 23.9366
-98.4713 16.8824 0.0000 23.9366
-97.8203 16.7834 0.0000 25.0614
-97.8661 16.7935 0.0000 25.0614
-97.9118 16.8036 0.0000 25.0614
-97.9576 16.8137 0.0000 25.0614
-98.0034 16.8239 0.0000 25.0614
-98.0491 16.8340 0.0000 25.0614
-98.0949 16.8441 0.0000 25.0614
-98.1407 16.8542 0.0000 25.0614
-98.1864 16.8644 0.0000 25.0614
-98.2322 16.8745 0.0000 25.0614
-98.2780 16.8846 0.0000 25.0614
-98.3237 16.8947 0.0000 25.0614
-98.3695 16.9048 0.0000 25.0614
-98.4153 16.9150 0.0000 25.0614
-98.4610 16.9251 0.0000 25.0614
-97.8100 16.8261 0.0000 26.1862
-97.8558 16.8362 0.0000 26.1862
-97.9016 16.8463 0.0000 26.1862
-97.9473 16.8565 0.0000 26.1862
-97.9931 16.8666 0.0000 26.1862
-98.0388 16.8767 0.0000 26.1862
-98.0846 16.8868 0.0000 26.1862
-98.1304 16.8970 0.0000 26.1862
-98.1761 16.9071 0.0000 26.1862
-98.2219 16.9172 0.0000 26.1862
-98.2677 16.9273 0.0000 26.1862
-98.3134 16.9374 0.0000 26.1862
-98.3592 16.9476 0.0000 26.1862
-98.4050 16.9577 0.0000 26.1862
-98.4507 16.9678 0.0000 26.1862
-97.7997 16.8688 0.0000 27.3109
-97.8455 16.8789 0.0000 27.3109
-97.8913 16.8891 0.0000 27.3109
-97.9370 16.8992 0.0000 27.3109
-97.9828 16.9093 0.0000 27.3109
-98.0286 16.9194 0.0000 27.3109
-98.0743 16.9296 0.0000 27.3109
-98.1201 16.9397 0.0000 27.3109
-98.1658 16.9498 0.0000 27.3109
-98.2116 16.9599 0.0000 27.3109
-98.2574 16.9700 0.0000 27.3109
-98.3031 16.9802 0.0000 27.3109
-98.3489 16.9903 0.0000 27.3109
-98.3947 17.0004 0.0000 27.3109
-98.4404 17.0105 0.0000 27.3109
-97.7894 16.9115 0.0000 28.4357
-97.8352 16.9217 0.0000 28.4357
-97.8810 16.9318 0.0000 28.4357
-97.9267 16.9419 0.0000 28.4357
-97.9725 16.9520 0.0000 28.4357
-98.0183 16.9622 0.0000 28.4357
-98.0640 16.9723 0.0000 28.4357
-98.1098 16.9824 0.0000 28.4357
-98.1556 16.9925 0.0000 28.4357
-98.2013 17.0026 0.0000 28.4357
-98.2471 17.0128 0.0000 28.4357
-98.2928 17.0229 0.0000 28.4357
-98.3386 17.0330 0.0000 28.4357
-98.3844 17.0431 0.0000 28.4357
-98.4301 17.0532 0.0000 28.4357
-97.7791 16.9543 0.0000 29.5604
-97.8249 16.9644 0.0000 29.5604
-97.8707 16.9745 0.0000 29.5604
-97.9164 16.9846 0.0000 29.5604
-97.9622 16.9947 0.0000 29.5604
-98.0080 17.0049 0.0000 29.5604
-98.0537 17.0150 0.0000 29.5604
-98.0995 17.0251 0.0000 29.5604
-98.1453 17.0352 0.0000 29.5604
-98.1910 17.0454 0.0000 29.5604
-98.2368 17.0555 0.0000 29.5604
-98.2826 17.0656 0.0000 29.5604
-98.3283 17.0757 0.0000 29.5604
-98.3741 17.0858 0.0000 29.5604
-98.4198 17.0960 0.0000 29.5604
