167.6925 -18.7485 0.0141 7.1644
167.6857 -18.6949 0.0013 7.1644
167.6789 -18.6413 0.0730 7.1644
167.6721 -18.5877 0.0532 7.1644
167.6653 -18.5341 0.0632 7.1644
167.6585 -18.4804 0.0616 7.1644
167.6517 -18.4268 0.0596 7.1644
167.6449 -18.3732 0.0087 7.1644
167.6381 -18.3196 0.0045 7.1644
167.6313 -18.2660 0.0135 7.1644
167.6245 -18.2124 0.0160 7.1644
167.6177 -18.1588 0.0607 7.1644
167.6110 -18.1052 0.0264 7.1644
167.6042 -18.0516 0.0046 7.1644
167.5974 -17.9980 0.0014 7.1644
167.5906 -17.9444 0.0060 7.1644
167.5838 -17.8907 0.0143 7.1644
167.7421 -18.7428 0.0029 10.0190
167.7353 -18.6892 0.0202 10.0190
167.7285 -18.6356 0.0004 10.0190
167.7217 -18.5820 0.0423 10.0190
167.7149 -18.5284 0.0023 10.0190
167.7082 -18.4748 0.0422 10.0190
167.7014 -18.4212 0.0108 10.0190
167.6946 -18.3676 0.0061 10.0190
167.6878 -18.3139 0.0093 10.0190
167.6810 -18.2603 0.0105 10.0190
167.6742 -18.2067 0.0055 10.0190
167.6674 -18.1531 0.0028 10.0190
167.6606 -18.0995 0.0042 10.0190
167.6538 -18.0459 0.0028 10.0190
167.6470 -17.9923 0.0032 10.0190
167.6402 -17.9387 0.0021 10.0190
167.6334 -17.8851 0.0014 10.0190
167.7918 -18.7371 0.0063 12.8737
167.7850 -18.6835 0.0466 12.8737
167.7782 -18.6299 0.0189 12.8737
167.7714 -18.5763 0.0098 12.8737
167.7646 -18.5227 0.0137 12.8737
167.7578 -18.4691 0.0136 12.8737
167.7510 -18.4155 0.0283 12.8737
167.7442 -18.3619 0.0126 12.8737
167.7374 -18.3083 0.0002 12.8737
167.7306 -18.2547 0.0396 12.8737
167.7239 -18.2011 0.0082 12.8737
167.7171 -18.1474 0.0136 12.8737
167.7103 -18.0938 0.0043 12.8737
167.7035 -18.0402 0.0236 12.8737
167.6967 -17.9866 0.0006 12.8737
167.6899 -17.9330 0.0107 12.8737
167.6831 -17.8794 0.0056 12.8737
167.8414 -18.7315 0.0543 15.7284
167.8346 -18.6779 0.0718 15.7284
167.8278 -18.6243 0.0013 15.7284
167.8210 -18.5706 0.0015 15.7284
167.8143 -18.5170 0.0060 15.7284
167.8075 -18.4634 0.0032 15.7284
167.8007 -18.4098 0.0011 15.7284
167.7939 -18.3562 0.0097 15.7284
167.7871 -18.3026 0.0175 15.7284
167.7803 -18.2490 0.0017 15.7284
167.7735 -18.1954 0.0036 15.7284
167.7667 -18.1418 0.0001 15.7284
167.7599 -18.0882 0.0058 15.7284
167.7531 -18.0346 0.0062 15.7284
167.7463 -17.9809 0.3485 15.7284
167.7395 -17.9273 0.4156 15.7284
167.7328 -17.8737 0.0000 15.7284
167.8911 -18.7258 0.0552 18.5830
167.8843 -18.6722 0.0210 18.5830
167.8775 -18.6186 0.0016 18.5830
167.8707 -18.5650 0.0604 18.5830
167.8639 -18.5114 0.0037 18.5830
167.8571 -18.4578 0.0010 18.5830
167.8503 -18.4041 0.0180 18.5830
167.8435 -18.3505 0.0741 18.5830
167.8367 -18.2969 0.0203 18.5830
167.8300 -18.2433 0.0518 18.5830
167.8232 -18.1897 0.0236 18.5830
167.8164 -18.1361 0.0010 18.5830
167.8096 -18.0825 0.0229 18.5830
167.8028 -18.0289 0.0062 18.5830
167.7960 -17.9753 0.3156 18.5830
167.7892 -17.9217 0.3899 18.5830
167.7824 -17.8681 0.0034 18.5830
167.9407 -18.7201 0.0573 21.4377
167.9339 -18.6665 0.0041 21.4377
167.9272 -18.6129 0.0122 21.4377
167.9204 -18.5593 0.0014 21.4377
167.9136 -18.5057 0.0068 21.4377
167.9068 -18.4521 0.1962 21.4377
167.9000 -18.3985 0.2365 21.4377
167.8932 -18.3449 0.2919 21.4377
167.8864 -18.2913 0.3346 21.4377
167.8796 -18.2376 0.2721 21.4377
167.8728 -18.1840 0.1884 21.4377
167.8660 -18.1304 0.1555 21.4377
167.8592 -18.0768 0.2187 21.4377
167.8524 -18.0232 0.0434 21.4377
167.8457 -17.9696 0.0104 21.4377
167.8389 -17.9160 0.2042 21.4377
167.8321 -17.8624 0.0736 21.4377
167.9904 -18.7145 0.0913 24.2924
167.9836 -18.6608 0.0121 24.2924
167.9768 -18.6072 0.0020 24.2924
167.9700 -18.5536 0.0019 24.2924
167.9632 -18.5000 0.0900 24.2924
167.9564 -18.4464 0.3375 24.2924
167.9496 -18.3928 0.3254 24.2924
167.9429 -18.3392 0.2814 24.2924
167.9361 -18.2856 0.3858 24.2924
167.9293 -18.2320 0.2728 24.2924
167.9225 -18.1784 0.1211 24.2924
167.9157 -18.1248 0.1650 24.2924
167.9089 -18.0711 0.2047 24.2924
167.9021 -18.0175 0.0693 24.2924
167.8953 -17.9639 0.0013 24.2924
167.8885 -17.9103 0.0250 24.2924
167.8817 -17.8567 0.0702 24.2924
168.0401 -18.7088 0.0011 27.1470
168.0333 -18.6552 0.0451 27.1470
168.0265 -18.6016 0.0043 27.1470
168.0197 -18.5480 0.0039 27.1470
168.0129 -18.4943 0.3124 27.1470
168.0061 -18.4407 0.4093 27.1470
167.9993 -18.3871 0.4518 27.1470
167.9925 -18.3335 0.3069 27.1470
167.9857 -18.2799 0.1445 27.1470
167.9789 -18.2263 0.2236 27.1470
167.9721 -18.1727 0.1034 27.1470
167.9653 -18.1191 0.0177 27.1470
167.9585 -18.0655 0.1912 27.1470
167.9518 -18.0119 0.1574 27.1470
167.9450 -17.9583 0.0013 27.1470
167.9382 -17.9046 0.0014 27.1470
167.9314 -17.8510 0.0116 27.1470
168.0897 -18.7031 0.0119 30.0017
168.0829 -18.6495 0.0693 30.0017
168.0761 -18.5959 0.0015 30.0017
168.0693 -18.5423 0.0056 30.0017
168.0625 -18.4887 0.2044 30.0017
168.0557 -18.4351 0.4047 30.0017
168.0490 -18.3815 0.4712 30.0017
168.0422 -18.3278 0.4238 30.0017
168.0354 -18.2742 0.3200 30.0017
168.0286 -18.2206 0.2056 30.0017
168.0218 -18.1670 0.1220 30.0017
168.0150 -18.1134 0.0387 30.0017
168.0082 -18.0598 0.0848 30.0017
168.0014 -18.0062 0.0586 30.0017
167.9946 -17.9526 0.0023 30.0017
167.9878 -17.8990 0.0140 30.0017
167.9810 -17.8454 0.0921 30.0017
168.1394 -18.6974 0.0027 32.8564
168.1326 -18.6438 0.0037 32.8564
168.1258 -18.5902 0.0158 32.8564
168.1190 -18.5366 0.0003 32.8564
168.1122 -18.4830 0.1386 32.8564
168.1054 -18.4294 0.4019 32.8564
168.0986 -18.3758 0.5172 32.8564
168.0918 -18.3222 0.5228 32.8564
168.0850 -18.2686 0.3800 32.8564
168.0782 -18.2150 0.4735 32.8564
168.0714 -18.1613 0.3876 32.8564
168.0647 -18.1077 0.2861 32.8564
168.0579 -18.0541 0.2177 32.8564
168.0511 -18.0005 0.0787 32.8564
168.0443 -17.9469 0.0020 32.8564
168.0375 -17.8933 0.0194 32.8564
168.0307 -17.8397 0.0171 32.8564
168.1890 -18.6918 0.0356 35.7110
168.1822 -18.6382 0.0030 35.7110
168.1754 -18.5845 0.0079 35.7110
168.1686 -18.5309 0.0031 35.7110
168.1619 -18.4773 0.0006 35.7110
168.1551 -18.4237 0.2500 35.7110
168.1483 -18.3701 0.4540 35.7110
168.1415 -18.3165 0.6326 35.7110
168.1347 -18.2629 0.7552 35.7110
168.1279 -18.2093 0.8226 35.7110
168.1211 -18.1557 0.5992 35.7110
168.1143 -18.1021 0.3736 35.7110
168.1075 -18.0485 0.2976 35.7110
168.1007 -17.9948 0.0002 35.7110
168.0939 -17.9412 0.0008 35.7110
168.0871 -17.8876 0.0046 35.7110
168.0803 -17.8340 0.0078 35.7110
168.2387 -18.6861 0.0589 38.5657
168.2319 -18.6325 0.0013 38.5657
168.2251 -18.5789 0.0055 38.5657
168.2183 -18.5253 0.0019 38.5657
168.2115 -18.4717 0.0014 38.5657
168.2047 -18.4180 0.2704 38.5657
168.1979 -18.3644 0.4249 38.5657
168.1911 -18.3108 0.6945 38.5657
168.1843 -18.2572 0.9326 38.5657
168.1775 -18.2036 0.8626 38.5657
168.1708 -18.1500 0.7568 38.5657
168.1640 -18.0964 0.4449 38.5657
168.1572 -18.0428 0.2185 38.5657
168.1504 -17.9892 0.0093 38.5657
168.1436 -17.9356 0.1696 38.5657
168.1368 -17.8820 0.2653 38.5657
168.1300 -17.8283 0.0446 38.5657
168.2883 -18.6804 0.0366 41.4204
168.2815 -18.6268 0.1075 41.4204
168.2747 -18.5732 0.0044 41.4204
168.2680 -18.5196 0.0286 41.4204
168.2612 -18.4660 0.0114 41.4204
168.2544 -18.4124 0.0003 41.4204
168.2476 -18.3588 0.0039 41.4204
168.2408 -18.3052 0.4421 41.4204
168.2340 -18.2515 0.6792 41.4204
168.2272 -18.1979 0.6917 41.4204
168.2204 -18.1443 0.4524 41.4204
168.2136 -18.0907 0.3018 41.4204
168.2068 -18.0371 0.0100 41.4204
168.2000 -17.9835 0.0103 41.4204
168.1932 -17.9299 0.3195 41.4204
168.1865 -17.8763 0.2503 41.4204
168.1797 -17.8227 0.0261 41.4204
168.3380 -18.6747 0.0121 44.2750
168.3312 -18.6211 0.0578 44.2750
168.3244 -18.5675 0.0510 44.2750
168.3176 -18.5139 0.1149 44.2750
168.3108 -18.4603 0.0123 44.2750
168.3040 -18.4067 0.0186 44.2750
168.2972 -18.3531 0.0045 44.2750
168.2904 -18.2995 0.0123 44.2750
168.2837 -18.2459 0.2647 44.2750
168.2769 -18.1923 0.3326 44.2750
168.2701 -18.1387 0.2792 44.2750
168.2633 -18.0850 0.1233 44.2750
168.2565 -18.0314 0.0051 44.2750
168.2497 -17.9778 0.0080 44.2750
168.2429 -17.9242 0.2556 44.2750
168.2361 -17.8706 0.0043 44.2750
168.2293 -17.8170 0.0136 44.2750
168.3876 -18.6691 0.0892 47.1297
168.3809 -18.6155 0.0985 47.1297
168.3741 -18.5619 0.0141 47.1297
168.3673 -18.5082 0.0442 47.1297
168.3605 -18.4546 0.0759 47.1297
168.3537 -18.4010 0.0012 47.1297
168.3469 -18.3474 0.0026 47.1297
168.3401 -18.2938 0.0026 47.1297
168.3333 -18.2402 0.0010 47.1297
168.3265 -18.1866 0.0002 47.1297
168.3197 -18.1330 0.0075 47.1297
168.3129 -18.0794 0.0050 47.1297
168.3061 -18.0258 0.0066 47.1297
168.2994 -17.9722 0.0018 47.1297
168.2926 -17.9185 0.0614 47.1297
168.2858 -17.8649 0.0194 47.1297
168.2790 -17.8113 0.0214 47.1297
