144.5308 39.5653 0.0521 7.3716
144.4424 39.3513 0.4630 7.3716
144.3541 39.1373 2.2978 7.3716
144.2657 38.9234 6.3291 7.3716
144.1774 38.7094 11.7156 7.3716
144.0890 38.4954 17.7521 7.3716
144.0007 38.2815 25.5319 7.3716
143.9123 38.0675 29.4686 7.3716
143.8240 37.8535 31.7965 7.3716
143.7356 37.6395 27.7254 7.3716
143.6473 37.4256 21.2279 7.3716
143.5589 37.2116 15.8844 7.3716
143.4706 36.9976 12.0579 7.3716
143.3822 36.7837 8.8713 7.3716
143.2939 36.5697 6.9415 7.3716
143.2056 36.3557 4.7866 7.3716
143.1172 36.1418 4.3878 7.3716
143.0289 35.9278 2.6912 7.3716
142.9405 35.7138 1.5298 7.3716
144.3165 39.6201 0.1174 10.8446
144.2282 39.4061 2.0635 10.8446
144.1398 39.1921 4.2183 10.8446
144.0515 38.9781 11.1691 10.8446
143.9632 38.7642 20.7381 10.8446
143.8748 38.5502 30.9874 10.8446
143.7865 38.3362 44.5161 10.8446
143.6981 38.1223 51.0796 10.8446
143.6098 37.9083 51.2824 10.8446
143.5214 37.6943 43.4993 10.8446
143.4331 37.4804 32.0741 10.8446
143.3447 37.2664 22.9628 10.8446
143.2564 37.0524 17.8513 10.8446
143.1680 36.8384 13.8381 10.8446
143.0797 36.6245 10.7410 10.8446
142.9913 36.4105 7.3415 10.8446
142.9030 36.1965 6.2461 10.8446
142.8146 35.9826 4.7275 10.8446
142.7263 35.7686 2.5049 10.8446
144.1023 39.6748 0.1239 14.3175
144.0140 39.4609 3.2014 14.3175
143.9256 39.2469 5.0119 14.3175
143.8373 39.0329 13.2115 14.3175
143.7489 38.8189 24.3164 14.3175
143.6606 38.6050 35.3765 14.3175
143.5722 38.3910 48.9286 14.3175
143.4839 38.1770 55.9859 14.3175
143.3955 37.9631 55.4567 14.3175
143.3072 37.7491 45.6421 14.3175
143.2189 37.5351 32.1760 14.3175
143.1305 37.3212 20.8231 14.3175
143.0422 37.1072 15.2618 14.3175
142.9538 36.8932 12.6674 14.3175
142.8655 36.6792 10.1960 14.3175
142.7771 36.4653 8.1827 14.3175
142.6888 36.2513 7.0768 14.3175
142.6004 36.0373 4.6560 14.3175
142.5121 35.8234 1.7321 14.3175
143.8881 39.7296 0.1679 17.7905
143.7998 39.5156 1.0382 17.7905
143.7114 39.3017 3.3891 17.7905
143.6231 39.0877 11.1855 17.7905
143.5347 38.8737 21.4622 17.7905
143.4464 38.6598 32.8475 17.7905
143.3580 38.4458 43.7450 17.7905
143.2697 38.2318 49.5867 17.7905
143.1813 38.0178 49.3243 17.7905
143.0930 37.8039 40.3300 17.7905
143.0046 37.5899 27.5457 17.7905
142.9163 37.3759 17.6181 17.7905
142.8279 37.1620 9.3926 17.7905
142.7396 36.9480 8.0815 17.7905
142.6512 36.7340 7.8829 17.7905
142.5629 36.5200 6.7406 17.7905
142.4746 36.3061 5.5364 17.7905
142.3862 36.0921 3.7668 17.7905
142.2979 35.8781 1.6309 17.7905
143.6739 39.7844 0.0019 21.2635
143.5855 39.5704 0.0231 21.2635
143.4972 39.3564 1.1340 21.2635
143.4088 39.1425 9.5242 21.2635
143.3205 38.9285 14.6321 21.2635
143.2321 38.7145 23.6939 21.2635
143.1438 38.5006 32.9718 21.2635
143.0555 38.2866 39.3975 21.2635
142.9671 38.0726 42.6017 21.2635
142.8788 37.8586 34.5078 21.2635
142.7904 37.6447 21.7636 21.2635
142.7021 37.4307 15.2563 21.2635
142.6137 37.2167 11.8241 21.2635
142.5254 37.0028 6.0710 21.2635
142.4370 36.7888 3.9956 21.2635
142.3487 36.5748 3.9669 21.2635
142.2603 36.3608 4.6558 21.2635
142.1720 36.1469 3.5031 21.2635
142.0836 35.9329 1.1380 21.2635
143.4597 39.8392 0.4714 24.7364
143.3713 39.6252 0.0070 24.7364
143.2830 39.4112 0.1154 24.7364
143.1946 39.1972 8.2563 24.7364
143.1063 38.9833 11.2332 24.7364
143.0179 38.7693 17.4976 24.7364
142.9296 38.5553 26.4746 24.7364
142.8412 38.3414 35.7309 24.7364
142.7529 38.1274 36.0396 24.7364
142.6645 37.9134 29.7463 24.7364
142.5762 37.6994 18.2296 24.7364
142.4879 37.4855 11.2196 24.7364
142.3995 37.2715 9.1101 24.7364
142.3112 37.0575 3.8348 24.7364
142.2228 36.8436 0.5723 24.7364
142.1345 36.6296 0.2831 24.7364
142.0461 36.4156 2.4701 24.7364
141.9578 36.2017 2.8663 24.7364
141.8694 35.9877 0.7441 24.7364
143.2454 39.8939 2.9153 28.2094
143.1571 39.6800 6.1908 28.2094
143.0688 39.4660 5.2620 28.2094
142.9804 39.2520 5.7011 28.2094
142.8921 39.0380 8.9484 28.2094
142.8037 38.8241 12.0633 28.2094
142.7154 38.6101 18.9110 28.2094
142.6270 38.3961 27.5713 28.2094
142.5387 38.1822 28.9429 28.2094
142.4503 37.9682 23.9689 28.2094
142.3620 37.7542 13.5832 28.2094
142.2736 37.5402 4.4788 28.2094
142.1853 37.3263 0.0884 28.2094
142.0969 37.1123 2.3883 28.2094
142.0086 36.8983 0.0824 28.2094
141.9202 36.6844 0.7560 28.2094
141.8319 36.4704 3.9794 28.2094
141.7436 36.2564 5.1253 28.2094
141.6552 36.0425 2.2055 28.2094
143.0312 39.9487 2.9845 31.6824
142.9429 39.7347 11.1301 31.6824
142.8545 39.5208 11.7257 31.6824
142.7662 39.3068 8.7415 31.6824
142.6778 39.0928 8.7735 31.6824
142.5895 38.8788 8.9079 31.6824
142.5011 38.6649 10.2622 31.6824
142.4128 38.4509 15.5904 31.6824
142.3245 38.2369 18.1471 31.6824
142.2361 38.0230 17.1309 31.6824
142.1478 37.8090 11.1049 31.6824
142.0594 37.5950 2.3912 31.6824
141.9711 37.3811 0.0527 31.6824
141.8827 37.1671 4.4690 31.6824
141.7944 36.9531 2.0164 31.6824
141.7060 36.7391 2.4534 31.6824
141.6177 36.5252 5.9797 31.6824
141.5293 36.3112 6.6787 31.6824
141.4410 36.0972 2.9583 31.6824
142.8170 40.0035 2.9117 35.1553
142.7287 39.7895 10.2039 35.1553
142.6403 39.5755 11.1599 35.1553
142.5520 39.3616 8.4010 35.1553
142.4636 39.1476 8.5199 35.1553
142.3753 38.9336 7.4597 35.1553
142.2869 38.7196 6.5087 35.1553
142.1986 38.5057 6.9886 35.1553
142.1102 38.2917 8.1130 35.1553
142.0219 38.0777 8.4466 35.1553
141.9335 37.8638 4.1897 35.1553
141.8452 37.6498 0.1209 35.1553
141.7568 37.4358 0.2761 35.1553
141.6685 37.2219 4.0272 35.1553
141.5802 37.0079 3.1851 35.1553
141.4918 36.7939 3.7442 35.1553
141.4035 36.5799 6.1602 35.1553
141.3151 36.3660 6.4938 35.1553
141.2268 36.1520 2.9554 35.1553
142.6028 40.0582 2.9992 38.6283
142.5144 39.8443 2.9271 38.6283
142.4261 39.6303 2.9740 38.6283
142.3378 39.4163 2.7209 38.6283
142.2494 39.2024 2.9918 38.6283
142.1611 38.9884 2.9664 38.6283
142.0727 38.7744 2.8239 38.6283
141.9844 38.5605 2.8916 38.6283
141.8960 38.3465 2.0145 38.6283
141.8077 38.1325 1.3724 38.6283
141.7193 37.9185 0.6841 38.6283
141.6310 37.7046 0.5349 38.6283
141.5426 37.4906 2.1888 38.6283
141.4543 37.2766 2.9572 38.6283
141.3659 37.0627 2.4851 38.6283
141.2776 36.8487 2.8705 38.6283
141.1892 36.6347 2.9739 38.6283
141.1009 36.4207 2.9547 38.6283
141.0125 36.2068 2.5862 38.6283
