-117.4965 35.6620 1.0843 0.0000
-117.4884 35.6578 1.7096 0.0000
-117.4802 35.6536 0.9370 0.0000
-117.4720 35.6494 1.6281 0.0000
-117.4638 35.6453 1.1533 0.0000
-117.4556 35.6411 1.2648 0.0000
-117.4475 35.6369 1.3541 0.0000
-117.4393 35.6327 1.3630 0.0000
-117.6753 35.8342 0.0555 0.0000
-117.6676 35.8291 0.1983 0.0000
-117.6599 35.8240 0.0671 0.0000
-117.6522 35.8189 0.1922 0.0000
-117.6445 35.8138 0.6416 0.0000
-117.6367 35.8087 0.6064 0.0000
-117.6290 35.8035 0.9538 0.0000
-117.6213 35.7984 1.5136 0.0000
-117.6136 35.7933 2.0536 0.0000
-117.5788 35.7487 2.8377 0.0000
-117.5712 35.7436 1.2051 0.0000
-117.5636 35.7384 1.3551 0.0000
-117.5560 35.7333 0.1084 0.0000
-117.5484 35.7282 1.2478 0.0000
-117.5408 35.7231 0.8148 0.0000
-117.5332 35.7180 0.6658 0.0000
-117.5255 35.7129 0.3614 0.0000
-117.5179 35.7078 0.3595 0.0000
-117.5103 35.7027 0.4574 0.0000
-117.5027 35.6976 0.6597 0.0000
-117.4951 35.6924 0.4969 0.0000
-117.4875 35.6873 0.1047 0.0000
-117.5594 35.7112 1.9906 0.0000
-117.5526 35.7057 2.6939 0.0000
-117.5458 35.7002 1.8019 0.0000
-117.5390 35.6947 1.2440 0.0000
-117.5322 35.6891 2.0708 0.0000
-117.5254 35.6836 1.3051 0.0000
-117.5186 35.6781 1.4078 0.0000
-117.5117 35.6726 1.4223 0.0000
-117.5049 35.6671 1.7747 0.0000
-117.7538 35.9310 0.0364 0.0000
-117.7469 35.9253 0.2310 0.0000
-117.7400 35.9196 0.5436 0.0000
-117.7332 35.9138 0.7158 0.0000
-117.7263 35.9081 0.8201 0.0000
-117.7194 35.9024 0.5552 0.0000
-117.7126 35.8967 0.2580 0.0000
-117.7057 35.8909 0.3799 0.0000
-117.6988 35.8852 0.4986 0.0000
-117.6919 35.8795 0.9463 0.0000
-117.6851 35.8738 1.4282 0.0000
-117.6782 35.8680 1.8555 0.0000
-117.6713 35.8623 2.0510 0.0000
-117.6645 35.8566 2.2630 0.0000
-117.6576 35.8509 2.4942 0.0000
-117.6507 35.8451 2.5437 0.0000
-117.6439 35.8394 2.4133 0.0000
-117.6370 35.8337 1.4839 0.0000
-117.6301 35.8280 1.0243 0.0000
-117.4316 35.6275 1.2359 0.0000
-117.4247 35.6216 1.6199 0.0000
-117.4178 35.6156 1.2656 0.0000
-117.4109 35.6096 1.4137 0.0000
-117.4040 35.6037 1.2898 0.0000
-117.3971 35.5977 1.3478 0.0000
-117.3902 35.5918 1.5056 0.0000
-117.3833 35.5858 1.5396 0.0000
-117.3764 35.5799 1.3648 0.0000
-117.3695 35.5739 0.9141 0.0000
-117.3626 35.5680 0.4283 0.0000
-117.3557 35.5620 0.0504 0.0000
-117.3488 35.5560 0.0406 0.0000
-117.3419 35.5501 0.0134 0.0000
-117.3350 35.5441 0.0126 0.0000
-117.3281 35.5382 0.0151 0.0000
-117.3212 35.5322 0.0183 0.0000
-117.3143 35.5263 0.0003 0.0000
-117.3074 35.5203 0.0009 0.0000
-117.3005 35.5144 0.0003 0.0000
-117.2936 35.5084 0.0005 0.0000
-117.2867 35.5024 0.0022 0.0000
-117.6242 35.8203 2.3783 0.0000
-117.6200 35.8130 0.7873 0.0000
-117.6158 35.8057 1.0381 0.0000
-117.6116 35.7984 2.2994 0.0000
-117.6074 35.7911 2.4689 0.0000
-117.6032 35.7838 3.6547 0.0000
-117.5990 35.7765 3.6839 0.0000
-117.5948 35.7692 3.7375 0.0000
-117.5906 35.7619 4.2187 0.0000
-117.5865 35.7546 4.8279 0.0000
-117.5823 35.7473 2.8700 0.0000
-117.5781 35.7400 4.0259 0.0000
-117.5739 35.7327 4.6971 0.0000
-117.5697 35.7254 2.2055 0.0000
-117.5655 35.7181 2.9707 0.0000
-117.4952 35.6613 1.2002 1.1375
-117.4843 35.6557 1.0932 1.1375
-117.4734 35.6501 1.2884 1.1375
-117.4625 35.6446 1.7102 1.1375
-117.4516 35.6390 1.9121 1.1375
-117.4407 35.6334 1.8700 1.1375
-117.6742 35.8335 0.0939 1.1375
-117.6643 35.8269 0.4213 1.1375
-117.6544 35.8203 0.6308 1.1375
-117.6445 35.8138 1.0120 1.1375
-117.6345 35.8072 1.6554 1.1375
-117.6246 35.8006 2.2687 1.1375
-117.6147 35.7941 3.0956 1.1375
-117.5777 35.7479 3.1526 1.1375
-117.5678 35.7413 2.2187 1.1375
-117.5579 35.7346 1.6070 1.1375
-117.5480 35.7280 1.2662 1.1375
-117.5381 35.7213 1.1686 1.1375
-117.5282 35.7147 0.9389 1.1375
-117.5183 35.7080 0.8783 1.1375
-117.5084 35.7014 1.1630 1.1375
-117.4985 35.6947 1.0599 1.1375
-117.4886 35.6881 0.2578 1.1375
-117.5585 35.7104 3.1883 1.1375
-117.5497 35.7033 1.9631 1.1375
-117.5409 35.6962 1.2448 1.1375
-117.5322 35.6891 1.4913 1.1375
-117.5234 35.6820 1.9172 1.1375
-117.5147 35.6750 1.9078 1.1375
-117.5059 35.6679 1.5268 1.1375
-117.7529 35.9302 0.0542 1.1375
-117.7442 35.9230 0.1682 1.1375
-117.7355 35.9157 0.2734 1.1375
-117.7267 35.9085 0.4173 1.1375
-117.7180 35.9012 0.3620 1.1375
-117.7093 35.8940 0.3805 1.1375
-117.7006 35.8867 0.5742 1.1375
-117.6919 35.8795 1.0766 1.1375
-117.6832 35.8722 1.7853 1.1375
-117.6745 35.8650 2.1679 1.1375
-117.6658 35.8577 2.4863 1.1375
-117.6571 35.8505 2.7855 1.1375
-117.6484 35.8432 3.1547 1.1375
-117.6397 35.8360 3.2702 1.1375
-117.6310 35.8287 3.1172 1.1375
-117.4306 35.6266 1.9095 1.1375
-117.4216 35.6189 1.8844 1.1375
-117.4127 35.6112 1.6843 1.1375
-117.4038 35.6035 1.5330 1.1375
-117.3949 35.5958 1.6134 1.1375
-117.3859 35.5881 1.6851 1.1375
-117.3770 35.5804 1.3735 1.1375
-117.3681 35.5727 0.7984 1.1375
-117.3591 35.5650 0.3442 1.1375
-117.3502 35.5573 0.1371 1.1375
-117.3413 35.5496 0.0707 1.1375
-117.3324 35.5419 0.0312 1.1375
-117.3234 35.5342 0.0114 1.1375
-117.3145 35.5264 0.0011 1.1375
-117.3056 35.5187 0.0052 1.1375
-117.2967 35.5110 0.0006 1.1375
-117.2877 35.5033 0.0012 1.1375
-117.6236 35.8194 3.0761 1.1375
-117.6184 35.8102 2.5381 1.1375
-117.6132 35.8011 2.3035 1.1375
-117.6079 35.7920 2.6413 1.1375
-117.6027 35.7829 3.5305 1.1375
-117.5975 35.7737 4.0424 1.1375
-117.5922 35.7646 4.1209 1.1375
-117.5870 35.7555 4.0431 1.1375
-117.5817 35.7464 3.2004 1.1375
-117.5765 35.7372 3.5977 1.1375
-117.5713 35.7281 3.6880 1.1375
-117.5660 35.7190 3.3444 1.1375
-117.4941 35.6607 1.0341 2.6162
-117.4810 35.6540 0.8724 2.6162
-117.4679 35.6474 1.1989 2.6162
-117.4548 35.6407 1.5575 2.6162
-117.4417 35.6340 1.8181 2.6162
-117.6722 35.8322 0.2042 2.6162
-117.6583 35.8230 0.9599 2.6162
-117.6445 35.8138 1.6691 2.6162
-117.6306 35.8046 2.7124 2.6162
-117.6167 35.7954 3.7283 2.6162
-117.5765 35.7471 3.3434 2.6162
-117.5641 35.7388 2.8885 2.6162
-117.5517 35.7305 2.4050 2.6162
-117.5393 35.7222 1.9251 2.6162
-117.5270 35.7138 1.4274 2.6162
-117.5146 35.7055 1.2759 2.6162
-117.5022 35.6972 1.0943 2.6162
-117.4899 35.6889 0.2983 2.6162
-117.5567 35.7090 2.4890 2.6162
-117.5444 35.6991 1.3591 2.6162
-117.5322 35.6891 1.3128 2.6162
-117.5199 35.6792 1.7687 2.6162
-117.5077 35.6693 1.5928 2.6162
-117.7518 35.9293 0.0266 2.6162
-117.7409 35.9203 0.0962 2.6162
-117.7300 35.9112 0.0697 2.6162
-117.7191 35.9021 0.0146 2.6162
-117.7083 35.8931 0.2011 2.6162
-117.6974 35.8840 0.6150 2.6162
-117.6865 35.8750 1.2086 2.6162
-117.6756 35.8659 1.8803 2.6162
-117.6648 35.8568 2.5722 2.6162
-117.6539 35.8478 3.0196 2.6162
-117.6430 35.8387 3.3965 2.6162
-117.6321 35.8296 3.3920 2.6162
-117.4292 35.6255 2.0560 2.6162
-117.4175 35.6154 2.0599 2.6162
-117.4058 35.6053 1.8949 2.6162
-117.3942 35.5952 1.7460 2.6162
-117.3825 35.5851 1.5631 2.6162
-117.3708 35.5751 1.0035 2.6162
-117.3591 35.5650 0.3914 2.6162
-117.3475 35.5549 0.1667 2.6162
-117.3358 35.5448 0.0802 2.6162
-117.3241 35.5347 0.0120 2.6162
-117.3125 35.5247 0.0229 2.6162
-117.3008 35.5146 0.0178 2.6162
-117.2891 35.5045 0.0028 2.6162
-117.6228 35.8178 3.1064 2.6162
-117.6158 35.8057 2.3239 2.6162
-117.6088 35.7935 2.4875 2.6162
-117.6018 35.7813 3.5966 2.6162
-117.5948 35.7692 4.2096 2.6162
-117.5879 35.7570 3.9710 2.6162
-117.5809 35.7448 3.3690 2.6162
-117.5739 35.7327 3.1228 2.6162
-117.5669 35.7205 3.0074 2.6162
-117.4925 35.6599 0.3109 4.5385
-117.4761 35.6515 0.3095 4.5385
-117.4597 35.6432 0.6635 4.5385
-117.4434 35.6348 1.4089 4.5385
-117.6705 35.8310 0.2594 4.5385
-117.6531 35.8195 1.3903 4.5385
-117.6358 35.8080 2.3131 4.5385
-117.6184 35.7965 3.2145 4.5385
-117.5744 35.7457 3.3922 4.5385
-117.5579 35.7346 3.1845 4.5385
-117.5414 35.7235 2.3707 4.5385
-117.5249 35.7125 1.3770 4.5385
-117.5084 35.7014 0.8026 4.5385
-117.4919 35.6903 0.2607 4.5385
-117.5552 35.7078 1.9206 4.5385
-117.5398 35.6953 0.9148 4.5385
-117.5245 35.6829 0.8713 4.5385
-117.5092 35.6705 0.9374 4.5385
-117.7500 35.9278 0.0461 4.5385
-117.7355 35.9157 0.1782 4.5385
-117.7209 35.9037 0.3507 4.5385
-117.7064 35.8916 0.6039 4.5385
-117.6919 35.8795 0.7598 4.5385
-117.6774 35.8674 1.0417 4.5385
-117.6629 35.8553 1.8525 4.5385
-117.6484 35.8432 2.4009 4.5385
-117.6339 35.8312 2.3878 4.5385
-117.4274 35.6239 1.8909 4.5385
-117.4123 35.6108 2.0875 4.5385
-117.3971 35.5977 1.7972 4.5385
-117.3819 35.5846 1.2086 4.5385
-117.3667 35.5715 0.5011 4.5385
-117.3516 35.5584 0.2297 4.5385
-117.3364 35.5453 0.0711 4.5385
-117.3212 35.5322 0.0505 4.5385
-117.3060 35.5191 0.0667 4.5385
-117.2909 35.5060 0.0179 4.5385
-117.6218 35.8161 1.9296 4.5385
-117.6128 35.8005 1.6750 4.5385
-117.6038 35.7848 2.6906 4.5385
-117.5948 35.7692 3.4887 4.5385
-117.5859 35.7535 3.3733 4.5385
-117.5769 35.7379 3.3195 4.5385
-117.5679 35.7222 2.5687 4.5385
-117.4897 35.6585 0.2623 7.0375
-117.4679 35.6474 0.3866 7.0375
-117.4461 35.6362 0.8632 7.0375
-117.6676 35.8291 0.3256 7.0375
-117.6445 35.8138 1.5124 7.0375
-117.6213 35.7984 1.9629 7.0375
-117.5728 35.7446 3.4230 7.0375
-117.5530 35.7313 2.7506 7.0375
-117.5332 35.7180 1.5175 7.0375
-117.5134 35.7047 0.6044 7.0375
-117.4936 35.6914 0.2792 7.0375
-117.5526 35.7057 1.7339 7.0375
-117.5322 35.6891 0.6412 7.0375
-117.5117 35.6726 0.4526 7.0375
-117.7479 35.9261 0.1835 7.0375
-117.7292 35.9106 0.6199 7.0375
-117.7106 35.8950 0.7602 7.0375
-117.6919 35.8795 0.6834 7.0375
-117.6733 35.8640 0.5617 7.0375
-117.6547 35.8484 1.2750 7.0375
-117.6360 35.8329 1.3295 7.0375
-117.4255 35.6223 1.5605 7.0375
-117.4066 35.6059 1.8486 7.0375
-117.3876 35.5895 1.2151 7.0375
-117.3686 35.5732 0.4316 7.0375
-117.3497 35.5568 0.0732 7.0375
-117.3307 35.5404 0.1226 7.0375
-117.3117 35.5240 0.1769 7.0375
-117.2928 35.5077 0.0566 7.0375
-117.6200 35.8130 0.8244 7.0375
-117.6074 35.7911 1.6215 7.0375
-117.5948 35.7692 2.6735 7.0375
-117.5823 35.7473 3.3105 7.0375
-117.5697 35.7254 2.7089 7.0375
-117.4843 35.6557 0.0078 10.2863
-117.4516 35.6390 0.7041 10.2863
-117.6618 35.8253 0.7211 10.2863
-117.6271 35.8023 2.0298 10.2863
-117.5703 35.7429 3.4616 10.2863
-117.5455 35.7263 1.9516 10.2863
-117.5208 35.7097 0.9101 10.2863
-117.4960 35.6931 0.4382 10.2863
-117.5475 35.7015 2.2716 10.2863
-117.5169 35.6767 0.7265 10.2863
-117.7442 35.9230 0.3482 10.2863
-117.7180 35.9012 0.7634 10.2863
-117.6919 35.8795 0.4582 10.2863
-117.6658 35.8577 1.1360 10.2863
-117.6397 35.8360 1.8332 10.2863
-117.4224 35.6196 1.6612 10.2863
-117.3971 35.5977 1.6012 10.2863
-117.3718 35.5759 0.7279 10.2863
-117.3465 35.5541 0.2715 10.2863
-117.3212 35.5322 0.3910 10.2863
-117.2959 35.5104 0.1595 10.2863
-117.6184 35.8102 1.6610 10.2863
-117.6027 35.7829 2.3749 10.2863
-117.5870 35.7555 3.3843 10.2863
-117.5713 35.7281 3.3850 10.2863
-117.4843 35.6557 0.2904 14.5096
-117.4516 35.6390 0.2952 14.5096
-117.6618 35.8253 0.3788 14.5096
-117.6271 35.8023 0.4594 14.5096
-117.5662 35.7401 0.7004 14.5096
-117.5332 35.7180 0.4288 14.5096
-117.5002 35.6959 0.3365 14.5096
-117.5475 35.7015 0.4810 14.5096
-117.5169 35.6767 0.3912 14.5096
-117.7409 35.9203 0.2907 14.5096
-117.7083 35.8931 0.4453 14.5096
-117.6756 35.8659 0.4787 14.5096
-117.6430 35.8387 0.6716 14.5096
-117.4198 35.6174 0.4296 14.5096
-117.3895 35.5912 0.3853 14.5096
-117.3591 35.5650 0.3517 14.5096
-117.3288 35.5388 0.3696 14.5096
-117.2984 35.5126 0.2272 14.5096
-117.6158 35.8057 0.9393 14.5096
-117.5948 35.7692 1.0416 14.5096
-117.5739 35.7327 0.8460 14.5096
