144.2597 39.7325 0.3678 4.8987
144.1711 39.5185 3.6925 4.8987
144.0825 39.3046 10.1473 4.8987
143.9939 39.0906 16.4659 4.8987
143.9053 38.8766 21.5125 4.8987
143.8167 38.6627 24.1673 4.8987
143.7280 38.4487 26.0723 4.8987
143.6394 38.2347 25.7860 4.8987
143.5508 38.0207 26.3382 4.8987
143.4622 37.8068 26.8294 4.8987
143.3736 37.5928 26.2119 4.8987
143.2849 37.3788 26.4786 4.8987
143.1963 37.1649 23.0834 4.8987
143.1077 36.9509 18.1745 4.8987
143.0191 36.7369 12.6096 4.8987
142.9305 36.5230 8.1664 4.8987
142.8419 36.3090 4.2021 4.8987
142.7532 36.0950 1.1391 4.8987
142.6646 35.8810 0.1147 4.8987
142.5760 35.6671 0.0631 4.8987
144.0449 39.7873 0.4221 8.3717
143.9562 39.5733 5.0919 8.3717
143.8676 39.3593 14.9233 8.3717
143.7790 39.1454 25.7762 8.3717
143.6904 38.9314 34.8185 8.3717
143.6018 38.7174 37.9183 8.3717
143.5132 38.5035 39.6702 8.3717
143.4245 38.2895 39.9067 8.3717
143.3359 38.0755 39.7239 8.3717
143.2473 37.8615 39.7963 8.3717
143.1587 37.6476 39.7007 8.3717
143.0701 37.4336 39.4926 8.3717
142.9815 37.2196 36.1022 8.3717
142.8928 37.0057 27.7122 8.3717
142.8042 36.7917 19.2276 8.3717
142.7156 36.5777 13.8141 8.3717
142.6270 36.3638 8.3425 8.3717
142.5384 36.1498 3.2690 8.3717
142.4498 35.9358 0.7494 8.3717
142.3611 35.7218 0.1613 8.3717
143.8300 39.8421 0.0077 11.8446
143.7414 39.6281 5.1120 11.8446
143.6528 39.4141 16.3634 11.8446
143.5641 39.2001 28.4851 11.8446
143.4755 38.9862 37.3536 11.8446
143.3869 38.7722 39.5069 11.8446
143.2983 38.5582 39.9453 11.8446
143.2097 38.3443 39.8699 11.8446
143.1211 38.1303 39.8993 11.8446
143.0324 37.9163 39.8476 11.8446
142.9438 37.7024 39.8894 11.8446
142.8552 37.4884 39.5938 11.8446
142.7666 37.2744 35.1384 11.8446
142.6780 37.0604 25.8152 11.8446
142.5894 36.8465 16.5352 11.8446
142.5007 36.6325 11.9422 11.8446
142.4121 36.4185 8.4686 11.8446
142.3235 36.2046 5.2849 11.8446
142.2349 35.9906 2.8960 11.8446
142.1463 35.7766 1.7613 11.8446
143.6151 39.8968 0.0978 15.3176
143.5265 39.6829 3.1819 15.3176
143.4379 39.4689 13.0531 15.3176
143.3493 39.2549 25.4724 15.3176
143.2606 39.0409 33.3682 15.3176
143.1720 38.8270 34.5477 15.3176
143.0834 38.6130 34.1357 15.3176
142.9948 38.3990 34.1244 15.3176
142.9062 38.1851 32.9740 15.3176
142.8176 37.9711 33.4005 15.3176
142.7289 37.7571 32.9227 15.3176
142.6403 37.5432 32.3501 15.3176
142.5517 37.3292 26.2371 15.3176
142.4631 37.1152 17.0778 15.3176
142.3745 36.9012 9.3893 15.3176
142.2859 36.6873 5.0684 15.3176
142.1972 36.4733 4.4957 15.3176
142.1086 36.2593 5.1504 15.3176
142.0200 36.0454 5.2836 15.3176
141.9314 35.8314 4.0445 15.3176
143.4002 39.9516 2.7242 18.7906
143.3116 39.7376 1.1658 18.7906
143.2230 39.5237 10.4021 18.7906
143.1344 39.3097 20.3959 18.7906
143.0458 39.0957 24.9160 18.7906
142.9572 38.8818 23.4857 18.7906
142.8685 38.6678 21.6984 18.7906
142.7799 38.4538 20.7337 18.7906
142.6913 38.2398 19.5583 18.7906
142.6027 38.0259 20.5470 18.7906
142.5141 37.8119 21.5120 18.7906
142.4255 37.5979 20.1101 18.7906
142.3368 37.3840 14.6931 18.7906
142.2482 37.1700 9.2849 18.7906
142.1596 36.9560 4.7280 18.7906
142.0710 36.7420 0.2175 18.7906
141.9824 36.5281 2.2098 18.7906
141.8938 36.3141 4.7500 18.7906
141.8051 36.1001 5.6804 18.7906
141.7165 35.8862 4.8495 18.7906
143.1854 40.0064 7.4374 22.2635
143.0968 39.7924 4.1934 22.2635
143.0081 39.5784 7.1978 22.2635
142.9195 39.3645 13.9348 22.2635
142.8309 39.1505 13.7799 22.2635
142.7423 38.9365 11.1204 22.2635
142.6537 38.7226 12.1512 22.2635
142.5651 38.5086 10.2363 22.2635
142.4764 38.2946 7.8930 22.2635
142.3878 38.0806 7.4644 22.2635
142.2992 37.8667 7.7236 22.2635
142.2106 37.6527 7.8018 22.2635
142.1220 37.4387 6.4973 22.2635
142.0334 37.2248 7.0867 22.2635
141.9447 37.0108 4.3137 22.2635
141.8561 36.7968 0.0052 22.2635
141.7675 36.5828 1.4899 22.2635
141.6789 36.3689 4.1268 22.2635
141.5903 36.1549 5.9811 22.2635
141.5017 35.9409 6.1770 22.2635
142.9705 40.0612 10.2112 25.7365
142.8819 39.8472 7.8839 25.7365
142.7933 39.6332 7.3984 25.7365
142.7046 39.4192 10.8774 25.7365
142.6160 39.2053 9.7493 25.7365
142.5274 38.9913 7.2884 25.7365
142.4388 38.7773 9.6252 25.7365
142.3502 38.5634 6.6731 25.7365
142.2616 38.3494 3.0757 25.7365
142.1729 38.1354 2.9646 25.7365
142.0843 37.9214 0.0995 25.7365
141.9957 37.7075 0.1131 25.7365
141.9071 37.4935 2.4509 25.7365
141.8185 37.2795 5.8395 25.7365
141.7299 37.0656 4.7626 25.7365
141.6412 36.8516 0.3712 25.7365
141.5526 36.6376 0.1034 25.7365
141.4640 36.4237 3.3545 25.7365
141.3754 36.2097 6.7370 25.7365
141.2868 35.9957 6.5110 25.7365
142.7556 40.1159 14.2446 29.2095
142.6670 39.9020 11.4003 29.2095
142.5784 39.6880 9.6517 29.2095
142.4898 39.4740 13.5213 29.2095
142.4012 39.2600 9.9675 29.2095
142.3125 39.0461 4.1016 29.2095
142.2239 38.8321 6.2212 29.2095
142.1353 38.6181 6.6431 29.2095
142.0467 38.4042 6.1272 29.2095
141.9581 38.1902 5.1628 29.2095
141.8695 37.9762 0.2007 29.2095
141.7808 37.7622 0.0786 29.2095
141.6922 37.5483 2.0077 29.2095
141.6036 37.3343 5.4530 29.2095
141.5150 37.1203 5.2778 29.2095
141.4264 36.9064 2.2632 29.2095
141.3378 36.6924 1.2051 29.2095
141.2491 36.4784 4.1782 29.2095
141.1605 36.2645 7.6254 29.2095
141.0719 36.0505 6.9335 29.2095
142.5408 40.1707 13.0436 32.6824
142.4521 39.9567 10.8469 32.6824
142.3635 39.7428 12.6513 32.6824
142.2749 39.5288 14.2140 32.6824
142.1863 39.3148 10.0090 32.6824
142.0977 39.1008 4.5582 32.6824
142.0091 38.8869 3.9641 32.6824
141.9204 38.6729 4.7312 32.6824
141.8318 38.4589 4.5580 32.6824
141.7432 38.2450 4.1205 32.6824
141.6546 38.0310 1.1063 32.6824
141.5660 37.8170 0.3835 32.6824
141.4774 37.6031 2.6529 32.6824
141.3887 37.3891 5.7604 32.6824
141.3001 37.1751 6.2236 32.6824
141.2115 36.9611 4.1868 32.6824
141.1229 36.7472 2.5387 32.6824
141.0343 36.5332 4.2958 32.6824
140.9457 36.3192 7.4988 32.6824
140.8570 36.1053 7.5123 32.6824
142.3259 40.2255 7.4013 36.1554
142.2373 40.0115 9.3690 36.1554
142.1486 39.7975 11.7811 36.1554
142.0600 39.5836 11.0407 36.1554
141.9714 39.3696 6.8819 36.1554
141.8828 39.1556 3.6390 36.1554
141.7942 38.9416 3.4532 36.1554
141.7056 38.7277 3.4476 36.1554
141.6169 38.5137 3.8638 36.1554
141.5283 38.2997 4.6576 36.1554
141.4397 38.0858 2.9837 36.1554
141.3511 37.8718 1.7946 36.1554
141.2625 37.6578 2.7179 36.1554
141.1739 37.4439 3.9290 36.1554
141.0852 37.2299 4.4258 36.1554
140.9966 37.0159 3.7339 36.1554
140.9080 36.8019 2.5726 36.1554
140.8194 36.5880 3.0557 36.1554
140.7308 36.3740 4.8703 36.1554
140.6422 36.1600 5.7496 36.1554
