144.5308 39.5653 0.0104 7.3716
144.4424 39.3513 3.1857 7.3716
144.3541 39.1373 5.8913 7.3716
144.2657 38.9234 12.5365 7.3716
144.1774 38.7094 19.9415 7.3716
144.0890 38.4954 27.4602 7.3716
144.0007 38.2815 32.9982 7.3716
143.9123 38.0675 34.3556 7.3716
143.8240 37.8535 34.9469 7.3716
143.7356 37.6395 34.7061 7.3716
143.6473 37.4256 31.4907 7.3716
143.5589 37.2116 24.4674 7.3716
143.4706 36.9976 16.7811 7.3716
143.3822 36.7837 10.7789 7.3716
143.2939 36.5697 6.2646 7.3716
143.2056 36.3557 2.4136 7.3716
143.1172 36.1418 0.1048 7.3716
143.0289 35.9278 0.3625 7.3716
142.9405 35.7138 0.0971 7.3716
144.3165 39.6201 0.0859 10.8446
144.2282 39.4061 3.4707 10.8446
144.1398 39.1921 9.2272 10.8446
144.0515 38.9781 20.2059 10.8446
143.9632 38.7642 31.9780 10.8446
143.8748 38.5502 45.2831 10.8446
143.7865 38.3362 54.3936 10.8446
143.6981 38.1223 58.9438 10.8446
143.6098 37.9083 58.7481 10.8446
143.5214 37.6943 56.0823 10.8446
143.4331 37.4804 49.2341 10.8446
143.3447 37.2664 37.5729 10.8446
143.2564 37.0524 25.0470 10.8446
143.1680 36.8384 16.8033 10.8446
143.0797 36.6245 10.2821 10.8446
142.9913 36.4105 5.7256 10.8446
142.9030 36.1965 0.9864 10.8446
142.8146 35.9826 0.2954 10.8446
142.7263 35.7686 0.0693 10.8446
144.1023 39.6748 0.0422 14.3175
144.0140 39.4609 3.0088 14.3175
143.9256 39.2469 8.8917 14.3175
143.8373 39.0329 19.6573 14.3175
143.7489 38.8189 32.6277 14.3175
143.6606 38.6050 47.5852 14.3175
143.5722 38.3910 57.4086 14.3175
143.4839 38.1770 59.8350 14.3175
143.3955 37.9631 59.8363 14.3175
143.3072 37.7491 55.5094 14.3175
143.2189 37.5351 45.1880 14.3175
143.1305 37.3212 32.4125 14.3175
143.0422 37.1072 19.7201 14.3175
142.9538 36.8932 12.4954 14.3175
142.8655 36.6792 9.5657 14.3175
142.7771 36.4653 7.5339 14.3175
142.6888 36.2513 3.1089 14.3175
142.6004 36.0373 0.0783 14.3175
142.5121 35.8234 0.0036 14.3175
143.8881 39.7296 0.1635 17.7905
143.7998 39.5156 0.7074 17.7905
143.7114 39.3017 5.4678 17.7905
143.6231 39.0877 15.1364 17.7905
143.5347 38.8737 26.4206 17.7905
143.4464 38.6598 38.2465 17.7905
143.3580 38.4458 46.0820 17.7905
143.2697 38.2318 47.4254 17.7905
143.1813 38.0178 47.4820 17.7905
143.0930 37.8039 40.4305 17.7905
143.0046 37.5899 28.9881 17.7905
142.9163 37.3759 19.7526 17.7905
142.8279 37.1620 11.9187 17.7905
142.7396 36.9480 5.3367 17.7905
142.6512 36.7340 6.8276 17.7905
142.5629 36.5200 6.7167 17.7905
142.4746 36.3061 4.5593 17.7905
142.3862 36.0921 0.6223 17.7905
142.2979 35.8781 0.0390 17.7905
143.6739 39.7844 0.1608 21.2635
143.5855 39.5704 0.1766 21.2635
143.4972 39.3564 1.4728 21.2635
143.4088 39.1425 6.2407 21.2635
143.3205 38.9285 14.7046 21.2635
143.2321 38.7145 23.7445 21.2635
143.1438 38.5006 27.7566 21.2635
143.0555 38.2866 27.5965 21.2635
142.9671 38.0726 26.9414 21.2635
142.8788 37.8586 25.6534 21.2635
142.7904 37.6447 15.3844 21.2635
142.7021 37.4307 7.8924 21.2635
142.6137 37.2167 0.0439 21.2635
142.5254 37.0028 2.0292 21.2635
142.4370 36.7888 6.8831 21.2635
142.3487 36.5748 6.0187 21.2635
142.2603 36.3608 3.9285 21.2635
142.1720 36.1469 0.8626 21.2635
142.0836 35.9329 0.0173 21.2635
143.4597 39.8392 2.6652 24.7364
143.3713 39.6252 3.2439 24.7364
143.2830 39.4112 0.0112 24.7364
143.1946 39.1972 0.2597 24.7364
143.1063 38.9833 4.7725 24.7364
143.0179 38.7693 14.5648 24.7364
142.9296 38.5553 15.0711 24.7364
142.8412 38.3414 14.4268 24.7364
142.7529 38.1274 16.6236 24.7364
142.6645 37.9134 17.7386 24.7364
142.5762 37.6994 16.5896 24.7364
142.4879 37.4855 4.0166 24.7364
142.3995 37.2715 0.0092 24.7364
142.3112 37.0575 1.5318 24.7364
142.2228 36.8436 0.3255 24.7364
142.1345 36.6296 0.2146 24.7364
142.0461 36.4156 0.2700 24.7364
141.9578 36.2017 2.4378 24.7364
141.8694 35.9877 0.9347 24.7364
143.2454 39.8939 2.9770 28.2094
143.1571 39.6800 8.5553 28.2094
143.0688 39.4660 5.9665 28.2094
142.9804 39.2520 0.6136 28.2094
142.8921 39.0380 0.0494 28.2094
142.8037 38.8241 6.9128 28.2094
142.7154 38.6101 3.3885 28.2094
142.6270 38.3961 10.4905 28.2094
142.5387 38.1822 17.8436 28.2094
142.4503 37.9682 20.5042 28.2094
142.3620 37.7542 21.6422 28.2094
142.2736 37.5402 10.0344 28.2094
142.1853 37.3263 3.9782 28.2094
142.0969 37.1123 2.1412 28.2094
142.0086 36.8983 0.6513 28.2094
141.9202 36.6844 0.6307 28.2094
141.8319 36.4704 2.5928 28.2094
141.7436 36.2564 3.4842 28.2094
141.6552 36.0425 2.3279 28.2094
143.0312 39.9487 2.9813 31.6824
142.9429 39.7347 13.2282 31.6824
142.8545 39.5208 11.0409 31.6824
142.7662 39.3068 4.6559 31.6824
142.6778 39.0928 1.2202 31.6824
142.5895 38.8788 0.0166 31.6824
142.5011 38.6649 4.7868 31.6824
142.4128 38.4509 14.5244 31.6824
142.3245 38.2369 23.3099 31.6824
142.2361 38.0230 24.0103 31.6824
142.1478 37.8090 18.5324 31.6824
142.0594 37.5950 9.8415 31.6824
141.9711 37.3811 4.5508 31.6824
141.8827 37.1671 3.3282 31.6824
141.7944 36.9531 1.9270 31.6824
141.7060 36.7391 2.9427 31.6824
141.6177 36.5252 5.4977 31.6824
141.5293 36.3112 4.9710 31.6824
141.4410 36.0972 2.8915 31.6824
142.8170 40.0035 2.9289 35.1553
142.7287 39.7895 12.2769 35.1553
142.6403 39.5755 12.6023 35.1553
142.5520 39.3616 7.2283 35.1553
142.4636 39.1476 2.2951 35.1553
142.3753 38.9336 1.1447 35.1553
142.2869 38.7196 1.3462 35.1553
142.1986 38.5057 11.2310 35.1553
142.1102 38.2917 16.7662 35.1553
142.0219 38.0777 13.8017 35.1553
141.9335 37.8638 10.6463 35.1553
141.8452 37.6498 7.8039 35.1553
141.7568 37.4358 4.7611 35.1553
141.6685 37.2219 3.5614 35.1553
141.5802 37.0079 3.1878 35.1553
141.4918 36.7939 3.8634 35.1553
141.4035 36.5799 5.2472 35.1553
141.3151 36.3660 4.6814 35.1553
141.2268 36.1520 2.9367 35.1553
142.6028 40.0582 2.9357 38.6283
142.5144 39.8443 2.9850 38.6283
142.4261 39.6303 2.9692 38.6283
142.3378 39.4163 2.8094 38.6283
142.2494 39.2024 2.8646 38.6283
142.1611 38.9884 2.8920 38.6283
142.0727 38.7744 1.8526 38.6283
141.9844 38.5605 2.4170 38.6283
141.8960 38.3465 2.9910 38.6283
141.8077 38.1325 2.9333 38.6283
141.7193 37.9185 2.9298 38.6283
141.6310 37.7046 2.7597 38.6283
141.5426 37.4906 2.9694 38.6283
141.4543 37.2766 2.6446 38.6283
141.3659 37.0627 2.9378 38.6283
141.2776 36.8487 2.7265 38.6283
141.1892 36.6347 2.9989 38.6283
141.1009 36.4207 2.4754 38.6283
141.0125 36.2068 2.4629 38.6283
