85.8855 27.1595 0.0349 8.2972
85.7930 27.1956 0.0000 8.2972
85.7004 27.2316 0.0000 8.2972
85.6078 27.2675 0.0000 8.2972
85.5151 27.3033 0.4854 8.2972
85.4223 27.3391 1.1232 8.2972
85.3295 27.3749 0.8403 8.2972
85.2366 27.4105 0.5735 8.2972
85.1437 27.4461 1.1189 8.2972
85.0507 27.4817 1.4932 8.2972
84.9576 27.5172 2.0814 8.2972
84.8645 27.5526 2.3898 8.2972
84.7714 27.5880 1.6327 8.2972
84.6781 27.6233 1.4777 8.2972
84.5848 27.6585 1.0844 8.2972
84.4915 27.6937 0.6387 8.2972
84.3980 27.7288 0.2426 8.2972
84.3046 27.7639 0.1971 8.2972
85.9255 27.2416 1.5463 9.5159
85.8330 27.2777 0.5716 9.5159
85.7403 27.3137 0.3716 9.5159
85.6477 27.3497 0.0000 9.5159
85.5549 27.3855 0.9457 9.5159
85.4621 27.4214 1.5445 9.5159
85.3692 27.4571 1.3805 9.5159
85.2763 27.4928 0.8638 9.5159
85.1833 27.5285 2.2586 9.5159
85.0903 27.5640 1.5688 9.5159
84.9972 27.5996 1.8291 9.5159
84.9040 27.6350 1.7153 9.5159
84.8107 27.6704 1.2397 9.5159
84.7174 27.7057 1.0659 9.5159
84.6241 27.7410 0.5197 9.5159
84.5307 27.7762 0.5784 9.5159
84.4372 27.8113 0.7138 9.5159
84.3437 27.8464 0.8366 9.5159
85.9656 27.3237 0.0000 10.7346
85.8730 27.3598 0.0000 10.7346
85.7803 27.3958 0.0000 10.7346
85.6876 27.4318 0.0000 10.7346
85.5948 27.4677 0.2068 10.7346
85.5019 27.5036 0.3987 10.7346
85.4090 27.5394 1.1545 10.7346
85.3160 27.5751 0.4110 10.7346
85.2230 27.6108 1.7044 10.7346
85.1299 27.6464 1.6499 10.7346
85.0367 27.6819 1.9981 10.7346
84.9435 27.7174 0.7281 10.7346
84.8502 27.7528 0.7736 10.7346
84.7568 27.7882 0.5369 10.7346
84.6634 27.8235 0.2711 10.7346
84.5700 27.8587 0.5031 10.7346
84.4764 27.8939 0.5930 10.7346
84.3828 27.9290 0.9168 10.7346
86.0058 27.4058 0.0524 11.9533
85.9131 27.4419 0.0000 11.9533
85.8204 27.4780 0.0000 11.9533
85.7276 27.5140 0.4037 11.9533
85.6348 27.5499 0.6757 11.9533
85.5418 27.5858 0.2048 11.9533
85.4489 27.6216 1.3441 11.9533
85.3558 27.6574 0.7536 11.9533
85.2627 27.6931 0.8028 11.9533
85.1696 27.7287 2.5342 11.9533
85.0763 27.7643 1.9358 11.9533
84.9831 27.7998 1.8846 11.9533
84.8897 27.8352 2.2718 11.9533
84.7963 27.8706 1.5976 11.9533
84.7028 27.9059 0.5744 11.9533
84.6093 27.9412 0.9668 11.9533
84.5157 27.9764 0.4235 11.9533
84.4221 28.0115 0.8216 11.9533
86.0460 27.4878 4.8158 13.1720
85.9533 27.5240 0.1152 13.1720
85.8605 27.5601 0.0415 13.1720
85.7677 27.5961 0.6763 13.1720
85.6748 27.6321 0.5419 13.1720
85.5818 27.6680 2.5908 13.1720
85.4888 27.7038 6.0669 13.1720
85.3957 27.7396 5.0611 13.1720
85.3025 27.7753 3.6503 13.1720
85.2093 27.8110 4.2973 13.1720
85.1160 27.8466 2.6985 13.1720
85.0227 27.8821 2.5766 13.1720
84.9293 27.9176 3.8936 13.1720
84.8358 27.9530 1.8305 13.1720
84.7423 27.9883 0.5897 13.1720
84.6487 28.0236 0.9866 13.1720
84.5550 28.0588 0.4865 13.1720
84.4613 28.0940 0.4009 13.1720
86.0863 27.5699 0.6751 14.3907
85.9936 27.6061 0.0903 14.3907
85.9007 27.6422 0.1207 14.3907
85.8078 27.6782 1.9187 14.3907
85.7149 27.7142 1.4704 14.3907
85.6218 27.7502 2.0113 14.3907
85.5287 27.7860 4.0182 14.3907
85.4356 27.8218 4.0883 14.3907
85.3424 27.8576 5.8962 14.3907
85.2491 27.8933 7.0375 14.3907
85.1558 27.9289 6.8143 14.3907
85.0624 27.9645 4.3351 14.3907
84.9689 28.0000 3.6033 14.3907
84.8754 28.0354 1.4887 14.3907
84.7818 28.0708 1.5528 14.3907
84.6881 28.1061 2.2393 14.3907
84.5944 28.1413 0.5996 14.3907
84.5007 28.1765 0.0079 14.3907
86.1267 27.6519 0.1230 15.6093
86.0339 27.6881 0.1177 15.6093
85.9410 27.7243 0.7488 15.6093
85.8480 27.7603 0.3442 15.6093
85.7550 27.7964 0.6252 15.6093
85.6619 27.8323 2.7098 15.6093
85.5688 27.8682 3.6072 15.6093
85.4756 27.9041 3.3212 15.6093
85.3823 27.9398 3.5615 15.6093
85.2890 27.9756 5.6033 15.6093
85.1956 28.0112 3.7883 15.6093
85.1021 28.0468 2.2787 15.6093
85.0086 28.0823 1.2784 15.6093
84.9150 28.1178 1.1487 15.6093
84.8214 28.1532 1.4481 15.6093
84.7277 28.1885 1.5117 15.6093
84.6339 28.2238 0.5884 15.6093
84.5401 28.2590 0.1436 15.6093
86.1671 27.7339 0.6213 16.8280
86.0742 27.7701 0.0000 16.8280
85.9813 27.8063 0.4093 16.8280
85.8883 27.8424 0.5230 16.8280
85.7952 27.8785 2.2084 16.8280
85.7021 27.9145 4.9674 16.8280
85.6089 27.9504 3.5709 16.8280
85.5156 27.9863 2.1767 16.8280
85.4223 28.0221 2.1527 16.8280
85.3289 28.0578 3.1333 16.8280
85.2354 28.0935 1.3726 16.8280
85.1419 28.1291 0.8317 16.8280
85.0484 28.1647 0.3357 16.8280
84.9547 28.2002 0.8702 16.8280
84.8610 28.2356 0.0569 16.8280
84.7672 28.2709 1.0303 16.8280
84.6734 28.3062 0.3724 16.8280
84.5795 28.3415 0.6443 16.8280
86.2076 27.8159 0.3949 18.0467
86.1147 27.8522 0.0000 18.0467
86.0217 27.8884 0.0895 18.0467
85.9286 27.9245 0.0946 18.0467
85.8355 27.9606 0.8252 18.0467
85.7423 27.9966 0.8752 18.0467
85.6490 28.0326 0.9534 18.0467
85.5557 28.0685 0.7672 18.0467
85.4623 28.1043 0.5788 18.0467
85.3689 28.1401 0.1968 18.0467
85.2754 28.1758 0.1993 18.0467
85.1818 28.2114 0.4550 18.0467
85.0882 28.2470 0.5706 18.0467
84.9945 28.2825 0.4715 18.0467
84.9007 28.3180 0.1218 18.0467
84.8069 28.3534 0.3532 18.0467
84.7130 28.3887 0.1953 18.0467
84.6190 28.4239 0.3011 18.0467
86.2481 27.8979 0.7323 19.2654
86.1552 27.9342 0.0660 19.2654
86.0621 27.9704 0.1335 19.2654
85.9690 28.0066 0.0000 19.2654
85.8758 28.0427 0.0979 19.2654
85.7826 28.0787 0.2411 19.2654
85.6892 28.1147 0.7411 19.2654
85.5959 28.1506 0.1519 19.2654
85.5024 28.1865 0.0468 19.2654
85.4089 28.2223 0.1323 19.2654
85.3154 28.2580 0.4540 19.2654
85.2217 28.2937 0.5602 19.2654
85.1280 28.3293 0.5303 19.2654
85.0343 28.3649 0.2667 19.2654
84.9405 28.4003 0.3555 19.2654
84.8466 28.4358 0.2016 19.2654
84.7526 28.4711 0.9281 19.2654
84.6586 28.5064 0.9589 19.2654
86.2888 27.9799 2.6549 20.4841
86.1957 28.0162 1.0347 20.4841
86.1026 28.0524 0.7146 20.4841
86.0094 28.0886 0.1830 20.4841
85.9162 28.1248 0.4355 20.4841
85.8229 28.1608 0.9963 20.4841
85.7295 28.1969 1.2928 20.4841
85.6361 28.2328 1.3890 20.4841
85.5426 28.2687 2.9623 20.4841
85.4490 28.3045 2.6106 20.4841
85.3554 28.3403 2.5610 20.4841
85.2617 28.3760 1.7459 20.4841
85.1680 28.4116 1.5340 20.4841
85.0742 28.4472 0.8554 20.4841
84.9803 28.4827 0.4735 20.4841
84.8863 28.5181 0.5510 20.4841
84.7923 28.5535 0.8761 20.4841
84.6983 28.5888 0.9586 20.4841
