-85.4975 9.1751 1.2640 4.0280
-85.5522 9.2157 0.5090 4.0280
-85.6069 9.2563 0.3270 4.0280
-85.6616 9.2969 0.5530 4.0280
-85.7163 9.3376 0.4390 4.0280
-85.7710 9.3782 0.6350 4.0280
-85.8257 9.4188 0.3180 4.0280
-85.8804 9.4594 0.3530 4.0280
-85.9351 9.5000 0.3970 4.0280
-85.9898 9.5407 0.4510 4.0280
-86.0445 9.5813 0.6950 4.0280
-86.0992 9.6219 1.7120 4.0280
-86.1539 9.6625 0.1750 4.0280
-86.2086 9.7031 0.4020 4.0280
-86.2633 9.7438 0.0560 4.0280
-86.3180 9.7844 0.0570 4.0280
-86.3727 9.8250 0.5550 4.0280
-85.4568 9.2283 1.7980 5.2013
-85.5115 9.2689 0.7660 5.2013
-85.5662 9.3096 0.2950 5.2013
-85.6209 9.3502 0.1830 5.2013
-85.6756 9.3908 0.0450 5.2013
-85.7303 9.4314 0.2460 5.2013
-85.7850 9.4720 0.2980 5.2013
-85.8397 9.5127 0.2820 5.2013
-85.8944 9.5533 0.2000 5.2013
-85.9491 9.5939 0.2510 5.2013
-86.0038 9.6345 0.2270 5.2013
-86.0585 9.6751 0.5830 5.2013
-86.1132 9.7158 0.2240 5.2013
-86.1679 9.7564 0.1050 5.2013
-86.2226 9.7970 0.0260 5.2013
-86.2772 9.8376 0.3500 5.2013
-86.3319 9.8782 0.7400 5.2013
-85.4161 9.2816 0.8420 6.3745
-85.4708 9.3222 0.6220 6.3745
-85.5255 9.3628 0.2410 6.3745
-85.5802 9.4034 0.1200 6.3745
-85.6349 9.4440 0.3520 6.3745
-85.6896 9.4847 0.4420 6.3745
-85.7443 9.5253 0.6510 6.3745
-85.7990 9.5659 0.9880 6.3745
-85.8537 9.6065 0.8500 6.3745
-85.9084 9.6471 0.6360 6.3745
-85.9631 9.6878 0.2820 6.3745
-86.0178 9.7284 0.2970 6.3745
-86.0725 9.7690 0.1940 6.3745
-86.1271 9.8096 0.0260 6.3745
-86.1818 9.8502 0.0450 6.3745
-86.2365 9.8909 0.0590 6.3745
-86.2912 9.9315 0.1940 6.3745
-85.3754 9.3348 1.0180 7.5478
-85.4301 9.3754 0.6810 7.5478
-85.4848 9.4160 0.3970 7.5478
-85.5395 9.4567 0.5660 7.5478
-85.5942 9.4973 0.6790 7.5478
-85.6489 9.5379 0.7270 7.5478
-85.7036 9.5785 1.2200 7.5478
-85.7583 9.6191 1.6070 7.5478
-85.8130 9.6598 1.3980 7.5478
-85.8677 9.7004 1.2270 7.5478
-85.9224 9.7410 0.7900 7.5478
-85.9771 9.7816 0.4600 7.5478
-86.0317 9.8222 0.1600 7.5478
-86.0864 9.8629 0.0440 7.5478
-86.1411 9.9035 0.0450 7.5478
-86.1958 9.9441 0.1920 7.5478
-86.2505 9.9847 0.7800 7.5478
-85.3351 9.3882 0.7410 8.6600
-85.3898 9.4288 0.4590 8.6600
-85.4445 9.4694 0.2230 8.6600
-85.4991 9.5101 0.3070 8.6600
-85.5538 9.5507 0.8100 8.6600
-85.6085 9.5913 1.2380 8.6600
-85.6632 9.6319 1.7130 8.6600
-85.7179 9.6725 2.1900 8.6600
-85.7726 9.7131 1.4690 8.6600
-85.8273 9.7538 1.1870 8.6600
-85.8820 9.7944 0.9420 8.6600
-85.9367 9.8350 0.7690 8.6600
-85.9914 9.8756 0.1260 8.6600
-86.0461 9.9162 0.1220 8.6600
-86.1008 9.9569 0.0430 8.6600
-86.1555 9.9975 0.1060 8.6600
-86.2102 10.0381 0.0000 8.6600
-85.2946 9.4411 0.4120 10.1070
-85.3493 9.4817 0.3110 10.1070
-85.4040 9.5223 0.3510 10.1070
-85.4587 9.5630 0.4500 10.1070
-85.5134 9.6036 0.6290 10.1070
-85.5681 9.6442 1.1720 10.1070
-85.6228 9.6848 1.6760 10.1070
-85.6775 9.7254 1.5700 10.1070
-85.7322 9.7661 0.6170 10.1070
-85.7869 9.8067 0.6230 10.1070
-85.8416 9.8473 0.6220 10.1070
-85.8963 9.8879 0.7630 10.1070
-85.9510 9.9285 0.2860 10.1070
-86.0057 9.9691 0.1600 10.1070
-86.0604 10.0098 0.0000 10.1070
-86.1151 10.0504 0.0950 10.1070
-86.1697 10.0910 0.5170 10.1070
-85.2545 9.4933 0.4420 11.9040
-85.3092 9.5339 0.0900 11.9040
-85.3639 9.5745 0.0690 11.9040
-85.4186 9.6151 0.1710 11.9040
-85.4733 9.6558 0.1110 11.9040
-85.5280 9.6964 0.8600 11.9040
-85.5827 9.7370 1.6880 11.9040
-85.6374 9.7776 0.9430 11.9040
-85.6921 9.8182 0.1950 11.9040
-85.7468 9.8589 0.3930 11.9040
-85.8015 9.8995 0.5410 11.9040
-85.8562 9.9401 0.5150 11.9040
-85.9109 9.9807 0.3070 11.9040
-85.9656 10.0213 0.1240 11.9040
-86.0203 10.0620 0.0090 11.9040
-86.0750 10.1026 0.0900 11.9040
-86.1297 10.1432 0.0000 11.9040
-85.2153 9.5448 0.7560 14.1420
-85.2700 9.5854 0.4590 14.1420
-85.3246 9.6260 0.3070 14.1420
-85.3793 9.6666 0.3400 14.1420
-85.4340 9.7073 0.2190 14.1420
-85.4887 9.7479 0.8520 14.1420
-85.5434 9.7885 1.8300 14.1420
-85.5981 9.8291 1.2510 14.1420
-85.6528 9.8697 0.1450 14.1420
-85.7075 9.9104 0.2830 14.1420
-85.7622 9.9510 0.2310 14.1420
-85.8169 9.9916 0.2450 14.1420
-85.8716 10.0322 0.1140 14.1420
-85.9263 10.0728 0.0270 14.1420
-85.9810 10.1135 0.0000 14.1420
-86.0357 10.1541 0.1480 14.1420
-86.0904 10.1947 0.0000 14.1420
-85.1768 9.5951 1.2280 16.8150
-85.2315 9.6358 0.6480 16.8150
-85.2862 9.6764 0.4390 16.8150
-85.3409 9.7170 0.6650 16.8150
-85.3956 9.7576 0.2690 16.8150
-85.4503 9.7982 0.7010 16.8150
-85.5050 9.8389 1.9230 16.8150
-85.5597 9.8795 2.0660 16.8150
-85.6144 9.9201 1.0460 16.8150
-85.6691 9.9607 0.5760 16.8150
-85.7238 10.0013 0.1690 16.8150
-85.7785 10.0419 0.0450 16.8150
-85.8332 10.0826 0.0410 16.8150
-85.8879 10.1232 0.0000 16.8150
-85.9425 10.1638 0.0000 16.8150
-85.9972 10.2044 0.2170 16.8150
-86.0519 10.2450 0.1140 16.8150
-85.1389 9.6448 1.7440 19.7180
-85.1936 9.6854 0.6680 19.7180
-85.2482 9.7261 0.3420 19.7180
-85.3029 9.7667 0.4890 19.7180
-85.3576 9.8073 0.1190 19.7180
-85.4123 9.8479 0.7770 19.7180
-85.4670 9.8885 2.8480 19.7180
-85.5217 9.9291 3.8210 19.7180
-85.5764 9.9698 2.7580 19.7180
-85.6311 10.0104 1.6100 19.7180
-85.6858 10.0510 0.9270 19.7180
-85.7405 10.0916 0.6040 19.7180
-85.7952 10.1322 0.3730 19.7180
-85.8499 10.1729 0.0940 19.7180
-85.9046 10.2135 0.2020 19.7180
-85.9593 10.2541 0.2250 19.7180
-86.0140 10.2947 0.1380 19.7180
-85.1019 9.6931 0.6450 23.0630
-85.1566 9.7337 0.6600 23.0630
-85.2113 9.7743 0.4150 23.0630
-85.2660 9.8149 0.6160 23.0630
-85.3207 9.8556 0.4580 23.0630
-85.3754 9.8962 1.1340 23.0630
-85.4301 9.9368 2.8640 23.0630
-85.4848 9.9774 4.2790 23.0630
-85.5395 10.0180 3.5940 23.0630
-85.5942 10.0587 2.7890 23.0630
-85.6489 10.0993 2.0580 23.0630
-85.7036 10.1399 1.5740 23.0630
-85.7583 10.1805 1.0560 23.0630
-85.8130 10.2211 0.3540 23.0630
-85.8677 10.2617 0.4090 23.0630
-85.9224 10.3024 0.3950 23.0630
-85.9771 10.3430 0.8550 23.0630
-85.0658 9.7402 0.4720 26.6890
-85.1205 9.7808 1.1430 26.6890
-85.1752 9.8214 0.6710 26.6890
-85.2299 9.8620 1.0010 26.6890
-85.2846 9.9027 0.8010 26.6890
-85.3393 9.9433 1.3170 26.6890
-85.3940 9.9839 2.3850 26.6890
-85.4487 10.0245 3.3410 26.6890
-85.5034 10.0651 2.5430 26.6890
-85.5581 10.1058 1.8490 26.6890
-85.6128 10.1464 1.5640 26.6890
-85.6675 10.1870 1.5650 26.6890
-85.7222 10.2276 0.9900 26.6890
-85.7769 10.2682 0.3270 26.6890
-85.8316 10.3089 0.3340 26.6890
-85.8862 10.3495 0.7110 26.6890
-85.9409 10.3901 0.3170 26.6890
-85.0301 9.7869 0.2600 30.4390
-85.0848 9.8275 2.1160 30.4390
-85.1395 9.8681 0.4040 30.4390
-85.1942 9.9087 0.9180 30.4390
-85.2489 9.9493 0.5650 30.4390
-85.3036 9.9900 1.0080 30.4390
-85.3583 10.0306 1.4520 30.4390
-85.4130 10.0712 1.5790 30.4390
-85.4677 10.1118 0.8140 30.4390
-85.5224 10.1524 0.2490 30.4390
-85.5771 10.1931 0.3910 30.4390
-85.6318 10.2337 0.8620 30.4390
-85.6865 10.2743 0.8500 30.4390
-85.7412 10.3149 0.6460 30.4390
-85.7959 10.3555 0.3570 30.4390
-85.8506 10.3962 0.0290 30.4390
-85.9052 10.4368 0.7120 30.4390
-84.9944 9.8336 0.0650 34.1890
-85.0491 9.8742 0.0230 34.1890
-85.1038 9.9148 0.5110 34.1890
-85.1585 9.9554 0.0170 34.1890
-85.2132 9.9960 0.0920 34.1890
-85.2679 10.0367 0.1750 34.1890
-85.3226 10.0773 0.6760 34.1890
-85.3773 10.1179 1.0560 34.1890
-85.4320 10.1585 0.1980 34.1890
-85.4867 10.1991 0.0720 34.1890
-85.5414 10.2397 0.0850 34.1890
-85.5961 10.2804 1.1830 34.1890
-85.6508 10.3210 0.5150 34.1890
-85.7055 10.3616 0.3680 34.1890
-85.7602 10.4022 0.0000 34.1890
-85.8149 10.4428 0.0000 34.1890
-85.8696 10.4835 0.7280 34.1890
-84.9587 9.8802 0.3070 37.9390
-85.0134 9.9209 0.2310 37.9390
-85.0681 9.9615 0.4670 37.9390
-85.1228 10.0021 0.0000 37.9390
-85.1775 10.0427 0.0010 37.9390
-85.2322 10.0833 0.0000 37.9390
-85.2869 10.1240 0.3610 37.9390
-85.3416 10.1646 0.3110 37.9390
-85.3963 10.2052 0.4010 37.9390
-85.4510 10.2458 0.1680 37.9390
-85.5057 10.2864 0.1720 37.9390
-85.5604 10.3270 0.1600 37.9390
-85.6151 10.3677 0.2260 37.9390
-85.6698 10.4083 0.3430 37.9390
-85.7245 10.4489 0.5380 37.9390
-85.7792 10.4895 0.2340 37.9390
-85.8339 10.5301 0.0000 37.9390
