-131.7851 51.9957 2.4200 2.9990
-131.8712 52.0578 3.5000 2.9990
-131.9573 52.1198 5.7800 2.9990
-132.0433 52.1819 7.1500 2.9990
-132.1294 52.2439 7.6700 2.9990
-132.2155 52.3060 7.2700 2.9990
-132.3016 52.3680 6.0600 2.9990
-132.3877 52.4301 5.9200 2.9990
-132.4738 52.4921 5.9900 2.9990
-132.5599 52.5541 5.4800 2.9990
-132.6459 52.6162 4.2700 2.9990
-132.7320 52.6782 3.3300 2.9990
-132.8181 52.7403 3.4200 2.9990
-132.9042 52.8023 4.5200 2.9990
-132.9903 52.8644 6.0800 2.9990
-133.0764 52.9264 6.1800 2.9990
-131.6878 52.0451 2.0700 5.8547
-131.7739 52.1072 2.7800 5.8547
-131.8600 52.1692 5.2600 5.8547
-131.9461 52.2312 6.6200 5.8547
-132.0321 52.2933 7.5000 5.8547
-132.1182 52.3553 6.9800 5.8547
-132.2043 52.4174 5.7500 5.8547
-132.2904 52.4794 5.2000 5.8547
-132.3765 52.5415 5.4200 5.8547
-132.4626 52.6035 5.1200 5.8547
-132.5487 52.6656 4.2100 5.8547
-132.6347 52.7276 3.2700 5.8547
-132.7208 52.7896 3.4400 5.8547
-132.8069 52.8517 4.8100 5.8547
-132.8930 52.9137 6.4200 5.8547
-132.9791 52.9758 6.5800 5.8547
-131.5905 52.0945 1.6300 8.7105
-131.6766 52.1565 1.5400 8.7105
-131.7627 52.2186 2.8200 8.7105
-131.8488 52.2806 2.8300 8.7105
-131.9349 52.3427 3.5900 8.7105
-132.0209 52.4047 3.7300 8.7105
-132.1070 52.4668 3.6800 8.7105
-132.1931 52.5288 3.2100 8.7105
-132.2792 52.5908 3.1200 8.7105
-132.3653 52.6529 2.5500 8.7105
-132.4514 52.7149 1.9700 8.7105
-132.5375 52.7770 1.5300 8.7105
-132.6235 52.8390 1.4700 8.7105
-132.7096 52.9011 2.2100 8.7105
-132.7957 52.9631 3.4700 8.7105
-132.8818 53.0252 3.7300 8.7105
-131.4932 52.1439 1.3500 11.5662
-131.5793 52.2059 0.8680 11.5662
-131.6654 52.2679 1.4400 11.5662
-131.7515 52.3300 1.2500 11.5662
-131.8376 52.3920 1.9400 11.5662
-131.9236 52.4541 2.7500 11.5662
-132.0097 52.5161 2.7900 11.5662
-132.0958 52.5782 2.1000 11.5662
-132.1819 52.6402 1.4900 11.5662
-132.2680 52.7023 1.1600 11.5662
-132.3541 52.7643 1.3400 11.5662
-132.4402 52.8263 0.9100 11.5662
-132.5262 52.8884 0.6740 11.5662
-132.6123 52.9504 0.7680 11.5662
-132.6984 53.0125 1.1800 11.5662
-132.7845 53.0745 2.0700 11.5662
-131.3959 52.1932 0.8060 14.4220
-131.4820 52.2553 0.2650 14.4220
-131.5681 52.3173 0.9910 14.4220
-131.6542 52.3794 1.0900 14.4220
-131.7403 52.4414 2.1400 14.4220
-131.8264 52.5035 3.9000 14.4220
-131.9124 52.5655 3.6700 14.4220
-131.9985 52.6275 2.6300 14.4220
-132.0846 52.6896 2.0200 14.4220
-132.1707 52.7516 2.3300 14.4220
-132.2568 52.8137 1.8400 14.4220
-132.3429 52.8757 1.1500 14.4220
-132.4290 52.9378 0.9850 14.4220
-132.5150 52.9998 0.6240 14.4220
-132.6011 53.0619 0.6240 14.4220
-132.6872 53.1239 1.6700 14.4220
-131.2986 52.2426 0.2450 17.2777
-131.3847 52.3046 0.1090 17.2777
-131.4708 52.3667 0.4810 17.2777
-131.5569 52.4287 0.7660 17.2777
-131.6430 52.4908 1.3100 17.2777
-131.7291 52.5528 2.0600 17.2777
-131.8151 52.6149 2.1100 17.2777
-131.9012 52.6769 1.6800 17.2777
-131.9873 52.7390 1.1100 17.2777
-132.0734 52.8010 1.0200 17.2777
-132.1595 52.8630 0.9470 17.2777
-132.2456 52.9251 1.0500 17.2777
-132.3317 52.9871 0.9530 17.2777
-132.4177 53.0492 0.6740 17.2777
-132.5038 53.1112 0.5220 17.2777
-132.5899 53.1733 0.6990 17.2777
