-134.2501 54.6247 0.0516 2.4100
-134.2825 54.6657 0.2498 2.4100
-134.3149 54.7068 0.2128 2.4100
-134.3473 54.7478 0.0584 2.4100
-134.3797 54.7889 0.6958 2.4100
-134.4121 54.8299 0.4420 2.4100
-134.4446 54.8709 0.0829 2.4100
-134.4770 54.9120 0.0153 2.4100
-134.5094 54.9530 0.3029 2.4100
-134.5418 54.9940 0.5332 2.4100
-134.5742 55.0351 0.1153 2.4100
-134.6067 55.0761 0.0934 2.4100
-134.6391 55.1171 1.6814 2.4100
-134.6715 55.1582 2.7207 2.4100
-134.7039 55.1992 4.3141 2.4100
-134.7363 55.2402 4.8561 2.4100
-134.7688 55.2813 5.7099 2.4100
-134.8012 55.3223 6.2479 2.4100
-134.8336 55.3634 6.1542 2.4100
-134.8660 55.4044 6.3248 2.4100
-134.8984 55.4454 6.1257 2.4100
-134.9309 55.4865 5.5611 2.4100
-134.9633 55.5275 4.9701 2.4100
-134.9957 55.5685 4.2930 2.4100
-135.0281 55.6096 3.0498 2.4100
-135.0605 55.6506 1.1740 2.4100
-135.0929 55.6916 0.3673 2.4100
-135.1254 55.7327 0.0912 2.4100
-135.1578 55.7737 0.0282 2.4100
-135.1902 55.8147 0.0377 2.4100
-135.2226 55.8558 0.0485 2.4100
-135.2550 55.8968 0.3911 2.4100
-134.2336 54.6289 0.2032 6.2443
-134.2660 54.6700 0.6841 6.2443
-134.2985 54.7110 0.4064 6.2443
-134.3309 54.7520 0.2895 6.2443
-134.3633 54.7931 0.7457 6.2443
-134.3957 54.8341 0.2758 6.2443
-134.4281 54.8751 0.2745 6.2443
-134.4606 54.9162 0.6310 6.2443
-134.4930 54.9572 0.5793 6.2443
-134.5254 54.9982 0.9959 6.2443
-134.5578 55.0393 0.0026 6.2443
-134.5902 55.0803 0.0477 6.2443
-134.6227 55.1213 1.8883 6.2443
-134.6551 55.1624 2.9474 6.2443
-134.6875 55.2034 5.0496 6.2443
-134.7199 55.2445 6.1612 6.2443
-134.7523 55.2855 6.6055 6.2443
-134.7848 55.3265 8.0113 6.2443
-134.8172 55.3676 9.0296 6.2443
-134.8496 55.4086 9.3714 6.2443
-134.8820 55.4496 8.9930 6.2443
-134.9144 55.4907 7.7702 6.2443
-134.9468 55.5317 7.0847 6.2443
-134.9793 55.5727 6.5972 6.2443
-135.0117 55.6138 4.3361 6.2443
-135.0441 55.6548 1.2534 6.2443
-135.0765 55.6958 0.0886 6.2443
-135.1089 55.7369 0.0495 6.2443
-135.1414 55.7779 0.1327 6.2443
-135.1738 55.8190 0.6048 6.2443
-135.2062 55.8600 0.4169 6.2443
-135.2386 55.9010 0.5218 6.2443
-134.2172 54.6331 0.8307 10.0786
-134.2496 54.6742 1.2480 10.0786
-134.2820 54.7152 0.5784 10.0786
-134.3145 54.7562 0.0275 10.0786
-134.3469 54.7973 0.1814 10.0786
-134.3793 54.8383 0.0185 10.0786
-134.4117 54.8793 0.2914 10.0786
-134.4441 54.9204 1.0010 10.0786
-134.4766 54.9614 0.2519 10.0786
-134.5090 55.0024 1.2206 10.0786
-134.5414 55.0435 0.0616 10.0786
-134.5738 55.0845 0.1471 10.0786
-134.6062 55.1256 1.1815 10.0786
-134.6387 55.1666 2.5559 10.0786
-134.6711 55.2076 4.7784 10.0786
-134.7035 55.2487 5.6836 10.0786
-134.7359 55.2897 5.1705 10.0786
-134.7683 55.3307 6.7410 10.0786
-134.8007 55.3718 8.3978 10.0786
-134.8332 55.4128 8.7775 10.0786
-134.8656 55.4538 8.5018 10.0786
-134.8980 55.4949 7.5734 10.0786
-134.9304 55.5359 6.4650 10.0786
-134.9628 55.5769 6.2957 10.0786
-134.9953 55.6180 3.7825 10.0786
-135.0277 55.6590 1.2196 10.0786
-135.0601 55.7001 0.0078 10.0786
-135.0925 55.7411 0.1688 10.0786
-135.1249 55.7821 0.8108 10.0786
-135.1574 55.8232 1.5965 10.0786
-135.1898 55.8642 0.9295 10.0786
-135.2222 55.9052 0.5751 10.0786
-134.2008 54.6373 1.2223 13.9129
-134.2332 54.6784 0.6443 13.9129
-134.2656 54.7194 0.3806 13.9129
-134.2980 54.7604 0.0950 13.9129
-134.3305 54.8015 0.6348 13.9129
-134.3629 54.8425 0.0261 13.9129
-134.3953 54.8835 0.1243 13.9129
-134.4277 54.9246 1.3880 13.9129
-134.4601 54.9656 0.8292 13.9129
-134.4926 55.0067 0.0064 13.9129
-134.5250 55.0477 0.0151 13.9129
-134.5574 55.0887 0.0268 13.9129
-134.5898 55.1298 0.0527 13.9129
-134.6222 55.1708 0.9594 13.9129
-134.6547 55.2118 2.4009 13.9129
-134.6871 55.2529 3.8035 13.9129
-134.7195 55.2939 3.9357 13.9129
-134.7519 55.3349 4.6060 13.9129
-134.7843 55.3760 5.7457 13.9129
-134.8167 55.4170 6.1373 13.9129
-134.8492 55.4580 5.6274 13.9129
-134.8816 55.4991 4.9024 13.9129
-134.9140 55.5401 4.4155 13.9129
-134.9464 55.5812 4.4669 13.9129
-134.9788 55.6222 2.6442 13.9129
-135.0113 55.6632 1.3819 13.9129
-135.0437 55.7043 0.1200 13.9129
-135.0761 55.7453 0.2567 13.9129
-135.1085 55.7863 1.0354 13.9129
-135.1409 55.8274 1.6280 13.9129
-135.1734 55.8684 0.0875 13.9129
-135.2058 55.9094 0.2097 13.9129
-134.1844 54.6415 1.7019 17.7471
-134.2168 54.6826 0.3743 17.7471
-134.2492 54.7236 0.3517 17.7471
-134.2816 54.7646 0.6031 17.7471
-134.3140 54.8057 0.6809 17.7471
-134.3465 54.8467 0.1106 17.7471
-134.3789 54.8878 1.1107 17.7471
-134.4113 54.9288 1.1962 17.7471
-134.4437 54.9698 0.4663 17.7471
-134.4761 55.0109 0.0981 17.7471
-134.5086 55.0519 0.0518 17.7471
-134.5410 55.0929 0.0809 17.7471
-134.5734 55.1340 0.0528 17.7471
-134.6058 55.1750 0.0829 17.7471
-134.6382 55.2160 0.0094 17.7471
-134.6706 55.2571 1.9033 17.7471
-134.7031 55.2981 2.1770 17.7471
-134.7355 55.3391 2.8651 17.7471
-134.7679 55.3802 2.9314 17.7471
-134.8003 55.4212 3.0317 17.7471
-134.8327 55.4623 2.6206 17.7471
-134.8652 55.5033 2.2592 17.7471
-134.8976 55.5443 3.0118 17.7471
-134.9300 55.5854 2.5896 17.7471
-134.9624 55.6264 1.3039 17.7471
-134.9948 55.6674 0.0013 17.7471
-135.0273 55.7085 0.1837 17.7471
-135.0597 55.7495 0.7783 17.7471
-135.0921 55.7905 1.0676 17.7471
-135.1245 55.8316 0.8912 17.7471
-135.1569 55.8726 1.0293 17.7471
-135.1894 55.9136 1.3573 17.7471
-134.1679 54.6457 0.9391 21.5814
-134.2004 54.6868 1.0937 21.5814
-134.2328 54.7278 1.0730 21.5814
-134.2652 54.7689 1.6342 21.5814
-134.2976 54.8099 1.2710 21.5814
-134.3300 54.8509 0.0223 21.5814
-134.3625 54.8920 0.3293 21.5814
-134.3949 54.9330 0.5550 21.5814
-134.4273 54.9740 1.0800 21.5814
-134.4597 55.0151 0.3018 21.5814
-134.4921 55.0561 0.3262 21.5814
-134.5245 55.0971 0.0041 21.5814
-134.5570 55.1382 0.0780 21.5814
-134.5894 55.1792 0.0229 21.5814
-134.6218 55.2202 0.1885 21.5814
-134.6542 55.2613 0.0231 21.5814
-134.6866 55.3023 0.2428 21.5814
-134.7191 55.3434 0.8184 21.5814
-134.7515 55.3844 0.2846 21.5814
-134.7839 55.4254 0.2319 21.5814
-134.8163 55.4665 0.3034 21.5814
-134.8487 55.5075 0.6378 21.5814
-134.8812 55.5485 1.3101 21.5814
-134.9136 55.5896 1.0550 21.5814
-134.9460 55.6306 0.0234 21.5814
-134.9784 55.6716 0.0307 21.5814
-135.0108 55.7127 0.2136 21.5814
-135.0433 55.7537 0.9196 21.5814
-135.0757 55.7947 0.6513 21.5814
-135.1081 55.8358 0.5382 21.5814
-135.1405 55.8768 1.2770 21.5814
-135.1729 55.9179 1.5159 21.5814
