141.9279 42.5868 0.4549 14.6269
141.9214 42.6134 0.8563 14.6269
141.9149 42.6400 0.5765 14.6269
141.9084 42.6665 0.7877 14.6269
141.9019 42.6931 0.1812 14.6269
141.8954 42.7197 0.6237 14.6269
141.8889 42.7463 0.5586 14.6269
141.9402 42.5884 0.8301 17.4460
141.9337 42.6150 1.2639 17.4460
141.9272 42.6416 0.5354 17.4460
141.9207 42.6682 0.4059 17.4460
141.9142 42.6948 0.3208 17.4460
141.9077 42.7213 1.0156 17.4460
141.9012 42.7479 0.4355 17.4460
141.9525 42.5901 0.5564 20.2651
141.9460 42.6166 0.6642 20.2651
141.9395 42.6432 2.4621 20.2651
141.9330 42.6698 2.8821 20.2651
141.9265 42.6964 1.0603 20.2651
141.9200 42.7230 0.4841 20.2651
141.9135 42.7495 0.5054 20.2651
141.9648 42.5917 0.1816 23.0841
141.9583 42.6183 0.9216 23.0841
141.9518 42.6449 1.6209 23.0841
141.9454 42.6714 1.1888 23.0841
141.9389 42.6980 0.5853 23.0841
141.9324 42.7246 0.3348 23.0841
141.9259 42.7512 0.2496 23.0841
141.9771 42.5933 0.4150 25.9032
141.9706 42.6199 0.6461 25.9032
141.9642 42.6465 0.4442 25.9032
141.9577 42.6731 0.3539 25.9032
141.9512 42.6997 0.5810 25.9032
141.9447 42.7262 0.3438 25.9032
141.9382 42.7528 0.0152 25.9032
141.9894 42.5950 0.0921 28.7223
141.9829 42.6216 0.0282 28.7223
141.9765 42.6481 0.1379 28.7223
141.9700 42.6747 0.1536 28.7223
141.9635 42.7013 0.2541 28.7223
141.9570 42.7279 0.0000 28.7223
141.9505 42.7545 0.0000 28.7223
142.0017 42.5966 0.8956 31.5414
141.9952 42.6232 0.3063 31.5414
141.9888 42.6498 0.5642 31.5414
141.9823 42.6764 0.3216 31.5414
141.9758 42.7029 0.2848 31.5414
141.9694 42.7295 0.0752 31.5414
141.9629 42.7561 0.0027 31.5414
142.0140 42.5982 0.7571 34.3605
142.0076 42.6248 0.3572 34.3605
142.0011 42.6514 0.5666 34.3605
141.9946 42.6780 0.4144 34.3605
141.9882 42.7046 0.3108 34.3605
141.9817 42.7312 0.1239 34.3605
141.9752 42.7577 0.2302 34.3605
142.0043 42.7616 0.5588 36.6916
142.0107 42.7350 0.1385 36.6916
142.0172 42.7084 0.4180 36.6916
142.0236 42.6818 0.8163 36.6916
142.0301 42.6552 0.5756 36.6916
142.0365 42.6286 0.3811 36.6916
142.0430 42.6021 0.9823 36.6916
141.9890 42.7596 0.8205 39.4105
141.9955 42.7330 0.1926 39.4105
142.0020 42.7064 0.5097 39.4105
142.0084 42.6798 1.0330 39.4105
142.0149 42.6532 0.5546 39.4105
142.0213 42.6266 0.2970 39.4105
142.0278 42.6001 0.9682 39.4105
