-115.5180 33.0261 0.0375 0.5001
-115.5250 33.0227 0.0000 0.5001
-115.5320 33.0192 0.0000 0.5001
-115.5390 33.0157 0.0000 0.5001
-115.5460 33.0122 0.0000 0.5001
-115.5530 33.0088 0.0000 0.5001
-115.5600 33.0053 0.0000 0.5001
-115.5670 33.0018 0.0000 0.5001
-115.5730 32.9983 0.0000 0.5001
-115.5800 32.9949 0.0250 0.5001
-115.5870 32.9914 0.0500 0.5001
-115.5940 32.9879 0.0000 0.5001
-115.6010 32.9844 0.0250 0.5001
-115.6080 32.9809 0.0500 0.5001
-115.6150 32.9775 0.0500 0.5001
-115.6220 32.9740 0.0500 0.5001
-115.5190 33.0266 0.0250 1.2473
-115.5260 33.0232 0.0000 1.2473
-115.5320 33.0197 0.0000 1.2473
-115.5390 33.0162 0.0000 1.2473
-115.5460 33.0127 0.0250 1.2473
-115.5530 33.0093 0.0000 1.2473
-115.5600 33.0058 0.0000 1.2473
-115.5670 33.0023 0.0000 1.2473
-115.5740 32.9988 0.0000 1.2473
-115.5810 32.9954 0.0000 1.2473
-115.5880 32.9919 0.0000 1.2473
-115.5950 32.9884 0.0000 1.2473
-115.6010 32.9849 0.0000 1.2473
-115.6080 32.9814 0.0250 1.2473
-115.6150 32.9780 0.0500 1.2473
-115.6220 32.9745 0.0375 1.2473
-115.5190 33.0271 0.0375 1.9944
-115.5260 33.0237 0.0000 1.9944
-115.5330 33.0202 0.0500 1.9944
-115.5400 33.0167 0.0500 1.9944
-115.5470 33.0132 0.0500 1.9944
-115.5530 33.0098 0.0750 1.9944
-115.5600 33.0063 0.0000 1.9944
-115.5670 33.0028 0.0250 1.9944
-115.5740 32.9993 0.0500 1.9944
-115.5810 32.9959 0.0750 1.9944
-115.5880 32.9924 0.0000 1.9944
-115.5950 32.9889 0.0250 1.9944
-115.6020 32.9854 0.0250 1.9944
-115.6090 32.9820 0.0250 1.9944
-115.6160 32.9785 0.0500 1.9944
-115.6220 32.9750 0.0250 1.9944
-115.5190 33.0276 0.0500 2.7416
-115.5260 33.0242 0.0250 2.7416
-115.5330 33.0207 0.0500 2.7416
-115.5400 33.0172 0.1500 2.7416
-115.5470 33.0137 0.1500 2.7416
-115.5540 33.0103 0.1000 2.7416
-115.5610 33.0068 0.0750 2.7416
-115.5680 33.0033 0.1000 2.7416
-115.5750 32.9998 0.1000 2.7416
-115.5810 32.9964 0.1000 2.7416
-115.5880 32.9929 0.0750 2.7416
-115.5950 32.9894 0.0750 2.7416
-115.6020 32.9859 0.0750 2.7416
-115.6090 32.9825 0.0500 2.7416
-115.6160 32.9790 0.0500 2.7416
-115.6230 32.9755 0.0375 2.7416
-115.5200 33.0282 0.0000 3.4887
-115.5270 33.0247 0.0250 3.4887
-115.5340 33.0212 0.1000 3.4887
-115.5400 33.0177 0.1750 3.4887
-115.5470 33.0142 0.1500 3.4887
-115.5540 33.0108 0.0750 3.4887
-115.5610 33.0073 0.1250 3.4887
-115.5680 33.0038 0.1500 3.4887
-115.5750 33.0003 0.1250 3.4887
-115.5820 32.9969 0.1250 3.4887
-115.5890 32.9934 0.1000 3.4887
-115.5960 32.9899 0.0750 3.4887
-115.6030 32.9864 0.1000 3.4887
-115.6090 32.9830 0.0750 3.4887
-115.6160 32.9795 0.0500 3.4887
-115.6230 32.9760 0.0500 3.4887
-115.5200 33.0287 0.0000 4.2359
-115.5270 33.0252 0.0000 4.2359
-115.5340 33.0217 0.0500 4.2359
-115.5410 33.0182 0.1000 4.2359
-115.5480 33.0148 0.1250 4.2359
-115.5550 33.0113 0.1500 4.2359
-115.5610 33.0078 0.2000 4.2359
-115.5680 33.0043 0.2000 4.2359
-115.5750 33.0008 0.1750 4.2359
-115.5820 32.9974 0.1250 4.2359
-115.5890 32.9939 0.1500 4.2359
-115.5960 32.9904 0.1250 4.2359
-115.6030 32.9869 0.1250 4.2359
-115.6100 32.9835 0.1000 4.2359
-115.6170 32.9800 0.0500 4.2359
-115.6240 32.9765 0.0375 4.2359
-115.5200 33.0292 0.0000 4.9830
-115.5270 33.0257 0.0000 4.9830
-115.5340 33.0222 0.0000 4.9830
-115.5410 33.0187 0.0250 4.9830
-115.5480 33.0153 0.0750 4.9830
-115.5550 33.0118 0.1500 4.9830
-115.5620 33.0083 0.2500 4.9830
-115.5690 33.0048 0.2250 4.9830
-115.5760 33.0014 0.1750 4.9830
-115.5830 32.9979 0.1500 4.9830
-115.5890 32.9944 0.1750 4.9830
-115.5960 32.9909 0.1750 4.9830
-115.6030 32.9874 0.1250 4.9830
-115.6100 32.9840 0.0750 4.9830
-115.6170 32.9805 0.0000 4.9830
-115.6240 32.9770 0.0125 4.9830
-115.5210 33.0297 0.0000 5.7302
-115.5280 33.0262 0.0000 5.7302
-115.5350 33.0227 0.0000 5.7302
-115.5410 33.0192 0.0000 5.7302
-115.5480 33.0158 0.1000 5.7302
-115.5550 33.0123 0.1750 5.7302
-115.5620 33.0088 0.2250 5.7302
-115.5690 33.0053 0.2250 5.7302
-115.5760 33.0019 0.1750 5.7302
-115.5830 32.9984 0.1500 5.7302
-115.5900 32.9949 0.1750 5.7302
-115.5970 32.9914 0.1500 5.7302
-115.6040 32.9880 0.1000 5.7302
-115.6100 32.9845 0.0500 5.7302
-115.6170 32.9810 0.0000 5.7302
-115.6240 32.9775 0.0250 5.7302
-115.5210 33.0302 0.0000 6.4773
-115.5280 33.0267 0.0000 6.4773
-115.5350 33.0232 0.0000 6.4773
-115.5420 33.0197 0.0000 6.4773
-115.5490 33.0163 0.0750 6.4773
-115.5560 33.0128 0.1250 6.4773
-115.5630 33.0093 0.1500 6.4773
-115.5690 33.0058 0.1250 6.4773
-115.5760 33.0024 0.1250 6.4773
-115.5830 32.9989 0.1500 6.4773
-115.5900 32.9954 0.1500 6.4773
-115.5970 32.9919 0.1000 6.4773
-115.6040 32.9885 0.0500 6.4773
-115.6110 32.9850 0.0500 6.4773
-115.6180 32.9815 0.0250 6.4773
-115.6250 32.9780 0.0500 6.4773
-115.5220 33.0307 0.0125 7.2245
-115.5280 33.0272 0.0000 7.2245
-115.5350 33.0237 0.0250 7.2245
-115.5420 33.0202 0.0250 7.2245
-115.5490 33.0168 0.0250 7.2245
-115.5560 33.0133 0.0500 7.2245
-115.5630 33.0098 0.0750 7.2245
-115.5700 33.0063 0.0750 7.2245
-115.5770 33.0029 0.1250 7.2245
-115.5840 32.9994 0.1250 7.2245
-115.5910 32.9959 0.1250 7.2245
-115.5970 32.9924 0.0750 7.2245
-115.6040 32.9890 0.0250 7.2245
-115.6110 32.9855 0.0000 7.2245
-115.6180 32.9820 0.0000 7.2245
-115.6250 32.9785 0.0500 7.2245
-115.5220 33.0312 0.0000 7.9716
-115.5290 33.0277 0.0000 7.9716
-115.5360 33.0242 0.0000 7.9716
-115.5430 33.0208 0.0000 7.9716
-115.5490 33.0173 0.0250 7.9716
-115.5560 33.0138 0.0500 7.9716
-115.5630 33.0103 0.0750 7.9716
-115.5700 33.0068 0.1250 7.9716
-115.5770 33.0034 0.2000 7.9716
-115.5840 32.9999 0.1500 7.9716
-115.5910 32.9964 0.1250 7.9716
-115.5980 32.9929 0.1000 7.9716
-115.6050 32.9895 0.0500 7.9716
-115.6120 32.9860 0.0000 7.9716
-115.6180 32.9825 0.0250 7.9716
-115.6250 32.9790 0.0500 7.9716
-115.5220 33.0317 0.0125 8.7188
-115.5290 33.0282 0.0000 8.7188
-115.5360 33.0247 0.0000 8.7188
-115.5430 33.0213 0.0000 8.7188
-115.5500 33.0178 0.0250 8.7188
-115.5570 33.0143 0.0750 8.7188
-115.5640 33.0108 0.1000 8.7188
-115.5710 33.0074 0.1500 8.7188
-115.5770 33.0039 0.1500 8.7188
-115.5840 33.0004 0.1250 8.7188
-115.5910 32.9969 0.1000 8.7188
-115.5980 32.9934 0.1000 8.7188
-115.6050 32.9900 0.1000 8.7188
-115.6120 32.9865 0.0500 8.7188
-115.6190 32.9830 0.0250 8.7188
-115.6260 32.9795 0.0375 8.7188
-115.5230 33.0322 0.0250 9.4659
-115.5300 33.0287 0.0375 9.4659
-115.5360 33.0252 0.0250 9.4659
-115.5430 33.0218 0.0250 9.4659
-115.5500 33.0183 0.0375 9.4659
-115.5570 33.0148 0.0500 9.4659
-115.5640 33.0113 0.0500 9.4659
-115.5710 33.0079 0.0500 9.4659
-115.5780 33.0044 0.0500 9.4659
-115.5850 33.0009 0.0500 9.4659
-115.5920 32.9974 0.0375 9.4659
-115.5990 32.9939 0.0500 9.4659
-115.6050 32.9905 0.0500 9.4659
-115.6120 32.9870 0.0125 9.4659
-115.6190 32.9835 0.0375 9.4659
-115.6260 32.9800 0.0500 9.4659
