-87.8965 11.4608 0.0392 5.5259
-87.9792 11.5002 0.0556 5.5259
-88.0620 11.5397 0.1400 5.5259
-88.1448 11.5791 0.0471 5.5259
-88.2276 11.6186 0.0045 5.5259
-88.3103 11.6580 0.0125 5.5259
-88.3931 11.6975 0.0199 5.5259
-88.4759 11.7369 0.0370 5.5259
-88.5587 11.7764 0.0710 5.5259
-88.6414 11.8158 0.0554 5.5259
-88.7242 11.8553 0.1670 5.5259
-88.8070 11.8947 0.2238 5.5259
-88.8897 11.9342 0.1734 5.5259
-88.9725 11.9736 0.2459 5.5259
-89.0553 12.0131 0.0244 5.5259
-89.1381 12.0525 0.0058 5.5259
-89.2208 12.0920 0.0133 5.5259
-89.3036 12.1314 0.0229 5.5259
-89.3864 12.1709 0.1589 5.5259
-89.4691 12.2103 0.1149 5.5259
-89.5519 12.2498 0.2419 5.5259
-87.8654 11.5230 0.0256 7.7309
-87.9482 11.5624 0.0724 7.7309
-88.0310 11.6019 0.1079 7.7309
-88.1137 11.6413 0.1560 7.7309
-88.1965 11.6808 0.0824 7.7309
-88.2793 11.7202 0.0423 7.7309
-88.3621 11.7597 0.0500 7.7309
-88.4448 11.7991 0.0030 7.7309
-88.5276 11.8386 0.1028 7.7309
-88.6104 11.8780 0.1285 7.7309
-88.6932 11.9175 0.3316 7.7309
-88.7759 11.9569 0.3943 7.7309
-88.8587 11.9964 0.3810 7.7309
-88.9415 12.0358 0.1243 7.7309
-89.0242 12.0753 0.0331 7.7309
-89.1070 12.1147 0.0579 7.7309
-89.1898 12.1542 0.0146 7.7309
-89.2726 12.1936 0.0013 7.7309
-89.3553 12.2331 0.0016 7.7309
-89.4381 12.2725 0.0520 7.7309
-89.5209 12.3120 0.3109 7.7309
-87.8344 11.5852 0.0272 9.9360
-87.9172 11.6246 0.1045 9.9360
-87.9999 11.6641 0.0575 9.9360
-88.0827 11.7035 0.0555 9.9360
-88.1655 11.7430 0.0105 9.9360
-88.2482 11.7824 0.0445 9.9360
-88.3310 11.8219 0.0021 9.9360
-88.4138 11.8613 0.0006 9.9360
-88.4966 11.9008 0.2854 9.9360
-88.5793 11.9402 0.6538 9.9360
-88.6621 11.9797 0.6953 9.9360
-88.7449 12.0191 0.9068 9.9360
-88.8277 12.0586 0.3416 9.9360
-88.9104 12.0980 0.0391 9.9360
-88.9932 12.1375 0.0612 9.9360
-89.0760 12.1769 0.1682 9.9360
-89.1587 12.2164 0.0600 9.9360
-89.2415 12.2558 0.0082 9.9360
-89.3243 12.2953 0.0549 9.9360
-89.4071 12.3347 0.1177 9.9360
-89.4898 12.3742 0.0779 9.9360
-87.8033 11.6474 0.0232 12.1411
-87.8861 11.6868 0.0028 12.1411
-87.9689 11.7263 0.0376 12.1411
-88.0517 11.7657 0.0973 12.1411
-88.1344 11.8052 0.0081 12.1411
-88.2172 11.8446 0.0033 12.1411
-88.3000 11.8841 0.0273 12.1411
-88.3827 11.9235 0.1743 12.1411
-88.4655 11.9630 0.5647 12.1411
-88.5483 12.0024 0.7285 12.1411
-88.6311 12.0419 0.7432 12.1411
-88.7138 12.0813 0.6435 12.1411
-88.7966 12.1208 0.2520 12.1411
-88.8794 12.1602 0.1481 12.1411
-88.9621 12.1997 0.0254 12.1411
-89.0449 12.2391 0.1342 12.1411
-89.1277 12.2786 0.0067 12.1411
-89.2105 12.3180 0.0047 12.1411
-89.2932 12.3575 0.0203 12.1411
-89.3760 12.3969 0.1222 12.1411
-89.4588 12.4364 0.1049 12.1411
-87.7723 11.7096 0.2658 14.3462
-87.8551 11.7490 0.0372 14.3462
-87.9378 11.7885 0.0827 14.3462
-88.0206 11.8279 0.0067 14.3462
-88.1034 11.8674 0.0010 14.3462
-88.1862 11.9068 0.0093 14.3462
-88.2689 11.9463 0.2220 14.3462
-88.3517 11.9857 0.2415 14.3462
-88.4345 12.0252 0.5373 14.3462
-88.5172 12.0646 0.5068 14.3462
-88.6000 12.1041 0.3968 14.3462
-88.6828 12.1435 0.2516 14.3462
-88.7656 12.1830 0.2332 14.3462
-88.8483 12.2224 0.0786 14.3462
-88.9311 12.2619 0.1013 14.3462
-89.0139 12.3013 0.0184 14.3462
-89.0966 12.3408 0.0250 14.3462
-89.1794 12.3802 0.0032 14.3462
-89.2622 12.4197 0.0082 14.3462
-89.3450 12.4591 0.1399 14.3462
-89.4277 12.4986 0.0181 14.3462
-87.7412 11.7718 0.3663 16.5513
-87.8240 11.8112 0.0068 16.5513
-87.9068 11.8507 0.0031 16.5513
-87.9896 11.8901 0.0038 16.5513
-88.0723 11.9296 0.0068 16.5513
-88.1551 11.9690 0.0061 16.5513
-88.2379 12.0085 0.2456 16.5513
-88.3207 12.0479 0.2063 16.5513
-88.4034 12.0874 0.6424 16.5513
-88.4862 12.1268 0.4406 16.5513
-88.5690 12.1663 0.4887 16.5513
-88.6517 12.2057 0.2187 16.5513
-88.7345 12.2452 0.1143 16.5513
-88.8173 12.2846 0.0505 16.5513
-88.9001 12.3241 0.1732 16.5513
-88.9828 12.3635 0.0669 16.5513
-89.0656 12.4030 0.0099 16.5513
-89.1484 12.4424 0.0251 16.5513
-89.2311 12.4819 0.0023 16.5513
-89.3139 12.5214 0.0274 16.5513
-89.3967 12.5608 0.0490 16.5513
-87.7102 11.8340 0.0879 18.7564
-87.7930 11.8734 0.0668 18.7564
-87.8757 11.9129 0.0282 18.7564
-87.9585 11.9523 0.0117 18.7564
-88.0413 11.9918 0.0548 18.7564
-88.1241 12.0312 0.0094 18.7564
-88.2068 12.0707 0.0878 18.7564
-88.2896 12.1101 0.2072 18.7564
-88.3724 12.1496 0.5395 18.7564
-88.4552 12.1890 0.4010 18.7564
-88.5379 12.2285 1.0577 18.7564
-88.6207 12.2679 0.3316 18.7564
-88.7035 12.3074 0.1380 18.7564
-88.7862 12.3469 0.1235 18.7564
-88.8690 12.3863 0.1084 18.7564
-88.9518 12.4258 0.0857 18.7564
-89.0346 12.4652 0.0487 18.7564
-89.1173 12.5047 0.0132 18.7564
-89.2001 12.5441 0.0059 18.7564
-89.2829 12.5836 0.1819 18.7564
-89.3656 12.6230 0.0958 18.7564
-87.6792 11.8962 0.1131 20.9615
-87.7619 11.9356 0.0700 20.9615
-87.8447 11.9751 0.0458 20.9615
-87.9275 12.0145 0.0174 20.9615
-88.0102 12.0540 0.0970 20.9615
-88.0930 12.0934 0.0010 20.9615
-88.1758 12.1329 0.1449 20.9615
-88.2586 12.1723 0.2940 20.9615
-88.3413 12.2118 0.5768 20.9615
-88.4241 12.2513 0.3924 20.9615
-88.5069 12.2907 0.3633 20.9615
-88.5896 12.3302 0.0596 20.9615
-88.6724 12.3696 0.0114 20.9615
-88.7552 12.4091 0.0629 20.9615
-88.8380 12.4485 0.0649 20.9615
-88.9207 12.4880 0.0019 20.9615
-89.0035 12.5274 0.0057 20.9615
-89.0863 12.5669 0.0043 20.9615
-89.1691 12.6063 0.0029 20.9615
-89.2518 12.6458 0.0451 20.9615
-89.3346 12.6852 0.1103 20.9615
-87.6481 11.9584 0.1122 23.1666
-87.7309 11.9978 0.0365 23.1666
-87.8137 12.0373 0.0934 23.1666
-87.8964 12.0768 0.0088 23.1666
-87.9792 12.1162 0.0020 23.1666
-88.0620 12.1557 0.0090 23.1666
-88.1447 12.1951 0.0030 23.1666
-88.2275 12.2346 0.2427 23.1666
-88.3103 12.2740 0.2678 23.1666
-88.3931 12.3135 0.2832 23.1666
-88.4758 12.3529 0.1035 23.1666
-88.5586 12.3924 0.0241 23.1666
-88.6414 12.4318 0.0221 23.1666
-88.7241 12.4713 0.0080 23.1666
-88.8069 12.5107 0.0068 23.1666
-88.8897 12.5502 0.1689 23.1666
-88.9725 12.5896 0.0472 23.1666
-89.0552 12.6291 0.0638 23.1666
-89.1380 12.6685 0.0160 23.1666
-89.2208 12.7080 0.0023 23.1666
-89.3036 12.7474 0.0078 23.1666
-87.6171 12.0206 0.0123 25.3717
-87.6998 12.0601 0.0246 25.3717
-87.7826 12.0995 0.0634 25.3717
-87.8654 12.1390 0.0118 25.3717
-87.9482 12.1784 0.0103 25.3717
-88.0309 12.2179 0.0021 25.3717
-88.1137 12.2573 0.0358 25.3717
-88.1965 12.2968 0.0310 25.3717
-88.2792 12.3362 0.0171 25.3717
-88.3620 12.3757 0.0046 25.3717
-88.4448 12.4151 0.1061 25.3717
-88.5276 12.4546 0.0385 25.3717
-88.6103 12.4940 0.0093 25.3717
-88.6931 12.5335 0.0018 25.3717
-88.7759 12.5729 0.0311 25.3717
-88.8586 12.6124 0.0909 25.3717
-88.9414 12.6518 0.0074 25.3717
-89.0242 12.6913 0.0226 25.3717
-89.1070 12.7307 0.1010 25.3717
-89.1897 12.7702 0.0180 25.3717
-89.2725 12.8096 0.0051 25.3717
-87.5860 12.0828 0.0194 27.5768
-87.6688 12.1223 0.0133 27.5768
-87.7516 12.1617 0.0040 27.5768
-87.8343 12.2012 0.0039 27.5768
-87.9171 12.2406 0.0047 27.5768
-87.9999 12.2801 0.0312 27.5768
-88.0827 12.3195 0.0058 27.5768
-88.1654 12.3590 0.0222 27.5768
-88.2482 12.3984 0.0118 27.5768
-88.3310 12.4379 0.0104 27.5768
-88.4137 12.4773 0.0051 27.5768
-88.4965 12.5168 0.0073 27.5768
-88.5793 12.5562 0.0047 27.5768
-88.6621 12.5957 0.0018 27.5768
-88.7448 12.6351 0.0014 27.5768
-88.8276 12.6746 0.0148 27.5768
-88.9104 12.7140 0.0085 27.5768
-88.9931 12.7535 0.0053 27.5768
-89.0759 12.7929 0.0088 27.5768
-89.1587 12.8324 0.1124 27.5768
-89.2415 12.8718 0.0016 27.5768
-87.5550 12.1450 0.0176 29.7819
-87.6377 12.1845 0.0231 29.7819
-87.7205 12.2239 0.0094 29.7819
-87.8033 12.2634 0.0020 29.7819
-87.8861 12.3028 0.0227 29.7819
-87.9688 12.3423 0.0017 29.7819
-88.0516 12.3817 0.0022 29.7819
-88.1344 12.4212 0.0096 29.7819
-88.2171 12.4606 0.0031 29.7819
-88.2999 12.5001 0.0005 29.7819
-88.3827 12.5395 0.0459 29.7819
-88.4655 12.5790 0.0172 29.7819
-88.5482 12.6184 0.0497 29.7819
-88.6310 12.6579 0.0089 29.7819
-88.7138 12.6973 0.0249 29.7819
-88.7966 12.7368 0.0136 29.7819
-88.8793 12.7762 0.1265 29.7819
-88.9621 12.8157 0.0396 29.7819
-89.0449 12.8551 0.1432 29.7819
-89.1276 12.8946 0.0452 29.7819
-89.2104 12.9340 0.2006 29.7819
-87.5239 12.2072 0.0232 31.9870
-87.6067 12.2467 0.0065 31.9870
-87.6895 12.2861 0.0272 31.9870
-87.7722 12.3256 0.0813 31.9870
-87.8550 12.3650 0.0051 31.9870
-87.9378 12.4045 0.0047 31.9870
-88.0206 12.4439 0.0006 31.9870
-88.1033 12.4834 0.0063 31.9870
-88.1861 12.5228 0.0718 31.9870
-88.2689 12.5623 0.0103 31.9870
-88.3516 12.6017 0.0023 31.9870
-88.4344 12.6412 0.0308 31.9870
-88.5172 12.6806 0.0020 31.9870
-88.6000 12.7201 0.0010 31.9870
-88.6827 12.7595 0.0218 31.9870
-88.7655 12.7990 0.0036 31.9870
-88.8483 12.8384 0.0017 31.9870
-88.9311 12.8779 0.0023 31.9870
-89.0138 12.9173 0.1664 31.9870
-89.0966 12.9568 0.1470 31.9870
-89.1794 12.9962 0.1570 31.9870
-87.4929 12.2694 0.0461 34.1921
-87.5757 12.3089 0.0032 34.1921
-87.6584 12.3483 0.0092 34.1921
-87.7412 12.3878 0.0418 34.1921
-87.8240 12.4272 0.0145 34.1921
-87.9067 12.4667 0.0010 34.1921
-87.9895 12.5061 0.0035 34.1921
-88.0723 12.5456 0.0084 34.1921
-88.1551 12.5850 0.0087 34.1921
-88.2378 12.6245 0.0189 34.1921
-88.3206 12.6639 0.0200 34.1921
-88.4034 12.7034 0.0110 34.1921
-88.4861 12.7428 0.0020 34.1921
-88.5689 12.7823 0.0060 34.1921
-88.6517 12.8217 0.0013 34.1921
-88.7345 12.8612 0.0267 34.1921
-88.8172 12.9006 0.0056 34.1921
-88.9000 12.9401 0.0598 34.1921
-88.9828 12.9795 0.0287 34.1921
-89.0656 13.0190 0.1597 34.1921
-89.1483 13.0584 0.1905 34.1921
-87.4618 12.3316 0.0412 36.3972
-87.5446 12.3711 0.0199 36.3972
-87.6274 12.4105 0.0062 36.3972
-87.7102 12.4500 0.0348 36.3972
-87.7929 12.4894 0.0264 36.3972
-87.8757 12.5289 0.1063 36.3972
-87.9585 12.5683 0.0023 36.3972
-88.0412 12.6078 0.0032 36.3972
-88.1240 12.6472 0.0066 36.3972
-88.2068 12.6867 0.0166 36.3972
-88.2896 12.7261 0.0247 36.3972
-88.3723 12.7656 0.0174 36.3972
-88.4551 12.8050 0.0035 36.3972
-88.5379 12.8445 0.0243 36.3972
-88.6206 12.8839 0.0002 36.3972
-88.7034 12.9234 0.0002 36.3972
-88.7862 12.9628 0.0027 36.3972
-88.8690 13.0023 0.0081 36.3972
-88.9517 13.0417 0.0186 36.3972
-89.0345 13.0812 0.2396 36.3972
-89.1173 13.1206 0.1230 36.3972
-87.4308 12.3938 0.1024 38.6023
-87.5136 12.4333 0.1471 38.6023
-87.5963 12.4727 0.0601 38.6023
-87.6791 12.5122 0.0074 38.6023
-87.7619 12.5516 0.0304 38.6023
-87.8446 12.5911 0.2200 38.6023
-87.9274 12.6305 0.0037 38.6023
-88.0102 12.6700 0.0949 38.6023
-88.0930 12.7094 0.0437 38.6023
-88.1757 12.7489 0.0829 38.6023
-88.2585 12.7883 0.0199 38.6023
-88.3413 12.8278 0.0076 38.6023
-88.4241 12.8672 0.0055 38.6023
-88.5068 12.9067 0.0436 38.6023
-88.5896 12.9461 0.0124 38.6023
-88.6724 12.9856 0.0030 38.6023
-88.7551 13.0250 0.0049 38.6023
-88.8379 13.0645 0.0067 38.6023
-88.9207 13.1039 0.1079 38.6023
-89.0035 13.1434 0.1820 38.6023
-89.0862 13.1828 0.0058 38.6023
