86.4176 27.2349 0.0085 8.5900
86.3759 27.2607 0.0945 8.5900
86.3342 27.2866 0.0922 8.5900
86.2926 27.3124 0.0851 8.5900
86.2509 27.3382 0.0680 8.5900
86.2092 27.3640 0.0048 8.5900
86.1675 27.3898 0.0066 8.5900
86.1258 27.4156 0.0402 8.5900
86.0841 27.4414 0.0567 8.5900
86.0424 27.4672 0.0950 8.5900
86.0008 27.4930 0.0037 8.5900
85.9591 27.5188 0.0678 8.5900
85.9174 27.5446 0.0332 8.5900
85.8757 27.5705 0.0014 8.5900
85.8340 27.5963 0.0316 8.5900
85.7923 27.6221 0.0520 8.5900
85.7507 27.6479 0.0621 8.5900
85.7090 27.6737 0.0684 8.5900
85.6673 27.6995 0.0678 8.5900
85.6256 27.7253 0.0553 8.5900
85.5839 27.7511 0.0375 8.5900
85.5422 27.7769 0.0426 8.5900
85.5005 27.8027 0.0889 8.5900
85.4589 27.8285 0.0967 8.5900
85.4172 27.8543 0.0827 8.5900
86.4401 27.2633 0.0488 9.2001
86.3984 27.2891 0.2868 9.2001
86.3567 27.3149 0.2630 9.2001
86.3150 27.3408 0.2904 9.2001
86.2734 27.3666 0.3569 9.2001
86.2317 27.3924 0.0259 9.2001
86.1900 27.4182 0.0227 9.2001
86.1483 27.4440 0.2005 9.2001
86.1066 27.4698 0.3356 9.2001
86.0649 27.4956 0.1119 9.2001
86.0232 27.5214 0.0616 9.2001
85.9816 27.5472 0.0157 9.2001
85.9399 27.5730 0.2229 9.2001
85.8982 27.5988 0.1363 9.2001
85.8565 27.6247 0.0299 9.2001
85.8148 27.6505 0.0450 9.2001
85.7731 27.6763 0.0728 9.2001
85.7315 27.7021 0.0717 9.2001
85.6898 27.7279 0.0345 9.2001
85.6481 27.7537 0.3271 9.2001
85.6064 27.7795 0.4695 9.2001
85.5647 27.8053 0.5700 9.2001
85.5230 27.8311 0.3231 9.2001
85.4813 27.8569 0.1981 9.2001
85.4397 27.8827 0.0748 9.2001
86.4626 27.2917 0.0860 9.8102
86.4209 27.3175 0.5942 9.8102
86.3792 27.3433 0.2336 9.8102
86.3375 27.3692 0.0787 9.8102
86.2958 27.3950 0.1533 9.8102
86.2542 27.4208 0.0503 9.8102
86.2125 27.4466 0.1755 9.8102
86.1708 27.4724 0.2286 9.8102
86.1291 27.4982 0.3271 9.8102
86.0874 27.5240 0.4818 9.8102
86.0457 27.5498 0.3989 9.8102
86.0041 27.5756 0.2299 9.8102
85.9624 27.6014 0.0859 9.8102
85.9207 27.6272 0.1116 9.8102
85.8790 27.6531 0.1681 9.8102
85.8373 27.6789 0.0099 9.8102
85.7956 27.7047 0.0344 9.8102
85.7539 27.7305 0.0728 9.8102
85.7123 27.7563 0.1811 9.8102
85.6706 27.7821 0.4063 9.8102
85.6289 27.8079 0.4406 9.8102
85.5872 27.8337 0.6517 9.8102
85.5455 27.8595 0.3529 9.8102
85.5038 27.8853 0.2235 9.8102
85.4622 27.9111 0.0242 9.8102
86.4851 27.3201 0.0066 10.4203
86.4434 27.3459 0.0548 10.4203
86.4017 27.3717 0.0879 10.4203
86.3600 27.3976 0.0423 10.4203
86.3183 27.4234 0.1040 10.4203
86.2766 27.4492 0.0767 10.4203
86.2350 27.4750 0.0325 10.4203
86.1933 27.5008 0.1798 10.4203
86.1516 27.5266 0.2421 10.4203
86.1099 27.5524 0.1810 10.4203
86.0682 27.5782 0.1136 10.4203
86.0265 27.6040 0.1498 10.4203
85.9849 27.6298 0.2521 10.4203
85.9432 27.6556 0.3386 10.4203
85.9015 27.6814 0.0555 10.4203
85.8598 27.7073 0.0320 10.4203
85.8181 27.7331 0.1338 10.4203
85.7764 27.7589 0.0267 10.4203
85.7347 27.7847 0.0053 10.4203
85.6931 27.8105 0.4043 10.4203
85.6514 27.8363 0.3424 10.4203
85.6097 27.8621 0.6824 10.4203
85.5680 27.8879 0.5352 10.4203
85.5263 27.9137 0.2199 10.4203
85.4846 27.9395 0.0573 10.4203
86.5076 27.3485 0.0469 11.0304
86.4659 27.3743 0.0708 11.0304
86.4242 27.4001 0.0451 11.0304
86.3825 27.4259 0.0142 11.0304
86.3408 27.4518 0.1511 11.0304
86.2991 27.4776 0.0368 11.0304
86.2574 27.5034 0.0567 11.0304
86.2158 27.5292 0.3268 11.0304
86.1741 27.5550 0.2011 11.0304
86.1324 27.5808 0.1082 11.0304
86.0907 27.6066 0.0280 11.0304
86.0490 27.6324 0.0038 11.0304
86.0073 27.6582 0.0981 11.0304
85.9657 27.6840 0.0216 11.0304
85.9240 27.7098 0.0586 11.0304
85.8823 27.7357 0.0490 11.0304
85.8406 27.7615 0.0059 11.0304
85.7989 27.7873 0.0395 11.0304
85.7572 27.8131 0.1297 11.0304
85.7155 27.8389 0.2835 11.0304
85.6739 27.8647 0.1028 11.0304
85.6322 27.8905 0.4325 11.0304
85.5905 27.9163 0.2033 11.0304
85.5488 27.9421 0.3163 11.0304
85.5071 27.9679 0.0465 11.0304
86.5300 27.3769 0.0585 11.6405
86.4884 27.4027 0.1071 11.6405
86.4467 27.4285 0.0517 11.6405
86.4050 27.4543 0.1056 11.6405
86.3633 27.4802 0.0941 11.6405
86.3216 27.5060 0.1448 11.6405
86.2799 27.5318 0.1287 11.6405
86.2382 27.5576 0.2775 11.6405
86.1966 27.5834 0.0866 11.6405
86.1549 27.6092 0.0394 11.6405
86.1132 27.6350 0.0587 11.6405
86.0715 27.6608 0.1410 11.6405
86.0298 27.6866 0.0118 11.6405
85.9881 27.7124 0.0753 11.6405
85.9465 27.7382 0.0300 11.6405
85.9048 27.7640 0.0329 11.6405
85.8631 27.7899 0.0481 11.6405
85.8214 27.8157 0.2399 11.6405
85.7797 27.8415 0.1555 11.6405
85.7380 27.8673 0.1788 11.6405
85.6963 27.8931 0.0457 11.6405
85.6547 27.9189 0.2407 11.6405
85.6130 27.9447 0.2310 11.6405
85.5713 27.9705 0.0593 11.6405
85.5296 27.9963 0.0665 11.6405
86.5525 27.4053 0.0135 12.2506
86.5108 27.4311 0.0913 12.2506
86.4692 27.4569 0.1651 12.2506
86.4275 27.4827 0.0761 12.2506
86.3858 27.5085 0.0188 12.2506
86.3441 27.5344 0.1687 12.2506
86.3024 27.5602 0.3053 12.2506
86.2607 27.5860 0.0735 12.2506
86.2191 27.6118 0.0048 12.2506
86.1774 27.6376 0.4558 12.2506
86.1357 27.6634 0.3158 12.2506
86.0940 27.6892 0.0898 12.2506
86.0523 27.7150 0.0159 12.2506
86.0106 27.7408 0.0393 12.2506
85.9689 27.7666 0.1067 12.2506
85.9273 27.7924 0.0208 12.2506
85.8856 27.8183 0.0182 12.2506
85.8439 27.8441 0.1194 12.2506
85.8022 27.8699 0.0115 12.2506
85.7605 27.8957 0.1310 12.2506
85.7188 27.9215 0.2039 12.2506
85.6772 27.9473 0.2000 12.2506
85.6355 27.9731 0.1572 12.2506
85.5938 27.9989 0.1715 12.2506
85.5521 28.0247 0.0313 12.2506
86.5750 27.4337 0.0043 12.8607
86.5333 27.4595 0.1442 12.8607
86.4916 27.4853 0.1873 12.8607
86.4500 27.5111 0.0426 12.8607
86.4083 27.5369 0.4244 12.8607
86.3666 27.5628 0.4465 12.8607
86.3249 27.5886 0.5582 12.8607
86.2832 27.6144 0.0184 12.8607
86.2415 27.6402 0.0216 12.8607
86.1999 27.6660 0.7709 12.8607
86.1582 27.6918 0.7292 12.8607
86.1165 27.7176 1.1783 12.8607
86.0748 27.7434 1.0899 12.8607
86.0331 27.7692 1.2150 12.8607
85.9914 27.7950 0.4397 12.8607
85.9497 27.8208 0.0634 12.8607
85.9081 27.8466 0.0964 12.8607
85.8664 27.8725 0.0020 12.8607
85.8247 27.8983 0.0445 12.8607
85.7830 27.9241 0.2532 12.8607
85.7413 27.9499 0.4146 12.8607
85.6996 27.9757 0.3222 12.8607
85.6580 28.0015 0.2047 12.8607
85.6163 28.0273 0.0481 12.8607
85.5746 28.0531 0.0072 12.8607
86.5975 27.4621 0.0374 13.4708
86.5558 27.4879 0.0751 13.4708
86.5141 27.5137 0.0326 13.4708
86.4724 27.5395 0.0187 13.4708
86.4308 27.5653 0.0361 13.4708
86.3891 27.5911 0.5167 13.4708
86.3474 27.6170 0.4012 13.4708
86.3057 27.6428 0.2766 13.4708
86.2640 27.6686 0.5964 13.4708
86.2223 27.6944 0.8845 13.4708
86.1807 27.7202 1.2865 13.4708
86.1390 27.7460 1.8411 13.4708
86.0973 27.7718 2.3894 13.4708
86.0556 27.7976 2.4600 13.4708
86.0139 27.8234 1.6975 13.4708
85.9722 27.8492 0.7447 13.4708
85.9305 27.8750 0.1699 13.4708
85.8889 27.9009 0.0819 13.4708
85.8472 27.9267 0.0508 13.4708
85.8055 27.9525 0.0283 13.4708
85.7638 27.9783 0.5411 13.4708
85.7221 28.0041 0.6056 13.4708
85.6804 28.0299 0.3738 13.4708
85.6388 28.0557 0.0230 13.4708
85.5971 28.0815 0.0388 13.4708
86.6200 27.4905 0.0790 14.0808
86.5783 27.5163 0.2041 14.0808
86.5366 27.5421 0.0019 14.0808
86.4949 27.5679 0.0530 14.0808
86.4532 27.5937 0.1692 14.0808
86.4116 27.6195 0.5844 14.0808
86.3699 27.6454 0.1599 14.0808
86.3282 27.6712 0.0224 14.0808
86.2865 27.6970 0.6865 14.0808
86.2448 27.7228 0.9333 14.0808
86.2031 27.7486 1.4722 14.0808
86.1615 27.7744 2.5533 14.0808
86.1198 27.8002 3.2677 14.0808
86.0781 27.8260 3.2496 14.0808
86.0364 27.8518 2.5177 14.0808
85.9947 27.8776 1.1298 14.0808
85.9530 27.9034 0.2513 14.0808
85.9113 27.9293 0.0369 14.0808
85.8697 27.9551 0.0875 14.0808
85.8280 27.9809 0.0409 14.0808
85.7863 28.0067 0.2818 14.0808
85.7446 28.0325 0.5401 14.0808
85.7029 28.0583 0.0678 14.0808
85.6612 28.0841 0.1849 14.0808
85.6196 28.1099 0.0655 14.0808
86.6425 27.5189 0.0429 14.6909
86.6008 27.5447 0.0739 14.6909
86.5591 27.5705 0.1490 14.6909
86.5174 27.5963 0.0134 14.6909
86.4757 27.6221 0.0093 14.6909
86.4340 27.6479 0.0585 14.6909
86.3924 27.6737 0.1356 14.6909
86.3507 27.6996 0.0109 14.6909
86.3090 27.7254 0.3595 14.6909
86.2673 27.7512 0.8451 14.6909
86.2256 27.7770 1.6501 14.6909
86.1839 27.8028 2.8428 14.6909
86.1423 27.8286 3.2379 14.6909
86.1006 27.8544 2.8356 14.6909
86.0589 27.8802 2.1055 14.6909
86.0172 27.9060 0.9812 14.6909
85.9755 27.9318 0.5159 14.6909
85.9338 27.9576 0.0236 14.6909
85.8921 27.9835 0.0219 14.6909
85.8505 28.0093 0.1501 14.6909
85.8088 28.0351 0.3108 14.6909
85.7671 28.0609 0.4356 14.6909
85.7254 28.0867 0.0081 14.6909
85.6837 28.1125 0.0226 14.6909
85.6420 28.1383 0.0186 14.6909
86.6650 27.5473 0.0281 15.3010
86.6233 27.5731 0.0111 15.3010
86.5816 27.5989 0.0804 15.3010
86.5399 27.6247 0.1139 15.3010
86.4982 27.6505 0.0541 15.3010
86.4565 27.6763 0.1152 15.3010
86.4149 27.7021 0.3106 15.3010
86.3732 27.7280 0.1255 15.3010
86.3315 27.7538 0.3840 15.3010
86.2898 27.7796 1.2080 15.3010
86.2481 27.8054 1.9460 15.3010
86.2064 27.8312 3.2521 15.3010
86.1647 27.8570 2.7496 15.3010
86.1231 27.8828 2.2164 15.3010
86.0814 27.9086 1.3556 15.3010
86.0397 27.9344 0.9983 15.3010
85.9980 27.9602 0.6406 15.3010
85.9563 27.9860 0.2654 15.3010
85.9146 28.0119 0.2317 15.3010
85.8730 28.0377 0.2845 15.3010
85.8313 28.0635 0.9658 15.3010
85.7896 28.0893 0.4418 15.3010
85.7479 28.1151 0.3170 15.3010
85.7062 28.1409 0.2387 15.3010
85.6645 28.1667 0.0544 15.3010
86.6874 27.5757 0.0074 15.9111
86.6458 27.6015 0.0157 15.9111
86.6041 27.6273 0.2030 15.9111
86.5624 27.6531 0.3798 15.9111
86.5207 27.6789 0.2327 15.9111
86.4790 27.7047 0.0603 15.9111
86.4373 27.7305 0.1367 15.9111
86.3957 27.7563 0.0420 15.9111
86.3540 27.7822 0.4680 15.9111
86.3123 27.8080 1.1830 15.9111
86.2706 27.8338 1.3948 15.9111
86.2289 27.8596 2.0247 15.9111
86.1872 27.8854 1.7733 15.9111
86.1455 27.9112 1.0868 15.9111
86.1039 27.9370 0.6860 15.9111
86.0622 27.9628 0.8327 15.9111
86.0205 27.9886 0.6351 15.9111
85.9788 28.0144 0.1907 15.9111
85.9371 28.0402 0.0973 15.9111
85.8954 28.0661 0.2517 15.9111
85.8538 28.0919 0.4940 15.9111
85.8121 28.1177 0.2046 15.9111
85.7704 28.1435 0.0170 15.9111
85.7287 28.1693 0.1025 15.9111
85.6870 28.1951 0.0929 15.9111
86.7099 27.6041 0.0556 16.5212
86.6682 27.6299 0.1126 16.5212
86.6266 27.6557 0.0996 16.5212
86.5849 27.6815 0.3071 16.5212
86.5432 27.7073 0.3303 16.5212
86.5015 27.7331 0.2170 16.5212
86.4598 27.7589 0.1934 16.5212
86.4181 27.7847 0.0124 16.5212
86.3765 27.8106 0.2122 16.5212
86.3348 27.8364 0.7657 16.5212
86.2931 27.8622 0.4609 16.5212
86.2514 27.8880 0.8018 16.5212
86.2097 27.9138 0.7742 16.5212
86.1680 27.9396 0.1262 16.5212
86.1263 27.9654 0.3698 16.5212
86.0847 27.9912 0.5013 16.5212
86.0430 28.0170 0.3147 16.5212
86.0013 28.0428 0.0108 16.5212
85.9596 28.0686 0.1113 16.5212
85.9179 28.0945 0.0205 16.5212
85.8762 28.1203 0.3659 16.5212
85.8346 28.1461 0.2686 16.5212
85.7929 28.1719 0.2447 16.5212
85.7512 28.1977 0.4473 16.5212
85.7095 28.2235 0.0983 16.5212
86.7324 27.6325 0.0392 17.1313
86.6907 27.6583 0.0098 17.1313
86.6490 27.6841 0.2337 17.1313
86.6074 27.7099 0.3311 17.1313
86.5657 27.7357 0.1826 17.1313
86.5240 27.7615 0.1167 17.1313
86.4823 27.7873 0.1454 17.1313
86.4406 27.8131 0.0563 17.1313
86.3989 27.8390 0.0197 17.1313
86.3573 27.8648 0.1669 17.1313
86.3156 27.8906 0.1858 17.1313
86.2739 27.9164 0.0915 17.1313
86.2322 27.9422 0.2195 17.1313
86.1905 27.9680 0.2400 17.1313
86.1488 27.9938 0.2820 17.1313
86.1071 28.0196 0.1810 17.1313
86.0655 28.0454 0.1368 17.1313
86.0238 28.0712 0.0921 17.1313
85.9821 28.0970 0.0323 17.1313
85.9404 28.1228 0.0526 17.1313
85.8987 28.1487 0.3273 17.1313
85.8570 28.1745 0.4736 17.1313
85.8154 28.2003 0.3514 17.1313
85.7737 28.2261 0.3448 17.1313
85.7320 28.2519 0.0288 17.1313
86.7549 27.6609 0.0262 17.7414
86.7132 27.6867 0.2891 17.7414
86.6715 27.7125 0.2013 17.7414
86.6298 27.7383 0.0823 17.7414
86.5882 27.7641 0.1576 17.7414
86.5465 27.7899 0.0735 17.7414
86.5048 27.8157 0.0547 17.7414
86.4631 27.8415 0.0242 17.7414
86.4214 27.8673 0.0488 17.7414
86.3797 27.8932 0.0482 17.7414
86.3381 27.9190 0.0781 17.7414
86.2964 27.9448 0.1940 17.7414
86.2547 27.9706 0.0291 17.7414
86.2130 27.9964 0.1524 17.7414
86.1713 28.0222 0.1906 17.7414
86.1296 28.0480 0.4445 17.7414
86.0879 28.0738 0.4508 17.7414
86.0463 28.0996 0.1828 17.7414
86.0046 28.1254 0.1911 17.7414
85.9629 28.1512 0.0667 17.7414
85.9212 28.1771 0.4833 17.7414
85.8795 28.2029 0.6785 17.7414
85.8378 28.2287 0.4976 17.7414
85.7962 28.2545 0.7527 17.7414
85.7545 28.2803 0.0488 17.7414
86.7774 27.6893 0.0276 18.3515
86.7357 27.7151 0.3207 18.3515
86.6940 27.7409 0.6356 18.3515
86.6523 27.7667 0.6391 18.3515
86.6107 27.7925 0.4167 18.3515
86.5690 27.8183 0.0263 18.3515
86.5273 27.8441 0.0049 18.3515
86.4856 27.8699 0.0195 18.3515
86.4439 27.8957 0.0645 18.3515
86.4022 27.9216 0.1269 18.3515
86.3605 27.9474 0.1358 18.3515
86.3189 27.9732 0.1142 18.3515
86.2772 27.9990 0.1707 18.3515
86.2355 28.0248 0.1169 18.3515
86.1938 28.0506 0.1554 18.3515
86.1521 28.0764 0.2686 18.3515
86.1104 28.1022 0.4252 18.3515
86.0688 28.1280 0.0092 18.3515
86.0271 28.1538 0.1262 18.3515
85.9854 28.1796 0.0860 18.3515
85.9437 28.2054 0.3413 18.3515
85.9020 28.2313 0.3470 18.3515
85.8603 28.2571 0.2228 18.3515
85.8186 28.2829 0.3421 18.3515
85.7770 28.3087 0.0023 18.3515
86.7999 27.7177 0.0438 18.9616
86.7582 27.7435 0.7357 18.9616
86.7165 27.7693 0.8225 18.9616
86.6748 27.7951 0.6720 18.9616
86.6331 27.8209 0.7629 18.9616
86.5915 27.8467 0.4117 18.9616
86.5498 27.8725 0.3299 18.9616
86.5081 27.8983 0.0085 18.9616
86.4664 27.9241 0.0029 18.9616
86.4247 27.9499 0.0213 18.9616
86.3830 27.9758 0.0519 18.9616
86.3413 28.0016 0.3335 18.9616
86.2997 28.0274 0.3696 18.9616
86.2580 28.0532 0.4057 18.9616
86.2163 28.0790 0.3425 18.9616
86.1746 28.1048 0.0218 18.9616
86.1329 28.1306 0.0465 18.9616
86.0912 28.1564 0.1797 18.9616
86.0496 28.1822 0.4955 18.9616
86.0079 28.2080 0.4519 18.9616
85.9662 28.2338 0.2501 18.9616
85.9245 28.2597 0.4903 18.9616
85.8828 28.2855 0.3736 18.9616
85.8411 28.3113 0.5565 18.9616
85.7994 28.3371 0.0673 18.9616
86.8224 27.7461 0.0422 19.5717
86.7807 27.7719 0.5879 19.5717
86.7390 27.7977 0.8149 19.5717
86.6973 27.8235 0.7781 19.5717
86.6556 27.8493 0.7258 19.5717
86.6139 27.8751 0.3500 19.5717
86.5723 27.9009 0.1234 19.5717
86.5306 27.9267 0.0404 19.5717
86.4889 27.9525 0.0401 19.5717
86.4472 27.9783 0.0245 19.5717
86.4055 28.0042 0.0236 19.5717
86.3638 28.0300 0.1077 19.5717
86.3221 28.0558 0.5570 19.5717
86.2805 28.0816 0.2287 19.5717
86.2388 28.1074 0.1017 19.5717
86.1971 28.1332 0.1179 19.5717
86.1554 28.1590 0.1569 19.5717
86.1137 28.1848 0.1579 19.5717
86.0720 28.2106 0.4274 19.5717
86.0304 28.2364 0.2935 19.5717
85.9887 28.2622 0.1204 19.5717
85.9470 28.2880 0.0847 19.5717
85.9053 28.3139 0.0976 19.5717
85.8636 28.3397 0.3232 19.5717
85.8219 28.3655 0.0849 19.5717
86.8448 27.7745 0.0050 20.1818
86.8032 27.8003 0.2353 20.1818
86.7615 27.8261 0.6036 20.1818
86.7198 27.8519 0.8400 20.1818
86.6781 27.8777 0.5975 20.1818
86.6364 27.9035 0.3531 20.1818
86.5947 27.9293 0.2414 20.1818
86.5531 27.9551 0.0948 20.1818
86.5114 27.9809 0.1631 20.1818
86.4697 28.0067 0.0214 20.1818
86.4280 28.0325 0.0341 20.1818
86.3863 28.0584 0.1140 20.1818
86.3446 28.0842 0.0923 20.1818
86.3029 28.1100 0.0052 20.1818
86.2613 28.1358 0.0718 20.1818
86.2196 28.1616 0.0256 20.1818
86.1779 28.1874 0.0135 20.1818
86.1362 28.2132 0.0092 20.1818
86.0945 28.2390 0.2206 20.1818
86.0528 28.2648 0.1248 20.1818
86.0112 28.2906 0.0760 20.1818
85.9695 28.3164 0.2804 20.1818
85.9278 28.3423 0.1574 20.1818
85.8861 28.3681 0.2756 20.1818
85.8444 28.3939 0.0304 20.1818
86.8673 27.8029 0.0456 20.7919
86.8257 27.8287 0.0444 20.7919
86.7840 27.8545 0.0377 20.7919
86.7423 27.8803 0.0474 20.7919
86.7006 27.9061 0.0818 20.7919
86.6589 27.9319 0.0634 20.7919
86.6172 27.9577 0.0364 20.7919
86.5755 27.9835 0.0275 20.7919
86.5339 28.0093 0.0600 20.7919
86.4922 28.0351 0.0361 20.7919
86.4505 28.0609 0.0657 20.7919
86.4088 28.0868 0.0486 20.7919
86.3671 28.1126 0.0053 20.7919
86.3254 28.1384 0.0228 20.7919
86.2838 28.1642 0.0298 20.7919
86.2421 28.1900 0.0490 20.7919
86.2004 28.2158 0.0488 20.7919
86.1587 28.2416 0.0663 20.7919
86.1170 28.2674 0.0540 20.7919
86.0753 28.2932 0.0704 20.7919
86.0336 28.3190 0.0030 20.7919
85.9920 28.3448 0.0635 20.7919
85.9503 28.3707 0.0920 20.7919
85.9086 28.3965 0.0461 20.7919
85.8669 28.4223 0.0546 20.7919
