143.8413 40.5464 0.5735 13.6500
143.7527 40.3324 1.4103 13.6500
143.6640 40.1184 0.3499 13.6500
143.5754 39.9045 2.1991 13.6500
143.4868 39.6905 5.2137 13.6500
143.3982 39.4765 5.9540 13.6500
143.3096 39.2626 7.5851 13.6500
143.2210 39.0486 20.7219 13.6500
143.1324 38.8346 29.5423 13.6500
143.0437 38.6206 29.6383 13.6500
142.9551 38.4067 27.6940 13.6500
142.8665 38.1927 24.2976 13.6500
142.7779 37.9787 18.1503 13.6500
142.6893 37.7648 21.5619 13.6500
142.6007 37.5508 20.3928 13.6500
142.5121 37.3368 12.1868 13.6500
142.4234 37.1228 8.9445 13.6500
142.3348 36.9089 3.4858 13.6500
142.2462 36.6949 3.6373 13.6500
142.1576 36.4809 2.7321 13.6500
142.0690 36.2670 3.1085 13.6500
141.9804 36.0530 6.4274 13.6500
141.8918 35.8390 0.7015 13.6500
141.8031 35.6251 0.9895 13.6500
141.7145 35.4111 0.6130 13.6500
143.6664 40.5910 0.1827 17.9464
143.5777 40.3770 0.2922 17.9464
143.4891 40.1630 0.9826 17.9464
143.4005 39.9491 2.2863 17.9464
143.3119 39.7351 5.0164 17.9464
143.2233 39.5211 3.9287 17.9464
143.1347 39.3071 7.1748 17.9464
143.0461 39.0932 13.6282 17.9464
142.9574 38.8792 14.3540 17.9464
142.8688 38.6652 12.0390 17.9464
142.7802 38.4513 7.2715 17.9464
142.6916 38.2373 9.0202 17.9464
142.6030 38.0233 15.2734 17.9464
142.5144 37.8094 14.4191 17.9464
142.4258 37.5954 11.0538 17.9464
142.3371 37.3814 6.5988 17.9464
142.2485 37.1674 0.0465 17.9464
142.1599 36.9535 1.4908 17.9464
142.0713 36.7395 1.7910 17.9464
141.9827 36.5255 1.3287 17.9464
141.8941 36.3116 4.2255 17.9464
141.8055 36.0976 2.9650 17.9464
141.7168 35.8836 1.7316 17.9464
141.6282 35.6696 3.2255 17.9464
141.5396 35.4557 0.1891 17.9464
143.4914 40.6356 0.1765 22.2428
143.4028 40.4216 0.7307 22.2428
143.3142 40.2076 2.6615 22.2428
143.2256 39.9936 7.1753 22.2428
143.1370 39.7797 3.0447 22.2428
143.0484 39.5657 7.0952 22.2428
142.9597 39.3517 8.8606 22.2428
142.8711 39.1378 11.0088 22.2428
142.7825 38.9238 9.6309 22.2428
142.6939 38.7098 8.0865 22.2428
142.6053 38.4959 3.3485 22.2428
142.5167 38.2819 6.6222 22.2428
142.4281 38.0679 13.6538 22.2428
142.3394 37.8539 12.3849 22.2428
142.2508 37.6400 6.6134 22.2428
142.1622 37.4260 4.1299 22.2428
142.0736 37.2120 1.0433 22.2428
141.9850 36.9981 1.4080 22.2428
141.8964 36.7841 3.5221 22.2428
141.8078 36.5701 0.3421 22.2428
141.7191 36.3561 2.5080 22.2428
141.6305 36.1422 0.7471 22.2428
141.5419 35.9282 0.4775 22.2428
141.4533 35.7142 1.7134 22.2428
141.3647 35.5003 0.1914 22.2428
143.3165 40.6801 0.6716 26.5392
143.2279 40.4662 2.2717 26.5392
143.1393 40.2522 2.9823 26.5392
143.0507 40.0382 4.1314 26.5392
142.9621 39.8243 7.6743 26.5392
142.8734 39.6103 7.6793 26.5392
142.7848 39.3963 12.3327 26.5392
142.6962 39.1824 14.1899 26.5392
142.6076 38.9684 14.6052 26.5392
142.5190 38.7544 7.3625 26.5392
142.4304 38.5404 4.4308 26.5392
142.3418 38.3265 4.6725 26.5392
142.2531 38.1125 8.3842 26.5392
142.1645 37.8985 6.5702 26.5392
142.0759 37.6846 6.4668 26.5392
141.9873 37.4706 3.6233 26.5392
141.8987 37.2566 2.2513 26.5392
141.8101 37.0426 1.6616 26.5392
141.7215 36.8287 0.6121 26.5392
141.6328 36.6147 0.6856 26.5392
141.5442 36.4007 6.0664 26.5392
141.4556 36.1868 3.8198 26.5392
141.3670 35.9728 5.1278 26.5392
141.2784 35.7588 1.6023 26.5392
141.1898 35.5449 0.4584 26.5392
143.1416 40.7247 0.6065 30.8356
143.0530 40.5108 3.3281 30.8356
142.9644 40.2968 5.0089 30.8356
142.8757 40.0828 0.5023 30.8356
142.7871 39.8689 4.6797 30.8356
142.6985 39.6549 7.3969 30.8356
142.6099 39.4409 14.3014 30.8356
142.5213 39.2269 16.2649 30.8356
142.4327 39.0130 17.5281 30.8356
142.3441 38.7990 8.6514 30.8356
142.2554 38.5850 6.8228 30.8356
142.1668 38.3711 4.5314 30.8356
142.0782 38.1571 7.4396 30.8356
141.9896 37.9431 9.7882 30.8356
141.9010 37.7292 12.6815 30.8356
141.8124 37.5152 8.9893 30.8356
141.7238 37.3012 2.8727 30.8356
141.6351 37.0872 3.4156 30.8356
141.5465 36.8733 3.5548 30.8356
141.4579 36.6593 2.2926 30.8356
141.3693 36.4453 2.3002 30.8356
141.2807 36.2314 0.7900 30.8356
141.1921 36.0174 6.2977 30.8356
141.1035 35.8034 5.5175 30.8356
141.0148 35.5894 0.0107 30.8356
144.7647 40.3184 0.2830 2.1000
144.6760 40.1044 0.4255 2.1000
144.5874 39.8905 3.1756 2.1000
144.4988 39.6765 3.5616 2.1000
144.4102 39.4625 0.2398 2.1000
144.3216 39.2486 3.0822 2.1000
144.2330 39.0346 1.2531 2.1000
144.1444 38.8206 4.3667 2.1000
144.0557 38.6067 9.3316 2.1000
143.9671 38.3927 13.2374 2.1000
143.8785 38.1787 9.7068 2.1000
143.7899 37.9647 9.3146 2.1000
143.7013 37.7508 5.4817 2.1000
143.6127 37.5368 4.0354 2.1000
143.5241 37.3228 6.1027 2.1000
143.4354 37.1089 6.1157 2.1000
143.3468 36.8949 6.2622 2.1000
143.2582 36.6809 1.7135 2.1000
143.1696 36.4669 1.3707 2.1000
143.0810 36.2530 2.3893 2.1000
142.9924 36.0390 1.2290 2.1000
142.9038 35.8250 1.9881 2.1000
142.8151 35.6111 1.2364 2.1000
142.7265 35.3971 3.0444 2.1000
142.6379 35.1831 0.4816 2.1000
144.5853 40.3641 0.0984 4.4103
144.4967 40.1502 3.6354 4.4103
144.4081 39.9362 2.3577 4.4103
144.3195 39.7222 3.5686 4.4103
144.2309 39.5082 5.3241 4.4103
144.1423 39.2943 4.9397 4.4103
144.0536 39.0803 8.2048 4.4103
143.9650 38.8663 14.3103 4.4103
143.8764 38.6524 21.9160 4.4103
143.7878 38.4384 26.9254 4.4103
143.6992 38.2244 22.3935 4.4103
143.6106 38.0105 18.3058 4.4103
143.5220 37.7965 13.4969 4.4103
143.4333 37.5825 17.4728 4.4103
143.3447 37.3685 22.1709 4.4103
143.2561 37.1546 19.8537 4.4103
143.1675 36.9406 12.6506 4.4103
143.0789 36.7266 6.2143 4.4103
142.9903 36.5127 5.6646 4.4103
142.9017 36.2987 3.8201 4.4103
142.8130 36.0847 1.7547 4.4103
142.7244 35.8707 1.5268 4.4103
142.6358 35.6568 1.9501 4.4103
142.5472 35.4428 4.8277 4.4103
142.4586 35.2288 0.0918 4.4103
144.4060 40.4098 0.5181 6.7205
144.3174 40.1959 3.9954 6.7205
144.2288 39.9819 5.4656 6.7205
144.1402 39.7679 7.1289 6.7205
144.0515 39.5540 5.9845 6.7205
143.9629 39.3400 9.2215 6.7205
143.8743 39.1260 10.4585 6.7205
143.7857 38.9121 21.9686 6.7205
143.6971 38.6981 35.7554 6.7205
143.6085 38.4841 43.4860 6.7205
143.5199 38.2701 35.8703 6.7205
143.4312 38.0562 31.9442 6.7205
143.3426 37.8422 28.4368 6.7205
143.2540 37.6282 33.8733 6.7205
143.1654 37.4143 39.2873 6.7205
143.0768 37.2003 36.6438 6.7205
142.9882 36.9863 20.3195 6.7205
142.8996 36.7723 11.6051 6.7205
142.8109 36.5584 7.4049 6.7205
142.7223 36.3444 2.2648 6.7205
142.6337 36.1304 2.5858 6.7205
142.5451 35.9165 3.0265 6.7205
142.4565 35.7025 1.4345 6.7205
142.3679 35.4885 3.9624 6.7205
142.2793 35.2746 0.4423 6.7205
144.2267 40.4556 0.0268 9.0308
144.1381 40.2416 5.6794 9.0308
144.0494 40.0276 7.7846 9.0308
143.9608 39.8136 4.8699 9.0308
143.8722 39.5997 0.5989 9.0308
143.7836 39.3857 4.8277 9.0308
143.6950 39.1717 16.0823 9.0308
143.6064 38.9578 29.1173 9.0308
143.5178 38.7438 47.6906 9.0308
143.4291 38.5298 55.0269 9.0308
143.3405 38.3159 49.9445 9.0308
143.2519 38.1019 40.8451 9.0308
143.1633 37.8879 37.9146 9.0308
143.0747 37.6739 40.9816 9.0308
142.9861 37.4600 41.4113 9.0308
142.8975 37.2460 36.9266 9.0308
142.8088 37.0320 22.7568 9.0308
142.7202 36.8181 14.9731 9.0308
142.6316 36.6041 12.2694 9.0308
142.5430 36.3901 12.0111 9.0308
142.4544 36.1761 6.8527 9.0308
142.3658 35.9622 4.7360 9.0308
142.2772 35.7482 4.7698 9.0308
142.1885 35.5342 1.2138 9.0308
142.0999 35.3203 0.4147 9.0308
144.0473 40.5013 0.1420 11.3411
143.9587 40.2873 3.1657 11.3411
143.8701 40.0733 4.8328 11.3411
143.7815 39.8594 5.2718 11.3411
143.6929 39.6454 4.2179 11.3411
143.6043 39.4314 9.5635 11.3411
143.5157 39.2174 17.6199 11.3411
143.4270 39.0035 30.0896 11.3411
143.3384 38.7895 43.3693 11.3411
143.2498 38.5755 48.0535 11.3411
143.1612 38.3616 47.2696 11.3411
143.0726 38.1476 35.4571 11.3411
142.9840 37.9336 31.3556 11.3411
142.8954 37.7197 36.2947 11.3411
142.8067 37.5057 34.2277 11.3411
142.7181 37.2917 26.9534 11.3411
142.6295 37.0777 19.7667 11.3411
142.5409 36.8638 11.8416 11.3411
142.4523 36.6498 11.4174 11.3411
142.3637 36.4358 10.2774 11.3411
142.2751 36.2219 5.8123 11.3411
142.1864 36.0079 8.2849 11.3411
142.0978 35.7939 4.6112 11.3411
142.0092 35.5799 1.3162 11.3411
141.9206 35.3660 0.2654 11.3411
142.9616 40.7670 0.5829 36.7900
142.8730 40.5531 1.9218 36.7900
142.7844 40.3391 4.1169 36.7900
142.6958 40.1251 0.2371 36.7900
142.6072 39.9112 3.0429 36.7900
142.5186 39.6972 4.6342 36.7900
142.4300 39.4832 4.0480 36.7900
142.3413 39.2692 2.4353 36.7900
142.2527 39.0553 6.0440 36.7900
142.1641 38.8413 2.6297 36.7900
142.0755 38.6273 3.4347 36.7900
141.9869 38.4134 3.8698 36.7900
141.8983 38.1994 3.8180 36.7900
141.8097 37.9854 8.5790 36.7900
141.7210 37.7715 17.8651 36.7900
141.6324 37.5575 7.6804 36.7900
141.5438 37.3435 0.0864 36.7900
141.4552 37.1295 0.6362 36.7900
141.3666 36.9156 8.1998 36.7900
141.2780 36.7016 5.9784 36.7900
141.1894 36.4876 1.2048 36.7900
141.1007 36.2737 0.6376 36.7900
141.0121 36.0597 5.5214 36.7900
140.9235 35.8457 5.8827 36.7900
140.8349 35.6317 0.0625 36.7900
142.7926 40.8101 0.2470 42.7389
142.7040 40.5962 1.2684 42.7389
142.6153 40.3822 2.1629 42.7389
142.5267 40.1682 1.5863 42.7389
142.4381 39.9543 4.3180 42.7389
142.3495 39.7403 4.4248 42.7389
142.2609 39.5263 0.1836 42.7389
142.1723 39.3123 0.4496 42.7389
142.0837 39.0984 2.9765 42.7389
141.9950 38.8844 0.0178 42.7389
141.9064 38.6704 0.5261 42.7389
141.8178 38.4565 5.7616 42.7389
141.7292 38.2425 4.0402 42.7389
141.6406 38.0285 14.5939 42.7389
141.5520 37.8145 17.4335 42.7389
141.4634 37.6006 8.9485 42.7389
141.3747 37.3866 2.2041 42.7389
141.2861 37.1726 2.6260 42.7389
141.1975 36.9587 5.1847 42.7389
141.1089 36.7447 3.7872 42.7389
141.0203 36.5307 1.1920 42.7389
140.9317 36.3168 4.9503 42.7389
140.8431 36.1028 0.2285 42.7389
140.7544 35.8888 2.1325 42.7389
140.6658 35.6748 0.5670 42.7389
142.6235 40.8532 0.0261 48.6878
142.5349 40.6393 0.0358 48.6878
142.4463 40.4253 0.3966 48.6878
142.3577 40.2113 0.4348 48.6878
142.2691 39.9974 0.6220 48.6878
142.1804 39.7834 0.2669 48.6878
142.0918 39.5694 0.0311 48.6878
142.0032 39.3554 0.1017 48.6878
141.9146 39.1415 0.6091 48.6878
141.8260 38.9275 0.2701 48.6878
141.7374 38.7135 0.0512 48.6878
141.6488 38.4996 0.0006 48.6878
141.5601 38.2856 0.0847 48.6878
141.4715 38.0716 0.5493 48.6878
141.3829 37.8576 0.6563 48.6878
141.2943 37.6437 0.5164 48.6878
141.2057 37.4297 0.0544 48.6878
141.1171 37.2157 0.4669 48.6878
141.0285 37.0018 0.0996 48.6878
140.9398 36.7878 0.5273 48.6878
140.8512 36.5738 0.5003 48.6878
140.7626 36.3599 0.5970 48.6878
140.6740 36.1459 0.0400 48.6878
140.5854 35.9319 0.3382 48.6878
140.4968 35.7179 0.1911 48.6878
