167.2750 -16.3805 0.0019 19.3500
167.2530 -16.3407 0.0005 19.3500
167.2310 -16.3010 0.0008 19.3500
167.2090 -16.2613 0.0034 19.3500
167.1871 -16.2216 0.0174 19.3500
167.1651 -16.1818 0.0239 19.3500
167.1431 -16.1421 0.0059 19.3500
167.1211 -16.1024 0.0024 19.3500
167.0991 -16.0626 0.0130 19.3500
167.0771 -16.0229 0.0149 19.3500
167.0551 -15.9832 0.0008 19.3500
167.3014 -16.3670 0.0019 21.7573
167.2794 -16.3272 0.0030 21.7573
167.2575 -16.2875 0.0031 21.7573
167.2355 -16.2478 0.0005 21.7573
167.2135 -16.2081 0.0036 21.7573
167.1915 -16.1683 0.0049 21.7573
167.1695 -16.1286 0.0030 21.7573
167.1475 -16.0889 0.0026 21.7573
167.1255 -16.0491 0.0001 21.7573
167.1036 -16.0094 0.0058 21.7573
167.0816 -15.9697 0.0019 21.7573
167.3278 -16.3535 0.0000 24.1645
167.3059 -16.3138 0.0044 24.1645
167.2839 -16.2740 0.0155 24.1645
167.2619 -16.2343 0.0112 24.1645
167.2399 -16.1946 0.0110 24.1645
167.2179 -16.1548 0.0072 24.1645
167.1959 -16.1151 0.0034 24.1645
167.1739 -16.0754 0.0006 24.1645
167.1520 -16.0356 0.0058 24.1645
167.1300 -15.9959 0.0007 24.1645
167.1080 -15.9562 0.0055 24.1645
167.3543 -16.3400 0.0038 26.5718
167.3323 -16.3003 0.0039 26.5718
167.3103 -16.2605 0.0058 26.5718
167.2883 -16.2208 0.1374 26.5718
167.2663 -16.1811 0.2491 26.5718
167.2443 -16.1413 0.2419 26.5718
167.2223 -16.1016 0.0805 26.5718
167.2004 -16.0619 0.0149 26.5718
167.1784 -16.0221 0.0083 26.5718
167.1564 -15.9824 0.0060 26.5718
167.1344 -15.9427 0.0031 26.5718
167.3807 -16.3265 0.0026 28.9790
167.3587 -16.2868 0.0025 28.9790
167.3367 -16.2470 0.0319 28.9790
167.3147 -16.2073 0.3256 28.9790
167.2927 -16.1676 0.5132 28.9790
167.2708 -16.1278 0.6251 28.9790
167.2488 -16.0881 0.4090 28.9790
167.2268 -16.0484 0.3050 28.9790
167.2048 -16.0087 0.0147 28.9790
167.1828 -15.9689 0.0269 28.9790
167.1608 -15.9292 0.0036 28.9790
167.4071 -16.3130 0.0014 31.3863
167.3851 -16.2733 0.0004 31.3863
167.3631 -16.2335 0.2210 31.3863
167.3411 -16.1938 0.4916 31.3863
167.3192 -16.1541 0.8756 31.3863
167.2972 -16.1143 1.4480 31.3863
167.2752 -16.0746 0.9571 31.3863
167.2532 -16.0349 0.5872 31.3863
167.2312 -15.9952 0.1909 31.3863
167.2092 -15.9554 0.0021 31.3863
167.1872 -15.9157 0.0017 31.3863
167.4335 -16.2995 0.0019 33.7936
167.4115 -16.2598 0.0023 33.7936
167.3895 -16.2200 0.0712 33.7936
167.3676 -16.1803 0.6138 33.7936
167.3456 -16.1406 1.4548 33.7936
167.3236 -16.1008 2.4007 33.7936
167.3016 -16.0611 1.5763 33.7936
167.2796 -16.0214 0.8535 33.7936
167.2576 -15.9817 0.3609 33.7936
167.2356 -15.9419 0.0475 33.7936
167.2137 -15.9022 0.0013 33.7936
167.4599 -16.2860 0.0006 36.2008
167.4380 -16.2463 0.0006 36.2008
167.4160 -16.2065 0.0007 36.2008
167.3940 -16.1668 0.4868 36.2008
167.3720 -16.1271 1.3734 36.2008
167.3500 -16.0874 2.0532 36.2008
167.3280 -16.0476 1.6544 36.2008
167.3060 -16.0079 0.8803 36.2008
167.2841 -15.9682 0.2706 36.2008
167.2621 -15.9284 0.0049 36.2008
167.2401 -15.8887 0.0016 36.2008
167.4864 -16.2725 0.0009 38.6081
167.4644 -16.2328 0.0013 38.6081
167.4424 -16.1930 0.0035 38.6081
167.4204 -16.1533 0.2602 38.6081
167.3984 -16.1136 1.0418 38.6081
167.3764 -16.0739 1.4572 38.6081
167.3544 -16.0341 1.2976 38.6081
167.3325 -15.9944 0.5938 38.6081
167.3105 -15.9547 0.1563 38.6081
167.2885 -15.9149 0.0001 38.6081
167.2665 -15.8752 0.0012 38.6081
167.5128 -16.2590 0.0003 41.0153
167.4908 -16.2193 0.0021 41.0153
167.4688 -16.1795 0.0051 41.0153
167.4468 -16.1398 0.0081 41.0153
167.4248 -16.1001 0.4118 41.0153
167.4028 -16.0604 0.6533 41.0153
167.3809 -16.0206 0.4791 41.0153
167.3589 -15.9809 0.0567 41.0153
167.3369 -15.9412 0.0014 41.0153
167.3149 -15.9014 0.0026 41.0153
167.2929 -15.8617 0.0002 41.0153
167.5392 -16.2455 0.0018 43.4226
167.5172 -16.2058 0.0005 43.4226
167.4952 -16.1661 0.0018 43.4226
167.4732 -16.1263 0.0005 43.4226
167.4513 -16.0866 0.0104 43.4226
167.4293 -16.0469 0.0097 43.4226
167.4073 -16.0071 0.0021 43.4226
167.3853 -15.9674 0.0014 43.4226
167.3633 -15.9277 0.0012 43.4226
167.3413 -15.8879 0.0005 43.4226
167.3193 -15.8482 0.0055 43.4226
167.5656 -16.2320 0.0008 45.8299
167.5436 -16.1923 0.0012 45.8299
167.5216 -16.1526 0.0010 45.8299
167.4997 -16.1128 0.0014 45.8299
167.4777 -16.0731 0.0006 45.8299
167.4557 -16.0334 0.0078 45.8299
167.4337 -15.9936 0.0056 45.8299
167.4117 -15.9539 0.0009 45.8299
167.3897 -15.9142 0.0009 45.8299
167.3677 -15.8744 0.0016 45.8299
167.3458 -15.8347 0.0001 45.8299
167.5920 -16.2185 0.0015 48.2371
167.5700 -16.1788 0.0003 48.2371
167.5481 -16.1391 0.0003 48.2371
167.5261 -16.0993 0.0053 48.2371
167.5041 -16.0596 0.0008 48.2371
167.4821 -16.0199 0.0031 48.2371
167.4601 -15.9801 0.0021 48.2371
167.4381 -15.9404 0.0003 48.2371
167.4161 -15.9007 0.0004 48.2371
167.3942 -15.8610 0.0004 48.2371
167.3722 -15.8212 0.0001 48.2371
