144.4031 38.5050 3.9485 7.5890
144.2745 38.2547 24.3865 7.5890
144.1460 38.0043 43.5455 7.5890
144.0175 37.7540 58.0240 7.5890
143.8889 37.5037 50.7225 7.5890
143.7604 37.2534 19.5295 7.5890
143.6319 37.0031 0.0000 7.5890
143.5033 36.7527 0.0000 7.5890
143.3748 36.5024 0.0000 7.5890
143.2463 36.2521 0.0000 7.5890
143.1178 36.0018 0.0000 7.5890
142.9892 35.7515 0.8350 7.5890
142.8607 35.5012 2.8215 7.5890
142.7322 35.2508 0.0000 7.5890
144.0923 38.6066 5.1220 10.6210
143.9638 38.3562 23.7450 10.6210
143.8353 38.1059 39.8470 10.6210
143.7067 37.8556 50.5140 10.6210
143.5782 37.6053 57.0840 10.6210
143.4497 37.3550 43.3940 10.6210
143.3212 37.1046 16.0140 10.6210
143.1926 36.8543 0.3900 10.6210
143.0641 36.6040 0.0000 10.6210
142.9356 36.3537 0.0000 10.6210
142.8070 36.1034 0.0000 10.6210
142.6785 35.8530 1.0570 10.6210
142.5500 35.6027 1.2270 10.6210
142.4214 35.3524 0.0000 10.6210
143.7803 38.7073 4.6280 13.5040
143.6517 38.4569 21.7450 13.5040
143.5232 38.2066 34.3930 13.5040
143.3947 37.9563 36.0330 13.5040
143.2662 37.7060 49.7600 13.5040
143.1376 37.4557 50.9930 13.5040
143.0091 37.2053 29.4920 13.5040
142.8806 36.9550 6.6600 13.5040
142.7520 36.7047 0.2410 13.5040
142.6235 36.4544 0.0000 13.5040
142.4950 36.2041 0.6980 13.5040
142.3664 35.9537 2.1890 13.5040
142.2379 35.7034 1.6430 13.5040
142.1094 35.4531 0.2280 13.5040
143.4655 38.8073 16.0560 17.8347
143.3370 38.5570 27.2120 17.8347
143.2084 38.3067 46.6810 17.8347
143.0799 38.0564 40.4250 17.8347
142.9514 37.8061 56.2710 17.8347
142.8228 37.5557 69.8570 17.8347
142.6943 37.3054 51.4210 17.8347
142.5658 37.0551 21.9910 17.8347
142.4372 36.8048 7.3710 17.8347
142.3087 36.5545 4.5460 17.8347
142.1802 36.3041 4.2790 17.8347
142.0516 36.0538 4.3030 17.8347
141.9231 35.8035 1.9000 17.8347
141.7946 35.5532 0.2860 17.8347
143.1593 38.9043 45.4890 23.1180
143.0308 38.6539 26.1760 23.1180
142.9023 38.4036 48.3660 23.1180
142.7737 38.1533 27.8350 23.1180
142.6452 37.9030 43.3520 23.1180
142.5167 37.6527 70.4170 23.1180
142.3881 37.4023 57.9880 23.1180
142.2596 37.1520 34.4940 23.1180
142.1311 36.9017 18.7270 23.1180
142.0025 36.6514 13.7640 23.1180
141.8740 36.4011 9.7670 23.1180
141.7455 36.1507 6.5750 23.1180
141.6170 35.9004 6.5490 23.1180
141.4884 35.6501 0.0770 23.1180
142.8576 38.9988 41.1770 31.4280
142.7291 38.7485 43.6780 31.4280
142.6005 38.4982 6.7740 31.4280
142.4720 38.2479 6.3550 31.4280
142.3435 37.9976 1.1480 31.4280
142.2149 37.7472 2.4600 31.4280
142.0864 37.4969 0.8120 31.4280
141.9579 37.2466 6.1600 31.4280
141.8293 36.9963 4.0750 31.4280
141.7008 36.7460 2.2780 31.4280
141.5723 36.4956 0.4760 31.4280
141.4437 36.2453 0.6600 31.4280
141.3152 35.9950 0.0000 31.4280
141.1867 35.7447 0.0000 31.4280
142.5648 39.0919 0.4220 43.1499
142.4362 38.8416 0.0000 43.1499
142.3077 38.5913 0.0000 43.1499
142.1792 38.3410 0.0000 43.1499
142.0506 38.0906 0.0000 43.1499
141.9221 37.8403 0.0000 43.1499
141.7936 37.5900 0.0000 43.1499
141.6650 37.3397 0.0000 43.1499
141.5365 37.0894 4.1270 43.1499
141.4080 36.8390 0.1320 43.1499
141.2794 36.5887 0.3590 43.1499
141.1509 36.3384 0.6290 43.1499
141.0224 36.0881 0.2450 43.1499
140.8939 35.8378 0.2860 43.1499
142.2719 39.1850 1.8970 54.8719
142.1434 38.9347 0.4470 54.8719
142.0149 38.6844 1.2750 54.8719
141.8863 38.4341 7.7320 54.8719
141.7578 38.1837 1.1490 54.8719
141.6293 37.9334 0.0000 54.8719
141.5007 37.6831 0.0000 54.8719
141.3722 37.4328 0.0000 54.8719
141.2437 37.1825 2.1410 54.8719
141.1151 36.9321 1.6470 54.8719
140.9866 36.6818 0.0000 54.8719
140.8581 36.4315 0.1550 54.8719
140.7295 36.1812 0.0000 54.8719
140.6010 35.9309 0.0130 54.8719
