-70.9078 -20.8589 0.1485 16.8200
-70.9335 -20.7537 0.1431 16.8200
-70.9593 -20.6484 1.2439 16.8200
-70.9851 -20.5432 1.6406 16.8200
-71.0109 -20.4380 1.5523 16.8200
-71.0367 -20.3328 0.1385 16.8200
-71.0625 -20.2275 0.3340 16.8200
-71.0883 -20.1223 0.1364 16.8200
-71.1141 -20.0171 0.1023 16.8200
-71.1399 -19.9119 1.2471 16.8200
-71.1657 -19.8067 0.0192 16.8200
-71.1915 -19.7014 0.0363 16.8200
-71.2173 -19.5962 0.1173 16.8200
-71.2430 -19.4910 0.0224 16.8200
-71.2688 -19.3858 1.3193 16.8200
-71.2946 -19.2805 2.2878 16.8200
-71.3204 -19.1753 2.1868 16.8200
-71.3462 -19.0701 0.4410 16.8200
-71.3720 -18.9649 0.2627 16.8200
-71.3978 -18.8596 0.4749 16.8200
-70.8172 -20.8392 0.0482 19.1545
-70.8430 -20.7340 0.5557 19.1545
-70.8688 -20.6288 1.1464 19.1545
-70.8946 -20.5235 1.2911 19.1545
-70.9204 -20.4183 0.6534 19.1545
-70.9462 -20.3131 0.1947 19.1545
-70.9720 -20.2079 0.1174 19.1545
-70.9978 -20.1026 0.1759 19.1545
-71.0236 -19.9974 0.1552 19.1545
-71.0494 -19.8922 0.5322 19.1545
-71.0751 -19.7870 0.0500 19.1545
-71.1009 -19.6817 0.1530 19.1545
-71.1267 -19.5765 0.6286 19.1545
-71.1525 -19.4713 0.0525 19.1545
-71.1783 -19.3661 0.0551 19.1545
-71.2041 -19.2608 0.2379 19.1545
-71.2299 -19.1556 0.6955 19.1545
-71.2557 -19.0504 0.2105 19.1545
-71.2815 -18.9452 0.2403 19.1545
-71.3073 -18.8400 0.1111 19.1545
-70.7267 -20.8195 0.2956 21.4889
-70.7525 -20.7143 0.0363 21.4889
-70.7783 -20.6091 1.9904 21.4889
-70.8041 -20.5038 1.1432 21.4889
-70.8299 -20.3986 0.2996 21.4889
-70.8557 -20.2934 0.0580 21.4889
-70.8815 -20.1882 0.3880 21.4889
-70.9072 -20.0830 0.1055 21.4889
-70.9330 -19.9777 0.0121 21.4889
-70.9588 -19.8725 0.0406 21.4889
-70.9846 -19.7673 0.0311 21.4889
-71.0104 -19.6621 0.1210 21.4889
-71.0362 -19.5568 0.8489 21.4889
-71.0620 -19.4516 0.1618 21.4889
-71.0878 -19.3464 0.0651 21.4889
-71.1136 -19.2412 0.2459 21.4889
-71.1394 -19.1359 0.2311 21.4889
-71.1652 -19.0307 0.3256 21.4889
-71.1910 -18.9255 0.1493 21.4889
-71.2167 -18.8203 0.9094 21.4889
-70.6362 -20.7998 0.2223 23.8234
-70.6620 -20.6946 0.0990 23.8234
-70.6878 -20.5894 1.3244 23.8234
-70.7136 -20.4842 0.5025 23.8234
-70.7393 -20.3789 0.2394 23.8234
-70.7651 -20.2737 0.0385 23.8234
-70.7909 -20.1685 0.6695 23.8234
-70.8167 -20.0633 0.1166 23.8234
-70.8425 -19.9580 0.1008 23.8234
-70.8683 -19.8528 0.1497 23.8234
-70.8941 -19.7476 1.3423 23.8234
-70.9199 -19.6424 1.3688 23.8234
-70.9457 -19.5371 1.3002 23.8234
-70.9715 -19.4319 0.2027 23.8234
-70.9973 -19.3267 0.0991 23.8234
-71.0231 -19.2215 0.1182 23.8234
-71.0488 -19.1163 0.0857 23.8234
-71.0746 -19.0110 0.1324 23.8234
-71.1004 -18.9058 0.0270 23.8234
-71.1262 -18.8006 1.1795 23.8234
-71.2777 -20.9387 0.5183 10.5700
-71.3035 -20.8335 0.4267 10.5700
-71.3293 -20.7282 0.0019 10.5700
-71.3551 -20.6230 0.0480 10.5700
-71.3809 -20.5178 0.1971 10.5700
-71.4067 -20.4126 0.2108 10.5700
-71.4325 -20.3073 0.1030 10.5700
-71.4582 -20.2021 0.0970 10.5700
-71.4840 -20.0969 0.4389 10.5700
-71.5098 -19.9917 0.1036 10.5700
-71.5356 -19.8864 0.0482 10.5700
-71.5614 -19.7812 0.1032 10.5700
-71.5872 -19.6760 0.0608 10.5700
-71.6130 -19.5708 0.0737 10.5700
-71.6388 -19.4656 0.1150 10.5700
-71.6646 -19.3603 0.0781 10.5700
-71.6904 -19.2551 0.0491 10.5700
-71.7162 -19.1499 0.5392 10.5700
-71.7420 -19.0447 1.1227 10.5700
-71.7677 -18.9394 0.3841 10.5700
-71.1858 -20.9187 0.2060 12.1343
-71.2115 -20.8135 0.0406 12.1343
-71.2373 -20.7082 0.4444 12.1343
-71.2631 -20.6030 0.0647 12.1343
-71.2889 -20.4978 0.1374 12.1343
-71.3147 -20.3926 0.2698 12.1343
-71.3405 -20.2873 0.1384 12.1343
-71.3663 -20.1821 0.0503 12.1343
-71.3921 -20.0769 0.1141 12.1343
-71.4179 -19.9717 0.1623 12.1343
-71.4437 -19.8665 0.0406 12.1343
-71.4695 -19.7612 0.3721 12.1343
-71.4953 -19.6560 1.1153 12.1343
-71.5210 -19.5508 1.6373 12.1343
-71.5468 -19.4456 0.4743 12.1343
-71.5726 -19.3403 0.1959 12.1343
-71.5984 -19.2351 0.0526 12.1343
-71.6242 -19.1299 0.5139 12.1343
-71.6500 -19.0247 1.3131 12.1343
-71.6758 -18.9194 0.9991 12.1343
-71.0938 -20.8987 0.1535 13.6987
-71.1196 -20.7935 0.2200 13.6987
-71.1454 -20.6882 0.4301 13.6987
-71.1712 -20.5830 0.0397 13.6987
-71.1970 -20.4778 0.5052 13.6987
-71.2228 -20.3726 0.5491 13.6987
-71.2486 -20.2674 0.0546 13.6987
-71.2743 -20.1621 0.0169 13.6987
-71.3001 -20.0569 0.3334 13.6987
-71.3259 -19.9517 0.0837 13.6987
-71.3517 -19.8465 0.1445 13.6987
-71.3775 -19.7412 0.0649 13.6987
-71.4033 -19.6360 1.3440 13.6987
-71.4291 -19.5308 1.2369 13.6987
-71.4549 -19.4256 2.1174 13.6987
-71.4807 -19.3203 2.9201 13.6987
-71.5065 -19.2151 1.8214 13.6987
-71.5323 -19.1099 1.0373 13.6987
-71.5581 -19.0047 0.6674 13.6987
-71.5838 -18.8994 0.1668 13.6987
-71.0019 -20.8787 0.0354 15.2630
-71.0276 -20.7735 0.3851 15.2630
-71.0534 -20.6683 0.8348 15.2630
-71.0792 -20.5630 1.1935 15.2630
-71.1050 -20.4578 0.6408 15.2630
-71.1308 -20.3526 0.7061 15.2630
-71.1566 -20.2474 0.1608 15.2630
-71.1824 -20.1421 0.3339 15.2630
-71.2082 -20.0369 0.0255 15.2630
-71.2340 -19.9317 0.0279 15.2630
-71.2598 -19.8265 0.0040 15.2630
-71.2856 -19.7212 0.0207 15.2630
-71.3114 -19.6160 0.0061 15.2630
-71.3371 -19.5108 0.7482 15.2630
-71.3629 -19.4056 2.9109 15.2630
-71.3887 -19.3003 3.4465 15.2630
-71.4145 -19.1951 3.0882 15.2630
-71.4403 -19.0899 1.6935 15.2630
-71.4661 -18.9847 1.3379 15.2630
-71.4919 -18.8795 0.0122 15.2630
-70.5479 -20.7809 0.1864 27.0000
-70.5737 -20.6757 0.4999 27.0000
-70.5995 -20.5704 0.4474 27.0000
-70.6253 -20.4652 0.1091 27.0000
-70.6511 -20.3600 1.0064 27.0000
-70.6769 -20.2548 0.2177 27.0000
-70.7027 -20.1495 1.6211 27.0000
-70.7284 -20.0443 0.0896 27.0000
-70.7542 -19.9391 0.0548 27.0000
-70.7800 -19.8339 0.9021 27.0000
-70.8058 -19.7287 1.6444 27.0000
-70.8316 -19.6234 1.0880 27.0000
-70.8574 -19.5182 0.8541 27.0000
-70.8832 -19.4130 0.0575 27.0000
-70.9090 -19.3078 0.0406 27.0000
-70.9348 -19.2025 0.1918 27.0000
-70.9606 -19.0973 0.1237 27.0000
-70.9864 -18.9921 0.0881 27.0000
-71.0122 -18.8869 0.0656 27.0000
-71.0379 -18.7816 0.1924 27.0000
-70.4596 -20.7617 0.1548 30.1730
-70.4854 -20.6565 0.5474 30.1730
-70.5112 -20.5512 0.0313 30.1730
-70.5370 -20.4460 0.3515 30.1730
-70.5628 -20.3408 0.2826 30.1730
-70.5886 -20.2356 0.3846 30.1730
-70.6144 -20.1303 1.3657 30.1730
-70.6402 -20.0251 1.6506 30.1730
-70.6660 -19.9199 2.7675 30.1730
-70.6917 -19.8147 3.7415 30.1730
-70.7175 -19.7095 3.5323 30.1730
-70.7433 -19.6042 2.6257 30.1730
-70.7691 -19.4990 2.5599 30.1730
-70.7949 -19.3938 1.0046 30.1730
-70.8207 -19.2886 0.1661 30.1730
-70.8465 -19.1833 0.2577 30.1730
-70.8723 -19.0781 0.0306 30.1730
-70.8981 -18.9729 0.0673 30.1730
-70.9239 -18.8677 0.1093 30.1730
-70.9497 -18.7624 0.0225 30.1730
-70.3713 -20.7425 0.0360 33.3461
-70.3971 -20.6373 0.1816 33.3461
-70.4229 -20.5320 0.0530 33.3461
-70.4487 -20.4268 0.0282 33.3461
-70.4745 -20.3216 0.0996 33.3461
-70.5003 -20.2164 0.0333 33.3461
-70.5261 -20.1112 1.6829 33.3461
-70.5519 -20.0059 3.3254 33.3461
-70.5777 -19.9007 5.4881 33.3461
-70.6035 -19.7955 6.4328 33.3461
-70.6292 -19.6903 4.9814 33.3461
-70.6550 -19.5850 3.9601 33.3461
-70.6808 -19.4798 3.4675 33.3461
-70.7066 -19.3746 1.5627 33.3461
-70.7324 -19.2694 0.1510 33.3461
-70.7582 -19.1641 0.0370 33.3461
-70.7840 -19.0589 0.3190 33.3461
-70.8098 -18.9537 0.6961 33.3461
-70.8356 -18.8485 2.3840 33.3461
-70.8614 -18.7432 0.5937 33.3461
-70.2830 -20.7233 1.1773 36.5191
-70.3088 -20.6181 1.1451 36.5191
-70.3346 -20.5128 0.1202 36.5191
-70.3604 -20.4076 0.0700 36.5191
-70.3862 -20.3024 0.0175 36.5191
-70.4120 -20.1972 0.0453 36.5191
-70.4378 -20.0920 1.5808 36.5191
-70.4636 -19.9867 3.6098 36.5191
-70.4894 -19.8815 6.5392 36.5191
-70.5152 -19.7763 7.2422 36.5191
-70.5410 -19.6711 6.1804 36.5191
-70.5668 -19.5658 4.0980 36.5191
-70.5925 -19.4606 3.5728 36.5191
-70.6183 -19.3554 1.3828 36.5191
-70.6441 -19.2502 0.3970 36.5191
-70.6699 -19.1449 0.0276 36.5191
-70.6957 -19.0397 0.4284 36.5191
-70.7215 -18.9345 1.3242 36.5191
-70.7473 -18.8293 2.7809 36.5191
-70.7731 -18.7240 1.9324 36.5191
-70.1853 -20.6842 0.0370 40.9600
-70.2111 -20.5790 0.0129 40.9600
-70.2369 -20.4737 0.0726 40.9600
-70.2627 -20.3685 0.5523 40.9600
-70.2885 -20.2633 0.2074 40.9600
-70.3143 -20.1581 0.0387 40.9600
-70.3401 -20.0528 0.0968 40.9600
-70.3659 -19.9476 2.3785 40.9600
-70.3917 -19.8424 5.7751 40.9600
-70.4174 -19.7372 6.9101 40.9600
-70.4432 -19.6320 6.3516 40.9600
-70.4690 -19.5267 3.6240 40.9600
-70.4948 -19.4215 3.4696 40.9600
-70.5206 -19.3163 1.6924 40.9600
-70.5464 -19.2111 0.0901 40.9600
-70.5722 -19.1058 0.0984 40.9600
-70.5980 -19.0006 0.1425 40.9600
-70.6238 -18.8954 0.9179 40.9600
-70.6496 -18.7902 1.1396 40.9600
-70.6754 -18.6849 0.0592 40.9600
-70.0996 -20.6656 0.3295 44.8673
-70.1254 -20.5603 0.0675 44.8673
-70.1512 -20.4551 0.1663 44.8673
-70.1770 -20.3499 0.0298 44.8673
-70.2028 -20.2447 0.2253 44.8673
-70.2286 -20.1394 0.2621 44.8673
-70.2544 -20.0342 0.2596 44.8673
-70.2802 -19.9290 0.1736 44.8673
-70.3060 -19.8238 3.9023 44.8673
-70.3317 -19.7185 4.7681 44.8673
-70.3575 -19.6133 4.6965 44.8673
-70.3833 -19.5081 2.8451 44.8673
-70.4091 -19.4029 2.6442 44.8673
-70.4349 -19.2976 1.8864 44.8673
-70.4607 -19.1924 0.0550 44.8673
-70.4865 -19.0872 0.5857 44.8673
-70.5123 -18.9820 0.5885 44.8673
-70.5381 -18.8768 1.1339 44.8673
-70.5639 -18.7715 0.5671 44.8673
-70.5897 -18.6663 0.0213 44.8673
-70.0139 -20.6469 0.4594 48.7746
-70.0397 -20.5417 0.1338 48.7746
-70.0655 -20.4365 0.0253 48.7746
-70.0913 -20.3312 0.0112 48.7746
-70.1171 -20.2260 0.3266 48.7746
-70.1429 -20.1208 0.1701 48.7746
-70.1687 -20.0156 0.3530 48.7746
-70.1945 -19.9104 0.0309 48.7746
-70.2203 -19.8051 1.2652 48.7746
-70.2461 -19.6999 2.7941 48.7746
-70.2718 -19.5947 3.1669 48.7746
-70.2976 -19.4895 2.3612 48.7746
-70.3234 -19.3842 2.6759 48.7746
-70.3492 -19.2790 2.2420 48.7746
-70.3750 -19.1738 0.0135 48.7746
-70.4008 -19.0686 0.3423 48.7746
-70.4266 -18.9633 0.8273 48.7746
-70.4524 -18.8581 1.3779 48.7746
-70.4782 -18.7529 1.0926 48.7746
-70.5040 -18.6477 0.4647 48.7746
-69.9282 -20.6283 0.2766 52.6819
-69.9540 -20.5231 0.1334 52.6819
-69.9798 -20.4178 0.2280 52.6819
-70.0056 -20.3126 0.0098 52.6819
-70.0314 -20.2074 0.2035 52.6819
-70.0572 -20.1022 0.2327 52.6819
-70.0830 -19.9969 0.2324 52.6819
-70.1088 -19.8917 0.0601 52.6819
-70.1346 -19.7865 0.0043 52.6819
-70.1604 -19.6813 0.1310 52.6819
-70.1861 -19.5760 0.9993 52.6819
-70.2119 -19.4708 0.8665 52.6819
-70.2377 -19.3656 0.9395 52.6819
-70.2635 -19.2604 0.2581 52.6819
-70.2893 -19.1552 0.0312 52.6819
-70.3151 -19.0499 0.6126 52.6819
-70.3409 -18.9447 0.7497 52.6819
-70.3667 -18.8395 1.4750 52.6819
-70.3925 -18.7343 0.7330 52.6819
-70.4183 -18.6290 0.1425 52.6819
-69.8318 -20.5895 0.3913 57.5600
-69.8576 -20.4843 0.0556 57.5600
-69.8834 -20.3790 0.5726 57.5600
-69.9092 -20.2738 0.6867 57.5600
-69.9350 -20.1686 0.0043 57.5600
-69.9608 -20.0634 0.3065 57.5600
-69.9866 -19.9581 0.2819 57.5600
-70.0124 -19.8529 0.0990 57.5600
-70.0382 -19.7477 0.0591 57.5600
-70.0640 -19.6425 0.1628 57.5600
-70.0898 -19.5373 0.0057 57.5600
-70.1155 -19.4320 0.0449 57.5600
-70.1413 -19.3268 0.0175 57.5600
-70.1671 -19.2216 0.0586 57.5600
-70.1929 -19.1164 0.5928 57.5600
-70.2187 -19.0111 1.4411 57.5600
-70.2445 -18.9059 1.3264 57.5600
-70.2703 -18.8007 1.4700 57.5600
-70.2961 -18.6955 0.1756 57.5600
-70.3219 -18.5902 0.5142 57.5600
-69.7475 -20.5711 0.2761 61.7862
-69.7733 -20.4659 0.0095 61.7862
-69.7990 -20.3607 0.3798 61.7862
-69.8248 -20.2555 0.6085 61.7862
-69.8506 -20.1502 0.0098 61.7862
-69.8764 -20.0450 0.1132 61.7862
-69.9022 -19.9398 0.2696 61.7862
-69.9280 -19.8346 0.0110 61.7862
-69.9538 -19.7294 0.2186 61.7862
-69.9796 -19.6241 0.1918 61.7862
-70.0054 -19.5189 0.1366 61.7862
-70.0312 -19.4137 0.0407 61.7862
-70.0570 -19.3085 0.2400 61.7862
-70.0828 -19.2032 0.2505 61.7862
-70.1085 -19.0980 0.0977 61.7862
-70.1343 -18.9928 0.0913 61.7862
-70.1601 -18.8876 0.5186 61.7862
-70.1859 -18.7823 0.3321 61.7862
-70.2117 -18.6771 0.0057 61.7862
-70.2375 -18.5719 0.0625 61.7862
-69.6631 -20.5528 0.5653 66.0124
-69.6889 -20.4476 0.2585 66.0124
-69.7147 -20.3423 0.1534 66.0124
-69.7405 -20.2371 1.1168 66.0124
-69.7663 -20.1319 0.3137 66.0124
-69.7920 -20.0267 0.2245 66.0124
-69.8178 -19.9215 0.0899 66.0124
-69.8436 -19.8162 0.0189 66.0124
-69.8694 -19.7110 0.2170 66.0124
-69.8952 -19.6058 0.1388 66.0124
-69.9210 -19.5006 0.4811 66.0124
-69.9468 -19.3953 0.2778 66.0124
-69.9726 -19.2901 0.0171 66.0124
-69.9984 -19.1849 0.0234 66.0124
-70.0242 -19.0797 0.0065 66.0124
-70.0500 -18.9744 0.0989 66.0124
-70.0758 -18.8692 0.3149 66.0124
-70.1015 -18.7640 0.4460 66.0124
-70.1273 -18.6588 1.1651 66.0124
-70.1531 -18.5535 0.7848 66.0124
-69.5787 -20.5344 1.2477 70.2385
-69.6045 -20.4292 0.7988 70.2385
-69.6303 -20.3240 0.4302 70.2385
-69.6561 -20.2188 0.9534 70.2385
-69.6819 -20.1136 0.1562 70.2385
-69.7077 -20.0083 0.3797 70.2385
-69.7335 -19.9031 0.3492 70.2385
-69.7593 -19.7979 0.1727 70.2385
-69.7850 -19.6927 0.0843 70.2385
-69.8108 -19.5874 0.1087 70.2385
-69.8366 -19.4822 0.0545 70.2385
-69.8624 -19.3770 0.4382 70.2385
-69.8882 -19.2718 0.1663 70.2385
-69.9140 -19.1665 0.0684 70.2385
-69.9398 -19.0613 0.1388 70.2385
-69.9656 -18.9561 0.2237 70.2385
-69.9914 -18.8509 0.0476 70.2385
-70.0172 -18.7456 0.4735 70.2385
-70.0430 -18.6404 0.9474 70.2385
-70.0688 -18.5352 1.0060 70.2385
