130.8058 32.7486 0.0801 0.7614
130.7990 32.7364 0.0928 0.7614
130.7923 32.7241 0.0315 0.7614
130.7856 32.7118 0.2426 0.7614
130.7788 32.6996 0.4031 0.7614
130.7721 32.6873 0.8398 0.7614
130.7654 32.6750 0.5494 0.7614
130.7587 32.6627 0.1706 0.7614
130.7519 32.6505 0.2142 0.7614
130.8033 32.7496 0.0936 2.2386
130.7965 32.7374 0.0149 2.2386
130.7898 32.7251 0.1869 2.2386
130.7831 32.7128 0.1739 2.2386
130.7763 32.7005 0.3083 2.2386
130.7696 32.6883 0.8855 2.2386
130.7629 32.6760 0.9536 2.2386
130.7561 32.6637 0.5450 2.2386
130.7494 32.6515 0.3586 2.2386
130.8007 32.7506 0.0687 3.7158
130.7940 32.7383 0.2148 3.7158
130.7873 32.7261 0.2216 3.7158
130.7805 32.7138 0.6008 3.7158
130.7738 32.7015 0.7613 3.7158
130.7671 32.6893 1.2006 3.7158
130.7603 32.6770 0.6148 3.7158
130.7536 32.6647 0.3714 3.7158
130.7469 32.6524 0.0000 3.7158
130.7982 32.7516 0.1452 5.1930
130.7915 32.7393 0.0474 5.1930
130.7847 32.7271 0.1231 5.1930
130.7780 32.7148 0.5562 5.1930
130.7713 32.7025 0.7779 5.1930
130.7646 32.6902 1.1077 5.1930
130.7578 32.6780 0.5642 5.1930
130.7511 32.6657 0.6208 5.1930
130.7444 32.6534 0.1262 5.1930
130.7957 32.7526 0.1953 6.6702
130.7890 32.7403 0.2852 6.6702
130.7822 32.7280 0.1285 6.6702
130.7755 32.7158 0.4230 6.6702
130.7688 32.7035 0.5136 6.6702
130.7620 32.6912 0.5852 6.6702
130.7553 32.6790 0.6532 6.6702
130.7486 32.6667 0.8935 6.6702
130.7419 32.6544 0.1692 6.6702
130.7932 32.7536 0.6481 8.1475
130.7865 32.7413 0.4160 8.1475
130.7797 32.7290 0.0000 8.1475
130.7730 32.7168 0.0605 8.1475
130.7663 32.7045 0.2998 8.1475
130.7595 32.6922 0.3514 8.1475
130.7528 32.6800 0.4284 8.1475
130.7461 32.6677 0.1651 8.1475
130.7394 32.6554 0.0232 8.1475
130.7859 32.7564 0.4059 9.4465
130.7792 32.7442 0.2086 9.4465
130.7725 32.7319 0.0154 9.4465
130.7657 32.7196 0.0000 9.4465
130.7590 32.7073 0.0113 9.4465
130.7523 32.6951 0.1259 9.4465
130.7456 32.6828 0.1083 9.4465
130.7388 32.6705 0.2452 9.4465
130.7321 32.6583 0.2024 9.4465
130.7787 32.7593 0.0100 10.7455
130.7719 32.7470 0.0623 10.7455
130.7652 32.7347 0.0644 10.7455
130.7585 32.7225 0.0595 10.7455
130.7517 32.7102 0.0110 10.7455
130.7450 32.6979 0.0094 10.7455
130.7383 32.6856 0.0891 10.7455
130.7316 32.6734 0.1351 10.7455
130.7249 32.6611 0.5353 10.7455
130.7714 32.7621 0.0852 12.0446
130.7647 32.7499 0.1059 12.0446
130.7579 32.7376 0.0564 12.0446
130.7512 32.7253 0.0140 12.0446
130.7445 32.7130 0.0000 12.0446
130.7378 32.7008 0.0339 12.0446
130.7310 32.6885 0.1474 12.0446
130.7243 32.6762 0.1959 12.0446
130.7176 32.6639 0.6880 12.0446
130.7642 32.7650 0.3187 13.3436
130.7574 32.7527 0.0206 13.3436
130.7507 32.7404 0.1623 13.3436
130.7440 32.7282 0.3146 13.3436
130.7372 32.7159 0.2946 13.3436
130.7305 32.7036 0.2266 13.3436
130.7238 32.6913 0.2092 13.3436
130.7171 32.6791 0.1829 13.3436
130.7103 32.6668 0.5176 13.3436
