202.809	55.015	0.384	16.089
202.681	54.962	0.676	16.105
202.554	54.909	1.091	16.148
202.427	54.856	1.478	16.205
202.299	54.803	1.509	16.255
202.172	54.750	0.587	16.251
202.045	54.697	0.291	16.174
201.918	54.645	0.405	16.025
201.790	54.592	0.447	15.780
201.663	54.539	1.146	15.454
201.536	54.486	1.474	15.077
201.409	54.433	1.513	14.676
201.281	54.380	1.058	14.290
201.154	54.327	0.371	13.941
201.027	54.274	0.043	13.657
200.899	54.221	0.088	13.449
200.772	54.168	0.174	13.294
200.645	54.115	0.249	13.162
200.518	54.063	0.281	13.023
200.390	54.010	0.080	12.814
200.263	53.957	0.391	12.524
200.136	53.904	0.130	12.166
200.008	53.851	0.039	11.766
202.722	55.083	0.268	17.277
202.594	55.030	1.018	17.379
202.467	54.977	1.615	17.516
202.340	54.925	1.898	17.677
202.213	54.872	1.374	17.793
202.085	54.819	0.528	17.843
201.958	54.766	0.389	17.788
201.831	54.713	0.484	17.624
201.703	54.660	0.965	17.365
201.576	54.607	1.294	17.019
201.449	54.554	1.329	16.619
201.322	54.501	2.034	16.200
201.194	54.448	1.506	15.805
201.067	54.395	0.814	15.460
200.940	54.343	0.712	15.210
200.812	54.290	0.159	15.025
200.685	54.237	0.298	14.888
200.558	54.184	0.110	14.757
200.431	54.131	0.691	14.582
200.303	54.078	0.483	14.333
200.176	54.025	0.861	13.991
200.049	53.972	0.382	13.575
199.922	53.919	0.188	13.115
202.635	55.152	0.025	18.646
202.507	55.099	0.708	18.853
202.380	55.046	0.937	19.097
202.253	54.993	0.770	19.339
202.126	54.940	0.617	19.524
201.998	54.887	0.638	19.616
201.871	54.834	0.921	19.573
201.744	54.781	1.100	19.401
201.617	54.728	1.212	19.116
201.489	54.675	1.205	18.748
201.362	54.623	0.919	18.343
201.235	54.570	1.102	17.906
201.107	54.517	0.687	17.507
200.980	54.464	0.834	17.172
200.853	54.411	0.640	16.927
200.726	54.358	0.114	16.762
200.598	54.305	0.004	16.647
200.471	54.252	0.134	16.512
200.344	54.200	0.810	16.327
200.216	54.147	0.703	16.032
200.089	54.094	0.430	15.634
199.962	54.041	0.056	15.161
199.835	53.988	0.037	14.642
202.548	55.220	0.052	20.211
202.421	55.167	0.221	20.527
202.293	55.114	0.089	20.893
202.166	55.061	0.051	21.228
202.039	55.008	0.216	21.476
201.911	54.956	0.628	21.619
201.784	54.903	0.576	21.580
201.657	54.850	1.028	21.392
201.530	54.797	0.724	21.078
201.402	54.744	0.689	20.679
201.275	54.691	0.395	20.224
201.148	54.638	0.393	19.768
201.020	54.585	0.059	19.367
200.893	54.532	0.154	19.047
200.766	54.480	0.413	18.847
200.639	54.427	0.422	18.707
200.511	54.374	0.384	18.601
200.384	54.321	0.056	18.450
200.257	54.268	0.576	18.209
200.130	54.215	0.345	17.857
200.002	54.162	0.278	17.407
199.875	54.109	0.088	16.876
199.748	54.056	0.185	16.297
202.461	55.288	0.023	22.015
202.334	55.236	0.168	22.471
202.206	55.183	0.017	22.952
202.079	55.130	0.255	23.375
201.952	55.077	0.034	23.677
201.825	55.024	0.052	23.811
201.697	54.971	0.401	23.773
201.570	54.918	0.716	23.560
201.443	54.865	0.832	23.210
201.315	54.812	0.446	22.774
201.188	54.760	0.274	22.311
201.061	54.707	0.093	21.836
200.934	54.654	0.063	21.427
200.806	54.601	0.087	21.129
200.679	54.548	0.194	20.933
200.552	54.495	0.581	20.808
200.424	54.442	0.423	20.699
200.297	54.389	0.064	20.518
200.170	54.336	0.106	20.229
200.043	54.283	0.045	19.819
199.915	54.230	0.076	19.310
199.788	54.178	0.098	18.743
199.661	54.125	0.400	18.105
202.374	55.357	0.126	24.093
202.247	55.304	0.020	24.655
202.119	55.251	0.139	25.240
201.992	55.198	0.074	25.733
201.865	55.145	0.025	26.071
201.738	55.092	0.120	26.211
201.610	55.039	1.276	26.157
201.483	54.987	1.134	25.938
201.356	54.934	0.564	25.550
201.229	54.881	0.601	25.067
201.101	54.828	0.633	24.553
200.974	54.775	0.258	24.061
200.847	54.722	0.072	23.654
200.720	54.669	0.015	23.364
200.592	54.616	0.241	23.193
200.465	54.563	0.528	23.072
200.338	54.511	0.389	22.956
200.210	54.458	0.096	22.740
200.083	54.405	0.004	22.392
199.956	54.352	0.313	21.920
199.828	54.299	0.157	21.352
199.701	54.246	0.163	20.705
199.574	54.193	0.031	20.008
202.287	55.425	0.025	26.409
202.160	55.372	0.084	27.078
202.033	55.319	0.064	27.732
201.905	55.267	0.008	28.309
201.778	55.214	0.215	28.665
201.651	55.161	1.428	28.801
201.524	55.108	3.698	28.717
201.396	55.055	1.996	28.450
201.269	55.002	0.552	28.022
201.142	54.949	0.479	27.500
201.014	54.896	0.490	26.958
200.887	54.843	0.775	26.454
200.760	54.791	0.412	26.078
200.633	54.738	0.096	25.801
200.505	54.685	0.376	25.637
200.378	54.632	0.859	25.501
200.251	54.579	0.144	25.322
200.124	54.526	0.015	25.039
199.996	54.473	0.053	24.632
199.869	54.420	0.242	24.095
199.742	54.367	0.169	23.463
199.614	54.315	0.012	22.791
199.487	54.262	0.013	22.039
202.200	55.494	0.305	28.976
202.073	55.441	0.723	29.724
201.946	55.388	0.498	30.428
201.818	55.335	0.010	31.005
201.691	55.282	0.021	31.361
201.564	55.229	1.546	31.484
201.437	55.176	3.297	31.377
201.309	55.123	2.088	31.080
201.182	55.071	0.661	30.646
201.055	55.018	0.515	30.093
200.928	54.965	0.649	29.524
200.800	54.912	0.743	29.023
200.673	54.859	0.393	28.629
200.546	54.806	0.012	28.362
200.418	54.753	0.415	28.191
200.291	54.700	0.930	28.022
200.164	54.647	0.144	27.786
200.037	54.594	0.044	27.432
199.909	54.542	0.003	26.980
199.782	54.489	0.334	26.380
199.655	54.436	0.042	25.692
199.528	54.383	0.460	24.939
199.400	54.330	0.352	24.143
202.113	55.562	0.250	31.714
201.986	55.509	0.559	32.497
201.859	55.456	0.616	33.212
201.732	55.403	0.139	33.770
201.604	55.350	0.020	34.126
201.477	55.298	0.306	34.260
201.350	55.245	1.097	34.138
201.222	55.192	0.651	33.819
201.095	55.139	0.279	33.333
200.968	55.086	0.333	32.761
200.841	55.033	0.867	32.186
200.713	54.980	0.968	31.693
200.586	54.927	0.693	31.311
200.459	54.874	0.020	31.046
200.332	54.822	0.107	30.870
200.204	54.769	0.108	30.662
200.077	54.716	0.017	30.356
199.950	54.663	0.074	29.926
199.822	54.610	0.029	29.378
199.695	54.557	0.003	28.718
199.568	54.504	0.024	27.979
199.441	54.451	0.463	27.180
199.313	54.398	0.433	26.341
202.026	55.630	0.000	34.590
201.899	55.578	0.228	35.385
201.772	55.525	0.362	36.075
201.645	55.472	0.134	36.609
201.517	55.419	0.095	36.950
201.390	55.366	0.095	37.049
201.263	55.313	0.095	36.918
201.136	55.260	0.327	36.580
201.008	55.207	0.686	36.094
200.881	55.154	0.738	35.520
200.754	55.102	1.307	34.984
200.626	55.049	1.430	34.507
200.499	54.996	0.925	34.136
200.372	54.943	0.160	33.862
200.245	54.890	0.320	33.623
200.117	54.837	0.084	33.353
199.990	54.784	0.558	32.972
199.863	54.731	0.089	32.467
199.736	54.678	0.091	31.848
199.608	54.626	0.034	31.170
199.481	54.573	0.135	30.386
199.354	54.520	0.406	29.546
199.226	54.467	0.442	28.666
201.940	55.699	0.007	37.572
201.812	55.646	0.268	38.308
201.685	55.593	0.466	38.949
201.558	55.540	0.278	39.452
201.430	55.487	0.094	39.784
201.303	55.434	0.307	39.886
201.176	55.382	0.316	39.790
201.049	55.329	0.794	39.458
200.921	55.276	1.169	38.980
200.794	55.223	1.267	38.418
200.667	55.170	1.363	37.870
200.540	55.117	0.960	37.402
200.412	55.064	0.421	37.046
200.285	55.011	0.101	36.753
200.158	54.958	0.216	36.467
200.030	54.906	0.238	36.159
199.903	54.853	0.916	35.705
199.776	54.800	0.150	35.132
199.649	54.747	0.091	34.455
199.521	54.694	0.100	33.702
199.394	54.641	0.101	32.877
199.267	54.588	0.169	31.997
199.139	54.535	0.067	31.078
201.853	55.767	0.089	40.635
201.725	55.715	0.108	41.321
201.598	55.662	0.542	41.912
201.471	55.609	0.548	42.398
201.344	55.556	0.485	42.728
201.216	55.503	0.265	42.866
201.089	55.450	0.135	42.764
200.962	55.397	0.628	42.449
200.834	55.344	1.316	41.988
200.707	55.291	1.012	41.446
200.580	55.238	0.875	40.917
200.453	55.185	0.385	40.461
200.325	55.133	0.030	40.131
200.198	55.080	0.060	39.806
200.071	55.027	0.061	39.465
199.944	54.974	0.873	39.051
199.816	54.921	1.172	38.537
199.689	54.868	0.706	37.904
199.562	54.815	0.617	37.177
199.434	54.762	0.643	36.381
199.307	54.709	0.353	35.515
199.180	54.657	0.259	34.626
199.053	54.604	0.008	33.659
201.766	55.836	0.441	43.848
201.638	55.783	0.407	44.442
201.511	55.730	0.679	45.006
201.384	55.677	0.691	45.506
201.257	55.624	0.502	45.874
201.129	55.571	0.378	46.056
201.002	55.518	0.296	45.989
200.875	55.465	0.750	45.699
200.748	55.413	1.381	45.281
200.620	55.360	1.264	44.763
200.493	55.307	0.801	44.242
200.366	55.254	0.410	43.780
200.238	55.201	0.044	43.396
200.111	55.148	0.004	43.026
199.984	55.095	0.300	42.626
199.857	55.042	1.165	42.144
199.729	54.989	1.069	41.566
199.602	54.937	0.831	40.910
199.475	54.884	0.591	40.134
199.347	54.831	0.279	39.293
199.220	54.778	0.314	38.381
199.093	54.725	0.474	37.413
198.966	54.672	0.141	36.400
201.679	55.904	0.479	47.251
201.552	55.851	0.584	47.802
201.424	55.798	0.738	48.408
201.297	55.745	1.051	48.968
201.170	55.693	0.555	49.441
201.042	55.640	0.727	49.690
200.915	55.587	0.364	49.666
200.788	55.534	0.782	49.396
200.661	55.481	1.032	48.947
200.533	55.428	1.004	48.424
200.406	55.375	0.471	47.886
200.279	55.322	0.500	47.398
200.152	55.269	0.007	46.961
200.024	55.217	0.478	46.586
199.897	55.164	0.514	46.117
199.770	55.111	0.623	45.562
199.643	55.058	0.828	44.905
199.515	55.005	0.701	44.164
199.388	54.952	0.315	43.332
199.261	54.899	0.062	42.430
199.133	54.846	0.273	41.472
199.006	54.793	0.551	40.449
198.879	54.740	0.443	39.382
201.592	55.973	0.497	51.039
201.465	55.920	0.492	51.637
201.337	55.867	0.443	52.341
201.210	55.814	0.480	53.019
201.083	55.761	0.422	53.567
200.956	55.708	0.473	53.874
200.828	55.655	0.466	53.903
200.701	55.602	0.450	53.634
200.574	55.549	0.469	53.161
200.446	55.496	0.492	52.603
200.319	55.444	0.456	52.068
200.192	55.391	0.037	51.528
200.065	55.338	0.132	51.027
199.937	55.285	0.214	50.540
199.810	55.232	0.217	49.984
199.683	55.179	0.210	49.338
199.556	55.126	0.494	48.596
199.428	55.073	0.179	47.779
199.301	55.020	0.192	46.878
199.174	54.968	0.293	45.953
199.047	54.915	0.235	44.922
198.919	54.862	0.432	43.843
198.792	54.809	0.466	42.711
