-1.555490000000000066e+02 5.583100000000000307e+01 2.290000000000000091e-01 2.628999999999999915e+01
-1.557129999999999939e+02 5.577499999999999858e+01 7.532999999999999696e-01 2.628999999999999915e+01
-1.558760000000000048e+02 5.571900000000000119e+01 1.111999999999999922e+01 2.628999999999999915e+01
-1.560380000000000109e+02 5.566299999999999670e+01 9.086999999999999744e+00 2.628999999999999915e+01
-1.562009999999999934e+02 5.560600000000000165e+01 5.304999999999999716e+00 2.628999999999999915e+01
-1.563619999999999948e+02 5.554999999999999716e+01 2.373000000000000220e+00 2.628999999999999915e+01
-1.565240000000000009e+02 5.549300000000000210e+01 1.447999999999999954e+00 2.628999999999999915e+01
-1.566839999999999975e+02 5.543500000000000227e+01 7.831000000000000183e-01 2.628999999999999915e+01
-1.568449999999999989e+02 5.537800000000000011e+01 7.358999999999999986e-01 2.628999999999999915e+01
-1.570049999999999955e+02 5.532000000000000028e+01 9.810999999999999721e-01 2.628999999999999915e+01
-1.571639999999999873e+02 5.526299999999999812e+01 1.314000000000000057e+00 2.628999999999999915e+01
-1.573230000000000075e+02 5.520499999999999829e+01 7.227000000000000091e-01 2.628999999999999915e+01
-1.574819999999999993e+02 5.514600000000000080e+01 2.866000000000000214e-01 2.628999999999999915e+01
-1.576399999999999864e+02 5.508800000000000097e+01 4.597999999999999865e-01 2.628999999999999915e+01
-1.577980000000000018e+02 5.502900000000000347e+01 8.596000000000000307e-01 2.628999999999999915e+01
-1.579540000000000077e+02 5.497099999999999653e+01 1.215999999999999970e+00 2.628999999999999915e+01
-1.581109999999999900e+02 5.491199999999999903e+01 9.244999999999999885e-01 2.628999999999999915e+01
-1.556210000000000093e+02 5.589800000000000324e+01 0.000000000000000000e+00 2.846999999999999886e+01
-1.557849999999999966e+02 5.584199999999999875e+01 0.000000000000000000e+00 2.846999999999999886e+01
-1.559480000000000075e+02 5.578600000000000136e+01 1.648999999999999910e-01 2.846999999999999886e+01
-1.561109999999999900e+02 5.572999999999999687e+01 8.312000000000000499e-01 2.846999999999999886e+01
-1.562740000000000009e+02 5.567300000000000182e+01 2.302000000000000046e+00 2.846999999999999886e+01
-1.564360000000000070e+02 5.561599999999999966e+01 1.155000000000000027e+00 2.846999999999999886e+01
-1.565970000000000084e+02 5.555899999999999750e+01 1.040000000000000036e+00 2.846999999999999886e+01
-1.567580000000000098e+02 5.550200000000000244e+01 3.563000000000000056e-01 2.846999999999999886e+01
-1.569190000000000111e+02 5.544400000000000261e+01 3.634999999999999898e-01 2.846999999999999886e+01
-1.570790000000000077e+02 5.538700000000000045e+01 9.127999999999999448e-01 2.846999999999999886e+01
-1.572379999999999995e+02 5.532900000000000063e+01 1.260999999999999899e+00 2.846999999999999886e+01
-1.573969999999999914e+02 5.527100000000000080e+01 7.237999999999999989e-01 2.846999999999999886e+01
-1.575560000000000116e+02 5.521200000000000330e+01 7.270999999999999686e-01 2.846999999999999886e+01
-1.577139999999999986e+02 5.515400000000000347e+01 9.550999999999999490e-01 2.846999999999999886e+01
-1.578720000000000141e+02 5.509499999999999886e+01 7.741000000000000103e-01 2.846999999999999886e+01
-1.580289999999999964e+02 5.503600000000000136e+01 7.925999999999999712e-01 2.846999999999999886e+01
-1.581860000000000070e+02 5.497699999999999676e+01 9.119000000000000439e-01 2.846999999999999886e+01
-1.556939999999999884e+02 5.596500000000000341e+01 0.000000000000000000e+00 3.064999999999999858e+01
-1.558580000000000041e+02 5.590899999999999892e+01 0.000000000000000000e+00 3.064999999999999858e+01
-1.560209999999999866e+02 5.585300000000000153e+01 0.000000000000000000e+00 3.064999999999999858e+01
-1.561839999999999975e+02 5.579699999999999704e+01 3.570000000000000256e-02 3.064999999999999858e+01
-1.563470000000000084e+02 5.574000000000000199e+01 7.621999999999999886e-01 3.064999999999999858e+01
-1.565089999999999861e+02 5.568299999999999983e+01 8.698000000000000176e-01 3.064999999999999858e+01
-1.566709999999999923e+02 5.562599999999999767e+01 1.780999999999999917e+00 3.064999999999999858e+01
-1.568319999999999936e+02 5.556799999999999784e+01 1.824999999999999956e+00 3.064999999999999858e+01
-1.569919999999999902e+02 5.551100000000000279e+01 7.955999999999999739e-01 3.064999999999999858e+01
-1.571529999999999916e+02 5.545300000000000296e+01 8.285000000000000142e-01 3.064999999999999858e+01
-1.573120000000000118e+02 5.539500000000000313e+01 8.467000000000000082e-01 3.064999999999999858e+01
-1.574720000000000084e+02 5.533700000000000330e+01 9.251000000000000334e-01 3.064999999999999858e+01
-1.576299999999999955e+02 5.527799999999999869e+01 1.570999999999999952e+00 3.064999999999999858e+01
-1.577889999999999873e+02 5.521999999999999886e+01 2.559000000000000163e+00 3.064999999999999858e+01
-1.579470000000000027e+02 5.516100000000000136e+01 2.592999999999999972e+00 3.064999999999999858e+01
-1.581040000000000134e+02 5.510199999999999676e+01 1.225000000000000089e+00 3.064999999999999858e+01
-1.582609999999999957e+02 5.504299999999999926e+01 1.635000000000000009e+00 3.064999999999999858e+01
-1.557659999999999911e+02 5.603199999999999648e+01 2.929999999999999827e-01 3.282000000000000028e+01
-1.559300000000000068e+02 5.597599999999999909e+01 5.590000000000000524e-01 3.282000000000000028e+01
-1.560939999999999941e+02 5.592000000000000171e+01 4.072000000000000064e+00 3.282000000000000028e+01
-1.562570000000000050e+02 5.586299999999999955e+01 5.320999999999999730e+00 3.282000000000000028e+01
-1.564199999999999875e+02 5.580599999999999739e+01 4.812000000000000277e+00 3.282000000000000028e+01
-1.565819999999999936e+02 5.574900000000000233e+01 4.208000000000000185e+00 3.282000000000000028e+01
-1.567439999999999998e+02 5.569200000000000017e+01 3.863999999999999879e+00 3.282000000000000028e+01
-1.569050000000000011e+02 5.563499999999999801e+01 3.504999999999999893e+00 3.282000000000000028e+01
-1.570660000000000025e+02 5.557699999999999818e+01 1.951000000000000068e+00 3.282000000000000028e+01
-1.572270000000000039e+02 5.551899999999999835e+01 1.219000000000000083e+00 3.282000000000000028e+01
-1.573870000000000005e+02 5.546099999999999852e+01 7.947999999999999510e-01 3.282000000000000028e+01
-1.575459999999999923e+02 5.540299999999999869e+01 1.421999999999999931e+00 3.282000000000000028e+01
-1.577050000000000125e+02 5.534400000000000119e+01 3.775999999999999801e+00 3.282000000000000028e+01
-1.578640000000000043e+02 5.528499999999999659e+01 6.110000000000000320e+00 3.282000000000000028e+01
-1.580209999999999866e+02 5.522699999999999676e+01 6.610999999999999766e+00 3.282000000000000028e+01
-1.581790000000000020e+02 5.516700000000000159e+01 3.689999999999999947e+00 3.282000000000000028e+01
-1.583360000000000127e+02 5.510799999999999699e+01 2.891000000000000014e+00 3.282000000000000028e+01
-1.558389999999999986e+02 5.609899999999999665e+01 3.726999999999999758e-01 3.500000000000000000e+01
-1.560039999999999907e+02 5.604299999999999926e+01 1.088999999999999968e+00 3.500000000000000000e+01
-1.561680000000000064e+02 5.598700000000000188e+01 5.706999999999999851e+00 3.500000000000000000e+01
-1.563309999999999889e+02 5.592999999999999972e+01 7.397000000000000242e+00 3.500000000000000000e+01
-1.564939999999999998e+02 5.587299999999999756e+01 6.988999999999999879e+00 3.500000000000000000e+01
-1.566560000000000059e+02 5.581600000000000250e+01 6.104000000000000092e+00 3.500000000000000000e+01
-1.568180000000000121e+02 5.575800000000000267e+01 5.216000000000000192e+00 3.500000000000000000e+01
-1.569799999999999898e+02 5.570100000000000051e+01 4.576999999999999957e+00 3.500000000000000000e+01
-1.571409999999999911e+02 5.564300000000000068e+01 3.592999999999999972e+00 3.500000000000000000e+01
-1.573009999999999877e+02 5.558500000000000085e+01 3.298000000000000043e+00 3.500000000000000000e+01
-1.574610000000000127e+02 5.552700000000000102e+01 2.658999999999999808e+00 3.500000000000000000e+01
-1.576210000000000093e+02 5.546900000000000119e+01 3.927000000000000046e+00 3.500000000000000000e+01
-1.577800000000000011e+02 5.540999999999999659e+01 7.241999999999999993e+00 3.500000000000000000e+01
-1.579389999999999930e+02 5.535099999999999909e+01 1.146000000000000085e+01 3.500000000000000000e+01
-1.580970000000000084e+02 5.529200000000000159e+01 1.155000000000000071e+01 3.500000000000000000e+01
-1.582549999999999955e+02 5.523299999999999699e+01 6.804999999999999716e+00 3.500000000000000000e+01
-1.584120000000000061e+02 5.517399999999999949e+01 3.482000000000000206e+00 3.500000000000000000e+01
-1.559130000000000109e+02 5.616599999999999682e+01 7.589999999999999525e-02 3.717999999999999972e+01
-1.560769999999999982e+02 5.610999999999999943e+01 1.706999999999999906e-01 3.717999999999999972e+01
-1.562410000000000139e+02 5.605299999999999727e+01 2.222999999999999865e+00 3.717999999999999972e+01
-1.564050000000000011e+02 5.599699999999999989e+01 2.903000000000000025e+00 3.717999999999999972e+01
-1.565680000000000121e+02 5.593999999999999773e+01 3.532999999999999918e+00 3.717999999999999972e+01
-1.567299999999999898e+02 5.588199999999999790e+01 3.657000000000000028e+00 3.717999999999999972e+01
-1.568930000000000007e+02 5.582500000000000284e+01 3.810999999999999943e+00 3.717999999999999972e+01
-1.570540000000000020e+02 5.576700000000000301e+01 4.214999999999999858e+00 3.717999999999999972e+01
-1.572150000000000034e+02 5.570900000000000318e+01 4.605000000000000426e+00 3.717999999999999972e+01
-1.573760000000000048e+02 5.565100000000000335e+01 5.493999999999999773e+00 3.717999999999999972e+01
-1.575360000000000014e+02 5.559300000000000352e+01 5.493999999999999773e+00 3.717999999999999972e+01
-1.576959999999999980e+02 5.553499999999999659e+01 7.003000000000000114e+00 3.717999999999999972e+01
-1.578549999999999898e+02 5.547599999999999909e+01 9.545999999999999375e+00 3.717999999999999972e+01
-1.580140000000000100e+02 5.541700000000000159e+01 1.292999999999999972e+01 3.717999999999999972e+01
-1.581719999999999970e+02 5.535799999999999699e+01 1.139000000000000057e+01 3.717999999999999972e+01
-1.583300000000000125e+02 5.529899999999999949e+01 6.211999999999999744e+00 3.717999999999999972e+01
-1.584879999999999995e+02 5.523899999999999721e+01 2.045999999999999819e+00 3.717999999999999972e+01
-1.559859999999999900e+02 5.623299999999999699e+01 9.450000000000000663e-05 3.935000000000000142e+01
-1.561510000000000105e+02 5.617600000000000193e+01 0.000000000000000000e+00 3.935000000000000142e+01
-1.563149999999999977e+02 5.611999999999999744e+01 1.464999999999999913e-01 3.935000000000000142e+01
-1.564780000000000086e+02 5.606300000000000239e+01 4.514000000000000234e-01 3.935000000000000142e+01
-1.566419999999999959e+02 5.600600000000000023e+01 9.389999999999999458e-01 3.935000000000000142e+01
-1.568050000000000068e+02 5.594800000000000040e+01 7.946999999999999620e-01 3.935000000000000142e+01
-1.569670000000000130e+02 5.589099999999999824e+01 1.483000000000000096e+00 3.935000000000000142e+01
-1.571289999999999907e+02 5.583299999999999841e+01 2.221000000000000085e+00 3.935000000000000142e+01
-1.572899999999999920e+02 5.577499999999999858e+01 3.052999999999999936e+00 3.935000000000000142e+01
-1.574509999999999934e+02 5.571699999999999875e+01 4.240000000000000213e+00 3.935000000000000142e+01
-1.576109999999999900e+02 5.565899999999999892e+01 4.496000000000000441e+00 3.935000000000000142e+01
-1.577709999999999866e+02 5.560000000000000142e+01 4.737000000000000099e+00 3.935000000000000142e+01
-1.579300000000000068e+02 5.554099999999999682e+01 5.708000000000000185e+00 3.935000000000000142e+01
-1.580889999999999986e+02 5.548199999999999932e+01 6.649000000000000021e+00 3.935000000000000142e+01
-1.582479999999999905e+02 5.542300000000000182e+01 4.540000000000000036e+00 3.935000000000000142e+01
-1.584060000000000059e+02 5.536399999999999721e+01 2.153000000000000025e+00 3.935000000000000142e+01
-1.585629999999999882e+02 5.530400000000000205e+01 6.147000000000000242e-01 3.935000000000000142e+01
-1.560600000000000023e+02 5.629999999999999716e+01 0.000000000000000000e+00 4.153000000000000114e+01
-1.562249999999999943e+02 5.624300000000000210e+01 0.000000000000000000e+00 4.153000000000000114e+01
-1.563890000000000100e+02 5.618699999999999761e+01 0.000000000000000000e+00 4.153000000000000114e+01
-1.565529999999999973e+02 5.613000000000000256e+01 6.555999999999999606e-01 4.153000000000000114e+01
-1.567160000000000082e+02 5.607200000000000273e+01 5.044999999999999485e-01 4.153000000000000114e+01
-1.568789999999999907e+02 5.601500000000000057e+01 6.905000000000000027e-01 4.153000000000000114e+01
-1.570420000000000016e+02 5.595700000000000074e+01 1.639000000000000012e+00 4.153000000000000114e+01
-1.572040000000000077e+02 5.589900000000000091e+01 2.113999999999999879e+00 4.153000000000000114e+01
-1.573650000000000091e+02 5.584100000000000108e+01 2.048000000000000043e+00 4.153000000000000114e+01
-1.575260000000000105e+02 5.578300000000000125e+01 2.000000000000000000e+00 4.153000000000000114e+01
-1.576870000000000118e+02 5.572500000000000142e+01 1.635000000000000009e+00 4.153000000000000114e+01
-1.578470000000000084e+02 5.566599999999999682e+01 1.010000000000000009e+00 4.153000000000000114e+01
-1.580060000000000002e+02 5.560699999999999932e+01 7.131999999999999451e-01 4.153000000000000114e+01
-1.581649999999999920e+02 5.554800000000000182e+01 6.138000000000000123e-01 4.153000000000000114e+01
-1.583240000000000123e+02 5.548899999999999721e+01 2.277000000000000135e-01 4.153000000000000114e+01
-1.584819999999999993e+02 5.542900000000000205e+01 5.849999999999999645e-01 4.153000000000000114e+01
-1.586399999999999864e+02 5.536899999999999977e+01 5.056000000000000494e-01 4.153000000000000114e+01
-1.561339999999999861e+02 5.636699999999999733e+01 0.000000000000000000e+00 4.371000000000000085e+01
-1.562990000000000066e+02 5.631000000000000227e+01 0.000000000000000000e+00 4.371000000000000085e+01
-1.564629999999999939e+02 5.625300000000000011e+01 8.949999999999999623e-02 4.371000000000000085e+01
-1.566270000000000095e+02 5.619599999999999795e+01 5.312999999999999945e-01 4.371000000000000085e+01
-1.567909999999999968e+02 5.613900000000000290e+01 4.500000000000000111e-01 4.371000000000000085e+01
-1.569540000000000077e+02 5.608100000000000307e+01 9.197999999999999510e-01 4.371000000000000085e+01
-1.571169999999999902e+02 5.602400000000000091e+01 2.383000000000000007e+00 4.371000000000000085e+01
-1.572789999999999964e+02 5.596600000000000108e+01 2.697999999999999954e+00 4.371000000000000085e+01
-1.574410000000000025e+02 5.590699999999999648e+01 2.068999999999999950e+00 4.371000000000000085e+01
-1.576020000000000039e+02 5.584899999999999665e+01 1.489000000000000101e+00 4.371000000000000085e+01
-1.577620000000000005e+02 5.579099999999999682e+01 1.006000000000000005e+00 4.371000000000000085e+01
-1.579230000000000018e+02 5.573199999999999932e+01 3.865999999999999992e-01 4.371000000000000085e+01
-1.580819999999999936e+02 5.567300000000000182e+01 0.000000000000000000e+00 4.371000000000000085e+01
-1.582419999999999902e+02 5.561399999999999721e+01 0.000000000000000000e+00 4.371000000000000085e+01
-1.584000000000000057e+02 5.555400000000000205e+01 0.000000000000000000e+00 4.371000000000000085e+01
-1.585589999999999975e+02 5.549499999999999744e+01 0.000000000000000000e+00 4.371000000000000085e+01
-1.587170000000000130e+02 5.543500000000000227e+01 3.870000000000000107e-01 4.371000000000000085e+01
-1.562079999999999984e+02 5.643299999999999983e+01 0.000000000000000000e+00 4.589000000000000057e+01
-1.563729999999999905e+02 5.637700000000000244e+01 0.000000000000000000e+00 4.589000000000000057e+01
-1.565380000000000109e+02 5.632000000000000028e+01 0.000000000000000000e+00 4.589000000000000057e+01
-1.567019999999999982e+02 5.626299999999999812e+01 0.000000000000000000e+00 4.589000000000000057e+01
-1.568660000000000139e+02 5.620499999999999829e+01 0.000000000000000000e+00 4.589000000000000057e+01
-1.570289999999999964e+02 5.614800000000000324e+01 2.210000000000000020e-01 4.589000000000000057e+01
-1.571920000000000073e+02 5.609000000000000341e+01 8.083000000000000185e-01 4.589000000000000057e+01
-1.573540000000000134e+02 5.603199999999999648e+01 8.334000000000000297e-01 4.589000000000000057e+01
-1.575159999999999911e+02 5.597399999999999665e+01 1.731999999999999929e-01 4.589000000000000057e+01
-1.576779999999999973e+02 5.591499999999999915e+01 4.139999999999999930e-02 4.589000000000000057e+01
-1.578379999999999939e+02 5.585600000000000165e+01 0.000000000000000000e+00 4.589000000000000057e+01
-1.579989999999999952e+02 5.579800000000000182e+01 0.000000000000000000e+00 4.589000000000000057e+01
-1.581589999999999918e+02 5.573799999999999955e+01 0.000000000000000000e+00 4.589000000000000057e+01
-1.583180000000000121e+02 5.567900000000000205e+01 0.000000000000000000e+00 4.589000000000000057e+01
-1.584770000000000039e+02 5.561999999999999744e+01 0.000000000000000000e+00 4.589000000000000057e+01
-1.586349999999999909e+02 5.556000000000000227e+01 0.000000000000000000e+00 4.589000000000000057e+01
-1.587930000000000064e+02 5.550000000000000000e+01 2.959999999999999853e-01 4.589000000000000057e+01
