-85.112400 9.313400 0.209158 10.790000
-85.185300 9.367500 0.224702 10.790000
-85.258300 9.421700 0.279230 10.790000
-85.331200 9.475900 0.329862 10.790000
-85.404200 9.530000 0.407538 10.790000
-85.477100 9.584200 0.351403 10.790000
-85.550000 9.638300 0.226413 10.790000
-85.623000 9.692500 0.160044 10.790000
-85.695900 9.746700 0.243361 10.790000
-85.768900 9.800800 0.544911 10.790000
-85.841800 9.855000 0.543447 10.790000
-85.914700 9.909100 0.207523 10.790000
-85.987700 9.963300 0.098412 10.790000
-86.060600 10.017400 0.058018 10.790000
-86.133600 10.071600 0.154990 10.790000
-85.077900 9.358500 0.332910 12.472300
-85.150800 9.412700 0.338016 12.472300
-85.223800 9.466800 0.302966 12.472300
-85.296700 9.521000 0.337654 12.472300
-85.369700 9.575100 0.433195 12.472300
-85.442600 9.629300 0.382497 12.472300
-85.515500 9.683500 0.275997 12.472300
-85.588500 9.737600 0.252837 12.472300
-85.661400 9.791800 0.349863 12.472300
-85.734400 9.845900 0.597195 12.472300
-85.807300 9.900100 0.543447 12.472300
-85.880200 9.954300 0.249368 12.472300
-85.953200 10.008400 0.156356 12.472300
-86.026100 10.062600 0.058018 12.472300
-86.099100 10.116700 0.063989 12.472300
-85.043400 9.403600 0.483172 14.154600
-85.116300 9.457800 0.474182 14.154600
-85.189300 9.511900 0.318413 14.154600
-85.262200 9.566100 0.306325 14.154600
-85.335100 9.620300 0.428789 14.154600
-85.408100 9.674400 0.398373 14.154600
-85.481000 9.728600 0.319516 14.154600
-85.554000 9.782700 0.339902 14.154600
-85.626900 9.836900 0.498264 14.154600
-85.699800 9.891100 0.650334 14.154600
-85.772800 9.945200 0.569908 14.154600
-85.845700 9.999400 0.331331 14.154600
-85.918700 10.053500 0.260941 14.154600
-85.991600 10.107700 0.057427 14.154600
-86.064500 10.161900 0.000755 14.154600
-85.011200 9.446100 0.645002 16.590000
-85.084200 9.500200 0.621534 16.590000
-85.157100 9.554400 0.322250 16.590000
-85.230000 9.608600 0.247125 16.590000
-85.303000 9.662700 0.401980 16.590000
-85.375900 9.716900 0.419001 16.590000
-85.448900 9.771000 0.341234 16.590000
-85.521800 9.825200 0.425508 16.590000
-85.594700 9.879300 0.679957 16.590000
-85.667700 9.933500 0.656954 16.590000
-85.740600 9.987700 0.519702 16.590000
-85.813600 10.041800 0.404525 16.590000
-85.886500 10.096000 0.191130 16.590000
-85.959400 10.150100 0.019761 16.590000
-86.032400 10.204300 0.011703 16.590000
-84.978100 9.489400 0.793509 19.024900
-85.051000 9.543500 0.722240 19.024900
-85.124000 9.597700 0.339337 19.024900
-85.196900 9.651900 0.206531 19.024900
-85.269900 9.706000 0.370849 19.024900
-85.342800 9.760200 0.432216 19.024900
-85.415700 9.814300 0.386158 19.024900
-85.488700 9.868500 0.574126 19.024900
-85.561600 9.922700 0.959719 19.024900
-85.634600 9.976800 0.779112 19.024900
-85.707500 10.031000 0.656922 19.024900
-85.780400 10.085100 0.451140 19.024900
-85.853400 10.139300 0.253649 19.024900
-85.926300 10.193500 0.060306 19.024900
-85.999300 10.247600 0.068369 19.024900
-84.945000 9.532700 0.899416 21.459900
-85.017900 9.586900 0.771969 21.459900
-85.090800 9.641000 0.390060 21.459900
-85.163800 9.695200 0.234468 21.459900
-85.236700 9.749300 0.357823 21.459900
-85.309700 9.803500 0.390540 21.459900
-85.382600 9.857700 0.442936 21.459900
-85.455500 9.911800 0.919890 21.459900
-85.528500 9.966000 0.959719 21.459900
-85.601400 10.020100 0.960897 21.459900
-85.674400 10.074300 0.795789 21.459900
-85.747300 10.128500 0.492728 21.459900
-85.820200 10.182600 0.257893 21.459900
-85.893200 10.236800 0.125293 21.459900
-85.966100 10.290900 0.068369 21.459900
-84.919400 9.581500 0.946025 24.950000
-84.992400 9.635600 0.758183 24.950000
-85.065300 9.689800 0.444331 24.950000
-85.138300 9.743900 0.328470 24.950000
-85.211200 9.798100 0.342246 24.950000
-85.284100 9.852300 0.319445 24.950000
-85.357100 9.906400 0.620840 24.950000
-85.430000 9.960600 0.945783 24.950000
-85.503000 10.014700 0.965309 24.950000
-85.575900 10.068900 1.000163 24.950000
-85.648800 10.123100 0.900449 24.950000
-85.721800 10.177200 0.492728 24.950000
-85.794700 10.231400 0.244422 24.950000
-85.867700 10.285500 0.183293 24.950000
-85.940600 10.339700 0.213066 24.950000
-84.888500 9.621900 0.908971 28.200000
-84.961400 9.676100 0.687033 28.200000
-85.034400 9.730200 0.441962 28.200000
-85.107300 9.784400 0.367707 28.200000
-85.180300 9.838600 0.317669 28.200000
-85.253200 9.892700 0.264114 28.200000
-85.326100 9.946900 0.517780 28.200000
-85.399100 10.001000 0.945783 28.200000
-85.472000 10.055200 0.947321 28.200000
-85.545000 10.109400 0.961970 28.200000
-85.617900 10.163500 0.922269 28.200000
-85.690800 10.217700 0.369518 28.200000
-85.763800 10.271800 0.236340 28.200000
-85.836700 10.326000 0.196668 28.200000
-85.909700 10.380200 0.364370 28.200000
-84.857600 9.662400 0.836258 31.450000
-84.930500 9.716500 0.586831 31.450000
-85.003400 9.770700 0.356416 31.450000
-85.076400 9.824900 0.387733 31.450000
-85.149300 9.879000 0.333203 31.450000
-85.222300 9.933200 0.227394 31.450000
-85.295200 9.987300 0.330737 31.450000
-85.368100 10.041500 0.825512 31.450000
-85.441100 10.095700 0.912198 31.450000
-85.514000 10.149800 0.945783 31.450000
-85.587000 10.204000 0.770351 31.450000
-85.659900 10.258100 0.338042 31.450000
-85.732800 10.312300 0.122287 31.450000
-85.805800 10.366500 0.225869 31.450000
-85.878700 10.420600 0.506488 31.450000
-84.826600 9.702800 0.766193 34.700000
-84.899600 9.757000 0.364038 34.700000
-84.972500 9.811200 0.281205 34.700000
-85.045400 9.865300 0.387640 34.700000
-85.118400 9.919500 0.364825 34.700000
-85.191300 9.973600 0.204220 34.700000
-85.264300 10.027800 0.184651 34.700000
-85.337200 10.082000 0.536111 34.700000
-85.410100 10.136100 0.646381 34.700000
-85.483100 10.190300 0.945783 34.700000
-85.556000 10.244400 0.656430 34.700000
-85.629000 10.298600 0.232750 34.700000
-85.701900 10.352800 0.046799 34.700000
-85.774800 10.406900 0.132157 34.700000
-85.847800 10.461100 0.386850 34.700000
-84.795700 9.743300 0.744314 37.950000
-84.868600 9.797500 0.355329 37.950000
-84.941600 9.851600 0.238331 37.950000
-85.014500 9.905800 0.346631 37.950000
-85.087400 9.959900 0.349752 37.950000
-85.160400 10.014100 0.204757 37.950000
-85.233300 10.068300 0.141452 37.950000
-85.306300 10.122400 0.353483 37.950000
-85.379200 10.176600 0.477124 37.950000
-85.452100 10.230700 0.725127 37.950000
-85.525100 10.284900 0.461158 37.950000
-85.598000 10.339000 0.117352 37.950000
-85.671000 10.393200 0.000000 37.950000
-85.743900 10.447400 0.132157 37.950000
-85.816800 10.501500 0.230732 37.950000
-85.252300 9.129900 0.000000 6.270000
-85.325300 9.184000 0.002549 6.270000
-85.398200 9.238200 0.059540 6.270000
-85.471100 9.292400 0.098311 6.270000
-85.544100 9.346500 0.135008 6.270000
-85.617000 9.400700 0.125008 6.270000
-85.690000 9.454800 0.059545 6.270000
-85.762900 9.509000 0.003916 6.270000
-85.835800 9.563200 0.000000 6.270000
-85.908800 9.617300 0.077084 6.270000
-85.981700 9.671500 0.178403 6.270000
-86.054700 9.725600 0.173321 6.270000
-86.127600 9.779800 0.107474 6.270000
-86.200500 9.834000 0.125236 6.270000
-86.273500 9.888100 0.182359 6.270000
-85.217100 9.175900 0.001644 7.398700
-85.290100 9.230100 0.037941 7.398700
-85.363000 9.284200 0.098566 7.398700
-85.436000 9.338400 0.146409 7.398700
-85.508900 9.392500 0.199318 7.398700
-85.581800 9.446700 0.192762 7.398700
-85.654800 9.500800 0.106099 7.398700
-85.727700 9.555000 0.016678 7.398700
-85.800700 9.609200 0.049010 7.398700
-85.873600 9.663300 0.213792 7.398700
-85.946500 9.717500 0.268518 7.398700
-86.019500 9.771600 0.167176 7.398700
-86.092400 9.825800 0.123247 7.398700
-86.165300 9.880000 0.166109 7.398700
-86.238300 9.934100 0.256707 7.398700
-85.181900 9.221900 0.012869 8.527400
-85.254900 9.276100 0.076871 8.527400
-85.327800 9.330200 0.149694 8.527400
-85.400800 9.384400 0.198917 8.527400
-85.473700 9.438500 0.268538 8.527400
-85.546600 9.492700 0.269075 8.527400
-85.619600 9.546900 0.103696 8.527400
-85.692500 9.601000 0.022536 8.527400
-85.765500 9.655200 0.093630 8.527400
-85.838400 9.709300 0.320038 8.527400
-85.911300 9.763500 0.364277 8.527400
-85.984300 9.817600 0.167176 8.527400
-86.057200 9.871800 0.110590 8.527400
-86.130200 9.926000 0.141585 8.527400
-86.203100 9.980100 0.256707 8.527400
-85.146800 9.267900 0.041522 9.656100
-85.219700 9.322100 0.137964 9.656100
-85.292600 9.376200 0.211196 9.656100
-85.365600 9.430400 0.248893 9.656100
-85.438500 9.484500 0.353723 9.656100
-85.511500 9.538700 0.297402 9.656100
-85.584400 9.592900 0.166159 9.656100
-85.657300 9.647000 0.077976 9.656100
-85.730300 9.701200 0.159943 9.656100
-85.803200 9.755300 0.441732 9.656100
-85.876200 9.809500 0.466218 9.656100
-85.949100 9.863700 0.184472 9.656100
-86.022000 9.917800 0.092300 9.656100
-86.095000 9.972000 0.095245 9.656100
-86.167900 10.026100 0.230017 9.656100
-85.362100 9.000700 0.005433 4.350000
-85.435100 9.054900 0.008935 4.350000
-85.508000 9.109000 0.019540 4.350000
-85.580900 9.163200 0.026775 4.350000
-85.653900 9.217300 0.037612 4.350000
-85.726800 9.271500 0.032634 4.350000
-85.799800 9.325600 0.012722 4.350000
-85.872700 9.379800 0.000000 4.350000
-85.945600 9.434000 0.000176 4.350000
-86.018600 9.488100 0.021154 4.350000
-86.091500 9.542300 0.054087 4.350000
-86.164500 9.596400 0.064599 4.350000
-86.237400 9.650600 0.062727 4.350000
-86.310300 9.704800 0.075652 4.350000
-86.383300 9.758900 0.108008 4.350000
-85.326600 9.047200 0.000476 5.029400
-85.399500 9.101300 0.008935 5.029400
-85.472500 9.155500 0.013455 5.029400
-85.545400 9.209600 0.026775 5.029400
-85.618300 9.263800 0.037612 5.029400
-85.691300 9.317900 0.032634 5.029400
-85.764200 9.372100 0.029970 5.029400
-85.837200 9.426300 0.000231 5.029400
-85.910100 9.480400 0.000000 5.029400
-85.983000 9.534600 0.021154 5.029400
-86.056000 9.588700 0.054087 5.029400
-86.128900 9.642900 0.064599 5.029400
-86.201900 9.697100 0.062727 5.029400
-86.274800 9.751200 0.075652 5.029400
-86.347700 9.805400 0.108008 5.029400
-85.291100 9.093600 0.000000 5.708900
-85.364000 9.147800 0.005433 5.708900
-85.436900 9.201900 0.032002 5.708900
-85.509900 9.256100 0.058397 5.708900
-85.582800 9.310200 0.081015 5.708900
-85.655800 9.364400 0.071942 5.708900
-85.728700 9.418600 0.029970 5.708900
-85.801600 9.472700 0.003916 5.708900
-85.874600 9.526900 0.000000 5.708900
-85.947500 9.581000 0.045207 5.708900
-86.020500 9.635200 0.111366 5.708900
-86.093400 9.689400 0.122672 5.708900
-86.166300 9.743500 0.107474 5.708900
-86.239300 9.797700 0.075652 5.708900
-86.312200 9.851800 0.108008 5.708900
