-85.126500 9.106400 0.000000 1.812000
-85.184900 9.149700 0.000000 1.812000
-85.243200 9.193100 0.005068 1.812000
-85.301600 9.236400 0.037941 1.812000
-85.359900 9.279700 0.098566 1.812000
-85.418300 9.323100 0.146409 1.812000
-85.476600 9.366400 0.176079 1.812000
-85.534900 9.409700 0.206929 1.812000
-85.593300 9.453000 0.156615 1.812000
-85.651600 9.496400 0.106099 1.812000
-85.710000 9.539700 0.016678 1.812000
-85.768300 9.583000 0.004667 1.812000
-85.826600 9.626300 0.049010 1.812000
-85.885000 9.669700 0.213792 1.812000
-85.943300 9.713000 0.268133 1.812000
-86.001700 9.756300 0.224179 1.812000
-86.060000 9.799700 0.126635 1.812000
-86.118300 9.843000 0.123247 1.812000
-86.176700 9.886300 0.166109 1.812000
-86.235000 9.929600 0.206202 1.812000
-86.293400 9.973000 0.267044 1.812000
-85.090600 9.153400 0.001594 4.320600
-85.149000 9.196700 0.005916 4.320600
-85.207300 9.240000 0.021096 4.320600
-85.265700 9.283400 0.076871 4.320600
-85.324000 9.326700 0.149694 4.320600
-85.382300 9.370000 0.198917 4.320600
-85.440700 9.413300 0.236201 4.320600
-85.499000 9.456700 0.282519 4.320600
-85.557400 9.500000 0.227722 4.320600
-85.615700 9.543300 0.167449 4.320600
-85.674000 9.586700 0.051049 4.320600
-85.732400 9.630000 0.030919 4.320600
-85.790700 9.673300 0.093630 4.320600
-85.849100 9.716600 0.320038 4.320600
-85.907400 9.760000 0.364277 4.320600
-85.965800 9.803300 0.279434 4.320600
-86.024100 9.846600 0.125965 4.320600
-86.082400 9.889900 0.110590 4.320600
-86.140800 9.933300 0.141585 4.320600
-86.199100 9.976600 0.256707 4.320600
-86.257500 10.019900 0.317822 4.320600
-85.054700 9.200400 0.011021 6.829200
-85.113100 9.243700 0.025454 6.829200
-85.171400 9.287000 0.117321 6.829200
-85.229700 9.330300 0.137964 6.829200
-85.288100 9.373700 0.211196 6.829200
-85.346400 9.417000 0.248893 6.829200
-85.404800 9.460300 0.332646 6.829200
-85.463100 9.503600 0.353723 6.829200
-85.521400 9.547000 0.297402 6.829200
-85.579800 9.590300 0.166159 6.829200
-85.638100 9.633600 0.110215 6.829200
-85.696500 9.677000 0.087111 6.829200
-85.754800 9.720300 0.295361 6.829200
-85.813200 9.763600 0.441732 6.829200
-85.871500 9.806900 0.466218 6.829200
-85.929800 9.850300 0.279434 6.829200
-85.988200 9.893600 0.120170 6.829200
-86.046500 9.936900 0.087446 6.829200
-86.104900 9.980200 0.095245 6.829200
-86.163200 10.023600 0.230017 6.829200
-86.221500 10.066900 0.298487 6.829200
-85.018800 9.247300 0.031049 9.337700
-85.077100 9.290600 0.174357 9.337700
-85.135500 9.334000 0.209158 9.337700
-85.193800 9.377300 0.224702 9.337700
-85.252200 9.420600 0.279230 9.337700
-85.310500 9.464000 0.286388 9.337700
-85.368900 9.507300 0.378838 9.337700
-85.427200 9.550600 0.407538 9.337700
-85.485500 9.593900 0.351403 9.337700
-85.543900 9.637300 0.226413 9.337700
-85.602200 9.680600 0.182048 9.337700
-85.660600 9.723900 0.172337 9.337700
-85.718900 9.767200 0.384566 9.337700
-85.777200 9.810600 0.544911 9.337700
-85.835600 9.853900 0.543447 9.337700
-85.893900 9.897200 0.207523 9.337700
-85.952300 9.940600 0.131595 9.337700
-86.010600 9.983900 0.077914 9.337700
-86.069000 10.027200 0.058018 9.337700
-86.127300 10.070500 0.154990 9.337700
-86.185600 10.113900 0.315899 9.337700
-84.982900 9.294300 0.107689 11.846300
-85.041200 9.337600 0.283267 11.846300
-85.099600 9.380900 0.332910 11.846300
-85.157900 9.424300 0.414308 11.846300
-85.216300 9.467600 0.347912 11.846300
-85.274600 9.510900 0.299218 11.846300
-85.332900 9.554300 0.393842 11.846300
-85.391300 9.597600 0.433195 11.846300
-85.449600 9.640900 0.382497 11.846300
-85.508000 9.684200 0.275997 11.846300
-85.566300 9.727600 0.254320 11.846300
-85.624600 9.770900 0.283705 11.846300
-85.683000 9.814200 0.465814 11.846300
-85.741300 9.857500 0.648478 11.846300
-85.799700 9.900900 0.569908 11.846300
-85.858000 9.944200 0.249368 11.846300
-85.916400 9.987500 0.185589 11.846300
-85.974700 10.030900 0.115107 11.846300
-86.033000 10.074200 0.048123 11.846300
-86.091400 10.117500 0.063989 11.846300
-86.149700 10.160800 0.212975 11.846300
-84.947000 9.341300 0.162404 14.354900
-85.005300 9.384600 0.415844 14.354900
-85.063700 9.427900 0.501754 14.354900
-85.122000 9.471200 0.525813 14.354900
-85.180300 9.514600 0.318413 14.354900
-85.238700 9.557900 0.279729 14.354900
-85.297000 9.601200 0.371565 14.354900
-85.355400 9.644500 0.440545 14.354900
-85.413700 9.687900 0.398373 14.354900
-85.472100 9.731200 0.319516 14.354900
-85.530400 9.774500 0.339902 14.354900
-85.588700 9.817900 0.407278 14.354900
-85.647100 9.861200 0.585907 14.354900
-85.705400 9.904500 0.656954 14.354900
-85.763800 9.947800 0.569908 14.354900
-85.822100 9.991200 0.331331 14.354900
-85.880400 10.034500 0.260941 14.354900
-85.938800 10.077800 0.191130 14.354900
-85.997100 10.121100 0.009945 14.354900
-86.055500 10.164500 0.000755 14.354900
-86.113800 10.207800 0.125666 14.354900
-84.911100 9.388200 0.223076 16.863500
-84.969400 9.431600 0.560152 16.863500
-85.027700 9.474900 0.665438 16.863500
-85.086100 9.518200 0.632441 16.863500
-85.144400 9.561500 0.322250 16.863500
-85.202800 9.604900 0.239413 16.863500
-85.261100 9.648200 0.320467 16.863500
-85.319500 9.691500 0.440337 16.863500
-85.377800 9.734800 0.419001 16.863500
-85.436100 9.778200 0.341234 16.863500
-85.494500 9.821500 0.425508 16.863500
-85.552800 9.864800 0.679957 16.863500
-85.611200 9.908200 0.779934 16.863500
-85.669500 9.951500 0.779112 16.863500
-85.727800 9.994800 0.519702 16.863500
-85.786200 10.038100 0.453277 16.863500
-85.844500 10.081500 0.344815 16.863500
-85.902900 10.124800 0.253649 16.863500
-85.961200 10.168100 0.019761 16.863500
-86.019600 10.211400 0.000000 16.863500
-86.077900 10.254800 0.104836 16.863500
-84.875200 9.435200 0.282989 19.372000
-84.933500 9.478500 0.696571 19.372000
-84.991800 9.521900 0.916988 19.372000
-85.050200 9.565200 0.722240 19.372000
-85.108500 9.608500 0.339337 19.372000
-85.166900 9.651800 0.234468 19.372000
-85.225200 9.695200 0.284419 19.372000
-85.283500 9.738500 0.426502 19.372000
-85.341900 9.781800 0.403708 19.372000
-85.400200 9.825100 0.386158 19.372000
-85.458600 9.868500 0.574126 19.372000
-85.516900 9.911800 0.869867 19.372000
-85.575300 9.955100 0.959719 19.372000
-85.633600 9.998500 0.779112 19.372000
-85.691900 10.041800 0.656922 19.372000
-85.750300 10.085100 0.558835 19.372000
-85.808600 10.128400 0.350965 19.372000
-85.867000 10.171800 0.257893 19.372000
-85.925300 10.215100 0.060306 19.372000
-85.983600 10.258400 0.068369 19.372000
-86.042000 10.301700 0.180982 19.372000
-84.839200 9.482200 0.667032 21.880600
-84.897600 9.525500 0.861448 21.880600
-84.955900 9.568800 0.947251 21.880600
-85.014300 9.612100 0.771969 21.880600
-85.072600 9.655500 0.444331 21.880600
-85.130900 9.698800 0.314930 21.880600
-85.189300 9.742100 0.328470 21.880600
-85.247600 9.785500 0.342246 21.880600
-85.306000 9.828800 0.394105 21.880600
-85.364300 9.872100 0.442936 21.880600
-85.422700 9.915400 0.775323 21.880600
-85.481000 9.958800 0.948504 21.880600
-85.539300 10.002100 0.997269 21.880600
-85.597700 10.045400 0.960897 21.880600
-85.656000 10.088700 0.795789 21.880600
-85.714400 10.132100 0.492728 21.880600
-85.772700 10.175400 0.349329 21.880600
-85.831000 10.218700 0.175679 21.880600
-85.889400 10.262100 0.125293 21.880600
-85.947700 10.305400 0.213066 21.880600
-86.006100 10.348700 0.339252 21.880600
-84.803300 9.529100 0.686325 24.389200
-84.861700 9.572500 0.875898 24.389200
-84.920000 9.615800 0.946025 24.389200
-84.978400 9.659100 0.758183 24.389200
-85.036700 9.702400 0.441962 24.389200
-85.095000 9.745800 0.372562 24.389200
-85.153400 9.789100 0.355032 24.389200
-85.211700 9.832400 0.317669 24.389200
-85.270100 9.875800 0.264114 24.389200
-85.328400 9.919100 0.420524 24.389200
-85.386700 9.962400 0.838657 24.389200
-85.445100 10.005700 0.945783 24.389200
-85.503400 10.049100 0.956590 24.389200
-85.561800 10.092400 1.000163 24.389200
-85.620100 10.135700 0.900449 24.389200
-85.678400 10.179000 0.555044 24.389200
-85.736800 10.222400 0.369518 24.389200
-85.795100 10.265700 0.184701 24.389200
-85.853500 10.309000 0.183293 24.389200
-85.911800 10.352400 0.364370 24.389200
-85.970200 10.395700 0.485908 24.389200
-84.767400 9.576100 0.624298 26.897800
-84.825800 9.619400 0.925057 26.897800
-84.884100 9.662800 0.908971 26.897800
-84.942400 9.706100 0.449994 26.897800
-85.000800 9.749400 0.371423 26.897800
-85.059100 9.792700 0.372437 26.897800
-85.117500 9.836100 0.377375 26.897800
-85.175800 9.879400 0.333203 26.897800
-85.234100 9.922700 0.227394 26.897800
-85.292500 9.966000 0.330737 26.897800
-85.350800 10.009400 0.708546 26.897800
-85.409200 10.052700 0.869950 26.897800
-85.467500 10.096000 0.945783 26.897800
-85.525900 10.139400 0.961970 26.897800
-85.584200 10.182700 0.922269 26.897800
-85.642500 10.226000 0.550556 26.897800
-85.700900 10.269300 0.338042 26.897800
-85.759200 10.312700 0.122287 26.897800
-85.817600 10.356000 0.287210 26.897800
-85.875900 10.399300 0.406743 26.897800
-85.934200 10.442600 0.552521 26.897800
-84.731500 9.623100 0.569243 29.406300
-84.789800 9.666400 0.798487 29.406300
-84.848200 9.709700 0.656248 29.406300
-84.906500 9.753100 0.364038 29.406300
-84.964900 9.796400 0.282611 29.406300
-85.023200 9.839700 0.333125 29.406300
-85.081500 9.883000 0.403803 29.406300
-85.139900 9.926400 0.364825 29.406300
-85.198200 9.969700 0.204220 29.406300
-85.256600 10.013000 0.184651 29.406300
-85.314900 10.056300 0.536111 29.406300
-85.373300 10.099700 0.585598 29.406300
-85.431600 10.143000 0.945783 29.406300
-85.489900 10.186300 0.921500 29.406300
-85.548300 10.229700 0.836609 29.406300
-85.606600 10.273000 0.433270 29.406300
-85.665000 10.316300 0.098487 29.406300
-85.723300 10.359600 0.046799 29.406300
-85.781600 10.403000 0.225869 29.406300
-85.840000 10.446300 0.322253 29.406300
-85.898300 10.489600 0.396979 29.406300
-84.695600 9.670000 0.527178 31.914900
-84.753900 9.713400 0.764762 31.914900
-84.812300 9.756700 0.644812 31.914900
-84.870600 9.800000 0.355329 31.914900
-84.929000 9.843300 0.259384 31.914900
-84.987300 9.886700 0.285219 31.914900
-85.045600 9.930000 0.374586 31.914900
-85.104000 9.973300 0.349752 31.914900
-85.162300 10.016700 0.204757 31.914900
-85.220700 10.060000 0.141452 31.914900
-85.279000 10.103300 0.304746 31.914900
-85.337300 10.146600 0.353483 31.914900
-85.395700 10.190000 0.710331 31.914900
-85.454000 10.233300 0.725127 31.914900
-85.512400 10.276600 0.630283 31.914900
-85.570700 10.319900 0.272878 31.914900
-85.629100 10.363300 0.024806 31.914900
-85.687400 10.406600 0.000000 31.914900
-85.745700 10.449900 0.132157 31.914900
-85.804100 10.493300 0.230732 31.914900
-85.862400 10.536600 0.217470 31.914900
-84.659700 9.717000 0.509683 34.423500
-84.718000 9.760300 0.774517 34.423500
-84.776400 9.803700 0.714098 34.423500
-84.834700 9.847000 0.463839 34.423500
-84.893000 9.890300 0.364271 34.423500
-84.951400 9.933600 0.329618 34.423500
-85.009700 9.977000 0.370863 34.423500
-85.068100 10.020300 0.305473 34.423500
-85.126400 10.063600 0.247566 34.423500
-85.184700 10.107000 0.173296 34.423500
-85.243100 10.150300 0.160588 34.423500
-85.301400 10.193600 0.270730 34.423500
-85.359800 10.236900 0.315745 34.423500
-85.418100 10.280300 0.330636 34.423500
-85.476500 10.323600 0.291240 34.423500
-85.534800 10.366900 0.151622 34.423500
-85.593100 10.410200 0.000000 34.423500
-85.651500 10.453600 0.036496 34.423500
-85.709800 10.496900 0.081759 34.423500
-85.768200 10.540200 0.124758 34.423500
-85.826500 10.583600 0.095826 34.423500
-84.623800 9.764000 0.422659 36.932100
-84.682100 9.807300 0.675822 36.932100
-84.740400 9.850600 0.745913 36.932100
-84.798800 9.894000 0.665494 36.932100
-84.857100 9.937300 0.553480 36.932100
-84.915500 9.980600 0.520332 36.932100
-84.973800 10.023900 0.434729 36.932100
-85.032200 10.067300 0.375384 36.932100
-85.090500 10.110600 0.326059 36.932100
-85.148800 10.153900 0.230601 36.932100
-85.207200 10.197200 0.159576 36.932100
-85.265500 10.240600 0.184455 36.932100
-85.323900 10.283900 0.214090 36.932100
-85.382200 10.327200 0.200758 36.932100
-85.440500 10.370600 0.100897 36.932100
-85.498900 10.413900 0.025137 36.932100
-85.557200 10.457200 0.012016 36.932100
-85.615600 10.500500 0.089728 36.932100
-85.673900 10.543900 0.140747 36.932100
-85.732300 10.587200 0.105671 36.932100
-85.790600 10.630500 0.027174 36.932100
-84.587800 9.810900 0.349081 39.440600
-84.646200 9.854300 0.414058 39.440600
-84.704500 9.897600 0.474991 39.440600
-84.762900 9.940900 0.454464 39.440600
-84.821200 9.984300 0.396657 39.440600
-84.879600 10.027600 0.375914 39.440600
-84.937900 10.070900 0.345690 39.440600
-84.996200 10.114200 0.298430 39.440600
-85.054600 10.157600 0.361880 39.440600
-85.112900 10.200900 0.248843 39.440600
-85.171300 10.244200 0.147205 39.440600
-85.229600 10.287500 0.084966 39.440600
-85.287900 10.330900 0.120228 39.440600
-85.346300 10.374200 0.105005 39.440600
-85.404600 10.417500 0.043785 39.440600
-85.463000 10.460900 0.021648 39.440600
-85.521300 10.504200 0.032221 39.440600
-85.579700 10.547500 0.140104 39.440600
-85.638000 10.590800 0.203333 39.440600
-85.696300 10.634200 0.168831 39.440600
-85.754700 10.677500 0.099718 39.440600
