-85.146900 9.302200 0.117321 12.220000
-85.216900 9.360100 0.216141 12.220000
-85.286900 9.417900 0.268375 12.220000
-85.357000 9.475700 0.329862 12.220000
-85.427000 9.533600 0.407538 12.220000
-85.497000 9.591400 0.351403 12.220000
-85.567000 9.649300 0.226413 12.220000
-85.637000 9.707100 0.160044 12.220000
-85.707100 9.765000 0.384566 12.220000
-85.777100 9.822800 0.617629 12.220000
-85.847100 9.880700 0.383866 12.220000
-85.917100 9.938500 0.131595 12.220000
-85.987100 9.996400 0.077914 12.220000
-86.057200 10.054200 0.048123 12.220000
-86.127200 10.112100 0.115493 12.220000
-85.104000 9.352600 0.209158 15.473900
-85.174000 9.410400 0.338016 15.473900
-85.244000 9.468300 0.302966 15.473900
-85.314000 9.526100 0.337654 15.473900
-85.384000 9.584000 0.433195 15.473900
-85.454100 9.641800 0.382497 15.473900
-85.524100 9.699700 0.275997 15.473900
-85.594100 9.757500 0.252837 15.473900
-85.664100 9.815400 0.465814 15.473900
-85.734100 9.873200 0.648478 15.473900
-85.804200 9.931100 0.430587 15.473900
-85.874200 9.988900 0.292965 15.473900
-85.944200 10.046700 0.115107 15.473900
-86.014200 10.104600 0.009945 15.473900
-86.084200 10.162400 0.031421 15.473900
-85.061000 9.403000 0.483172 18.727800
-85.131000 9.460800 0.474182 18.727800
-85.201100 9.518700 0.318413 18.727800
-85.271100 9.576500 0.306325 18.727800
-85.341100 9.634400 0.428789 18.727800
-85.411100 9.692200 0.398373 18.727800
-85.481100 9.750000 0.319516 18.727800
-85.551200 9.807900 0.407278 18.727800
-85.621200 9.865700 0.585907 18.727800
-85.691200 9.923600 0.656954 18.727800
-85.761200 9.981400 0.519702 18.727800
-85.831200 10.039300 0.404525 18.727800
-85.901300 10.097100 0.191130 18.727800
-85.971300 10.155000 0.019761 18.727800
-86.041300 10.212800 0.011703 18.727800
-85.018100 9.453400 0.645002 21.981700
-85.088100 9.511200 0.632441 21.981700
-85.158100 9.569000 0.322250 21.981700
-85.228100 9.626900 0.247125 21.981700
-85.298200 9.684700 0.370849 21.981700
-85.368200 9.742600 0.432216 21.981700
-85.438200 9.800400 0.341234 21.981700
-85.508200 9.858300 0.543230 21.981700
-85.578200 9.916100 0.779934 21.981700
-85.648300 9.974000 0.779112 21.981700
-85.718300 10.031800 0.656922 21.981700
-85.788300 10.089700 0.451140 21.981700
-85.858300 10.147500 0.253649 21.981700
-85.928400 10.205400 0.060306 21.981700
-85.998400 10.263200 0.068369 21.981700
-84.975100 9.503700 0.793509 25.235600
-85.045200 9.561600 0.722240 25.235600
-85.115200 9.619400 0.390060 25.235600
-85.185200 9.677300 0.234468 25.235600
-85.255200 9.735100 0.357823 25.235600
-85.325200 9.793000 0.390540 25.235600
-85.395300 9.850800 0.578104 25.235600
-85.465300 9.908700 0.919890 25.235600
-85.535300 9.966500 0.959719 25.235600
-85.605300 10.024400 0.960897 25.235600
-85.675300 10.082200 0.795789 25.235600
-85.745400 10.140000 0.492728 25.235600
-85.815400 10.197900 0.257893 25.235600
-85.885400 10.255700 0.125293 25.235600
-85.955400 10.313600 0.213066 25.235600
-84.932200 9.554100 0.947251 28.489500
-85.002200 9.612000 0.771969 28.489500
-85.072200 9.669800 0.444331 28.489500
-85.142300 9.727700 0.314930 28.489500
-85.212300 9.785500 0.353018 28.489500
-85.282300 9.843400 0.319445 28.489500
-85.352300 9.901200 0.620840 28.489500
-85.422300 9.959000 0.945783 28.489500
-85.492400 10.016900 0.965309 28.489500
-85.562400 10.074700 1.000163 28.489500
-85.632400 10.132600 0.900449 28.489500
-85.702400 10.190400 0.555044 28.489500
-85.772500 10.248300 0.236340 28.489500
-85.842500 10.306100 0.183293 28.489500
-85.912500 10.364000 0.364370 28.489500
-84.889300 9.604500 0.946025 31.743400
-84.959300 9.662300 0.687033 31.743400
-85.029300 9.720200 0.441962 31.743400
-85.099300 9.778000 0.372562 31.743400
-85.169300 9.835900 0.355032 31.743400
-85.239400 9.893700 0.264114 31.743400
-85.309400 9.951600 0.517780 31.743400
-85.379400 10.009400 0.825512 31.743400
-85.449400 10.067300 0.947321 31.743400
-85.519500 10.125100 0.961970 31.743400
-85.589500 10.183000 0.922269 31.743400
-85.659500 10.240800 0.550556 31.743400
-85.729500 10.298700 0.187064 31.743400
-85.799500 10.356500 0.143374 31.743400
-85.869600 10.414300 0.406743 31.743400
-84.846300 9.654900 0.836258 34.997300
-84.916300 9.712700 0.586831 34.997300
-84.986400 9.770600 0.371423 34.997300
-85.056400 9.828400 0.372437 34.997300
-85.126400 9.886300 0.333203 34.997300
-85.196400 9.944100 0.227394 34.997300
-85.266400 10.002000 0.330737 34.997300
-85.336500 10.059800 0.536111 34.997300
-85.406500 10.117700 0.646381 34.997300
-85.476500 10.175500 0.945783 34.997300
-85.546500 10.233300 0.836609 34.997300
-85.616600 10.291200 0.433270 34.997300
-85.686600 10.349000 0.098487 34.997300
-85.756600 10.406900 0.067547 34.997300
-85.826600 10.464700 0.386850 34.997300
-84.803400 9.705300 0.766193 38.251100
-84.873400 9.763100 0.504848 38.251100
-84.943400 9.821000 0.259384 38.251100
-85.013400 9.878800 0.285219 38.251100
-85.083500 9.936700 0.349752 38.251100
-85.153500 9.994500 0.204757 38.251100
-85.223500 10.052300 0.141452 38.251100
-85.293500 10.110200 0.304746 38.251100
-85.363600 10.168000 0.414866 38.251100
-85.433600 10.225900 0.743358 38.251100
-85.503600 10.283700 0.630283 38.251100
-85.573600 10.341600 0.117352 38.251100
-85.643600 10.399400 0.000000 38.251100
-85.713700 10.457300 0.075253 38.251100
-85.783700 10.515100 0.124758 38.251100
-84.760400 9.755700 0.782418 41.505000
-84.830500 9.813500 0.594579 41.505000
-84.900500 9.871300 0.364271 41.505000
-84.970500 9.929200 0.329618 41.505000
-85.040500 9.987000 0.352748 41.505000
-85.110500 10.044900 0.247566 41.505000
-85.180600 10.102700 0.173296 41.505000
-85.250600 10.160600 0.160588 41.505000
-85.320600 10.218400 0.270730 41.505000
-85.390600 10.276300 0.330636 41.505000
-85.460700 10.334100 0.178020 41.505000
-85.530700 10.392000 0.025137 41.505000
-85.600700 10.449800 0.000976 41.505000
-85.670700 10.507700 0.081759 41.505000
-85.740700 10.565500 0.105671 41.505000
-84.717500 9.806000 0.816236 44.758900
-84.787500 9.863900 0.719973 44.758900
-84.857500 9.921700 0.534936 44.758900
-84.927600 9.979600 0.455009 44.758900
-84.997600 10.037400 0.413368 44.758900
-85.067600 10.095300 0.326059 44.758900
-85.137600 10.153100 0.230601 44.758900
-85.207700 10.211000 0.159576 44.758900
-85.277700 10.268800 0.128690 44.758900
-85.347700 10.326600 0.200758 44.758900
-85.417700 10.384500 0.100897 44.758900
-85.487700 10.442300 0.021648 44.758900
-85.557800 10.500200 0.076442 44.758900
-85.627800 10.558000 0.140747 44.758900
-85.697800 10.615900 0.168831 44.758900
-84.674600 9.856400 0.455503 48.012800
-84.744600 9.914300 0.474095 48.012800
-84.814600 9.972100 0.425110 48.012800
-84.884600 10.030000 0.360927 48.012800
-84.954700 10.087800 0.326551 48.012800
-85.024700 10.145600 0.260711 48.012800
-85.094700 10.203500 0.173776 48.012800
-85.164700 10.261300 0.147205 48.012800
-85.234700 10.319200 0.068829 48.012800
-85.304800 10.377000 0.041868 48.012800
-85.374800 10.434900 0.043785 48.012800
-85.444800 10.492700 0.013934 48.012800
-85.514800 10.550600 0.084087 48.012800
-85.584800 10.608400 0.219428 48.012800
-85.654900 10.666300 0.264940 48.012800
-84.631600 9.906800 0.455503 51.266700
-84.701600 9.964600 0.474095 51.266700
-84.771700 10.022500 0.425110 51.266700
-84.841700 10.080300 0.360927 51.266700
-84.911700 10.138200 0.326551 51.266700
-84.981700 10.196000 0.260711 51.266700
-85.051800 10.253900 0.173776 51.266700
-85.121800 10.311700 0.096624 51.266700
-85.191800 10.369600 0.030905 51.266700
-85.261800 10.427400 0.010899 51.266700
-85.331800 10.485300 0.000000 51.266700
-85.401900 10.543100 0.002522 51.266700
-85.471900 10.601000 0.062484 51.266700
-85.541900 10.658800 0.175441 51.266700
-85.611900 10.716600 0.321420 51.266700
-84.588700 9.957200 0.455503 54.520600
-84.658700 10.015000 0.474095 54.520600
-84.728700 10.072900 0.425110 54.520600
-84.798800 10.130700 0.360927 54.520600
-84.868800 10.188600 0.326551 54.520600
-84.938800 10.246400 0.260711 54.520600
-85.008800 10.304300 0.173776 54.520600
-85.078800 10.362100 0.067640 54.520600
-85.148900 10.420000 0.030905 54.520600
-85.218900 10.477800 0.010899 54.520600
-85.288900 10.535600 0.000000 54.520600
-85.358900 10.593500 0.000000 54.520600
-85.428900 10.651300 0.031003 54.520600
-85.499000 10.709200 0.093951 54.520600
-85.569000 10.767000 0.172019 54.520600
-84.545800 10.007600 0.455503 57.774500
-84.615800 10.065400 0.474095 57.774500
-84.685800 10.123300 0.425110 57.774500
-84.755800 10.181100 0.360927 57.774500
-84.825800 10.238900 0.326551 57.774500
-84.895900 10.296800 0.260711 57.774500
-84.965900 10.354600 0.173776 57.774500
-85.035900 10.412500 0.067640 57.774500
-85.105900 10.470300 0.030905 57.774500
-85.175900 10.528200 0.010899 57.774500
-85.246000 10.586000 0.000000 57.774500
-85.316000 10.643900 0.000000 57.774500
-85.386000 10.701700 0.031003 57.774500
-85.456000 10.759600 0.132853 57.774500
-85.526000 10.817400 0.172019 57.774500
