-85.172600 9.279700 0.056238 10.585700
-85.245600 9.333800 0.137964 10.585700
-85.318600 9.388000 0.220475 10.585700
-85.391600 9.442100 0.291424 10.585700
-85.464600 9.496300 0.353723 10.585700
-85.537600 9.550400 0.297402 10.585700
-85.610600 9.604600 0.166159 10.585700
-85.683600 9.658800 0.077976 10.585700
-85.756600 9.712900 0.159943 10.585700
-85.829600 9.767100 0.514633 10.585700
-85.902600 9.821200 0.279434 10.585700
-85.975600 9.875400 0.120170 10.585700
-86.048600 9.929600 0.087446 10.585700
-86.121700 9.983700 0.178838 10.585700
-86.194700 10.037900 0.298487 10.585700
-85.132700 9.331800 0.209158 13.966700
-85.205700 9.385900 0.308337 13.966700
-85.278700 9.440100 0.268375 13.966700
-85.351700 9.494200 0.329862 13.966700
-85.424700 9.548400 0.407538 13.966700
-85.497700 9.602600 0.351403 13.966700
-85.570700 9.656700 0.226413 13.966700
-85.643700 9.710900 0.172337 13.966700
-85.716700 9.765000 0.384566 13.966700
-85.789800 9.819200 0.617629 13.966700
-85.862800 9.873400 0.335738 13.966700
-85.935800 9.927500 0.131595 13.966700
-86.008800 9.981700 0.077914 13.966700
-86.081800 10.035800 0.115963 13.966700
-86.154800 10.090000 0.220289 13.966700
-85.092800 9.383900 0.332910 17.347600
-85.165800 9.438000 0.414308 17.347600
-85.238800 9.492200 0.302966 17.347600
-85.311800 9.546300 0.337654 17.347600
-85.384900 9.600500 0.433195 17.347600
-85.457900 9.654700 0.319231 17.347600
-85.530900 9.708800 0.254320 17.347600
-85.603900 9.763000 0.283705 17.347600
-85.676900 9.817100 0.465814 17.347600
-85.749900 9.871300 0.648478 17.347600
-85.822900 9.925500 0.383866 17.347600
-85.895900 9.979600 0.185589 17.347600
-85.968900 10.033800 0.115107 17.347600
-86.041900 10.087900 0.009945 17.347600
-86.114900 10.142100 0.115493 17.347600
-85.053000 9.436000 0.483172 20.728600
-85.126000 9.490100 0.525813 20.728600
-85.199000 9.544300 0.318413 20.728600
-85.272000 9.598500 0.320467 20.728600
-85.345000 9.652600 0.440337 20.728600
-85.418000 9.706800 0.364612 20.728600
-85.491000 9.760900 0.324103 20.728600
-85.564000 9.815100 0.407278 20.728600
-85.637000 9.869300 0.585907 20.728600
-85.710000 9.923400 0.656954 20.728600
-85.783000 9.977600 0.519702 20.728600
-85.856000 10.031700 0.292965 20.728600
-85.929000 10.085900 0.191130 20.728600
-86.002000 10.140000 0.019761 20.728600
-86.075000 10.194200 0.031421 20.728600
-85.013100 9.488100 0.815422 24.109500
-85.086100 9.542300 0.632441 24.109500
-85.159100 9.596400 0.220393 24.109500
-85.232100 9.650600 0.277839 24.109500
-85.305100 9.704700 0.426502 24.109500
-85.378100 9.758900 0.403708 24.109500
-85.451100 9.813000 0.437372 24.109500
-85.524100 9.867200 0.543230 24.109500
-85.597100 9.921400 0.779934 24.109500
-85.670100 9.975500 0.779112 24.109500
-85.743100 10.029700 0.656922 24.109500
-85.816100 10.083800 0.404525 24.109500
-85.889100 10.138000 0.253649 24.109500
-85.962100 10.192200 0.060306 24.109500
-86.035100 10.246300 0.011703 24.109500
-84.973200 9.540200 0.916988 27.490500
-85.046200 9.594400 0.575787 27.490500
-85.119200 9.648500 0.266087 27.490500
-85.192200 9.702700 0.284419 27.490500
-85.265200 9.756800 0.391151 27.490500
-85.338200 9.811000 0.394105 27.490500
-85.411200 9.865200 0.578104 27.490500
-85.484200 9.919300 0.740228 27.490500
-85.557200 9.973500 0.959719 27.490500
-85.630200 10.027600 0.960897 27.490500
-85.703200 10.081800 0.655142 27.490500
-85.776200 10.136000 0.350965 27.490500
-85.849200 10.190100 0.257893 27.490500
-85.922200 10.244300 0.125293 27.490500
-85.995200 10.298400 0.068369 27.490500
-84.933300 9.592300 0.947251 30.871400
-85.006300 9.646500 0.590134 30.871400
-85.079300 9.700600 0.349324 30.871400
-85.152300 9.754800 0.328470 30.871400
-85.225300 9.808900 0.342246 30.871400
-85.298300 9.863100 0.319445 30.871400
-85.371300 9.917300 0.620840 30.871400
-85.444300 9.971400 0.945783 30.871400
-85.517300 10.025600 0.997269 30.871400
-85.590300 10.079700 0.974250 30.871400
-85.663300 10.133900 0.751559 30.871400
-85.736300 10.188100 0.349329 30.871400
-85.809300 10.242200 0.184701 30.871400
-85.882300 10.296400 0.249468 30.871400
-85.955300 10.350500 0.345050 30.871400
-84.893400 9.644400 0.908971 34.252300
-84.966400 9.698600 0.542484 34.252300
-85.039400 9.752700 0.356416 34.252300
-85.112400 9.806900 0.387733 34.252300
-85.185400 9.861100 0.317669 34.252300
-85.258400 9.915200 0.264114 34.252300
-85.331400 9.969400 0.517780 34.252300
-85.404400 10.023500 0.825512 34.252300
-85.477400 10.077700 0.956590 34.252300
-85.550400 10.131900 0.953771 34.252300
-85.623400 10.186000 0.770351 34.252300
-85.696400 10.240200 0.338042 34.252300
-85.769400 10.294300 0.176146 34.252300
-85.842400 10.348500 0.287210 34.252300
-85.915500 10.402600 0.491880 34.252300
-84.853500 9.696500 0.836258 37.633300
-84.926500 9.750700 0.364038 37.633300
-84.999500 9.804800 0.281205 37.633300
-85.072500 9.859000 0.387640 37.633300
-85.145500 9.913200 0.364825 37.633300
-85.218500 9.967300 0.227394 37.633300
-85.291500 10.021500 0.450742 37.633300
-85.364500 10.075600 0.585598 37.633300
-85.437500 10.129800 0.945783 37.633300
-85.510500 10.184000 0.921500 37.633300
-85.583600 10.238100 0.656430 37.633300
-85.656600 10.292300 0.232750 37.633300
-85.729600 10.346400 0.122287 37.633300
-85.802600 10.400600 0.225869 37.633300
-85.875600 10.454800 0.386850 37.633300
-84.813600 9.748600 0.644812 41.014200
-84.886600 9.802800 0.355329 41.014200
-84.959600 9.857000 0.238331 41.014200
-85.032600 9.911100 0.346631 41.014200
-85.105600 9.965300 0.349752 41.014200
-85.178700 10.019400 0.204757 41.014200
-85.251700 10.073600 0.247608 41.014200
-85.324700 10.127800 0.353483 41.014200
-85.397700 10.181900 0.710331 41.014200
-85.470700 10.236100 0.725127 41.014200
-85.543700 10.290200 0.461158 41.014200
-85.616700 10.344400 0.117352 41.014200
-85.689700 10.398600 0.000000 41.014200
-85.762700 10.452700 0.132157 41.014200
-85.835700 10.506900 0.230732 41.014200
-84.773700 9.800800 0.714098 44.395200
-84.846800 9.854900 0.463839 44.395200
-84.919800 9.909100 0.320234 44.395200
-84.992800 9.963200 0.357480 44.395200
-85.065800 10.017400 0.352748 44.395200
-85.138800 10.071500 0.199807 44.395200
-85.211800 10.125700 0.162997 44.395200
-85.284800 10.179900 0.225632 44.395200
-85.357800 10.234000 0.315745 44.395200
-85.430800 10.288200 0.502951 44.395200
-85.503800 10.342300 0.291240 44.395200
-85.576800 10.396500 0.000000 44.395200
-85.649800 10.450700 0.000976 44.395200
-85.722800 10.504800 0.116848 44.395200
-85.795800 10.559000 0.095826 44.395200
-84.733900 9.852900 0.745913 47.776100
-84.806900 9.907000 0.665494 47.776100
-84.879900 9.961200 0.553480 47.776100
-84.952900 10.015300 0.496599 47.776100
-85.025900 10.069500 0.375384 47.776100
-85.098900 10.123700 0.276051 47.776100
-85.171900 10.177800 0.191460 47.776100
-85.244900 10.232000 0.138385 47.776100
-85.317900 10.286100 0.204395 47.776100
-85.390900 10.340300 0.159264 47.776100
-85.463900 10.394500 0.048220 47.776100
-85.536900 10.448600 0.012016 47.776100
-85.609900 10.502800 0.089728 47.776100
-85.682900 10.556900 0.170694 47.776100
-85.755900 10.611100 0.070989 47.776100
-84.694000 9.905000 0.474991 51.157100
-84.767000 9.959100 0.454464 51.157100
-84.840000 10.013300 0.375914 51.157100
-84.913000 10.067400 0.345690 51.157100
-84.986000 10.121600 0.298430 51.157100
-85.059000 10.175800 0.217877 51.157100
-85.132000 10.229900 0.194404 51.157100
-85.205000 10.284100 0.110381 51.157100
-85.278000 10.338200 0.120228 51.157100
-85.351000 10.392400 0.076883 51.157100
-85.424000 10.446600 0.019313 51.157100
-85.497000 10.500700 0.032221 51.157100
-85.570000 10.554900 0.140104 51.157100
-85.643000 10.609000 0.248454 51.157100
-85.716000 10.663200 0.139165 51.157100
-84.654100 9.957100 0.474991 54.538000
-84.727100 10.011200 0.454464 54.538000
-84.800100 10.065400 0.375914 54.538000
-84.873100 10.119600 0.345690 54.538000
-84.946100 10.173700 0.298430 54.538000
-85.019100 10.227900 0.217877 54.538000
-85.092100 10.282000 0.132231 54.538000
-85.165100 10.336200 0.045902 54.538000
-85.238100 10.390400 0.019708 54.538000
-85.311100 10.444500 0.024666 54.538000
-85.384100 10.498700 0.000000 54.538000
-85.457100 10.552800 0.022939 54.538000
-85.530100 10.607000 0.149577 54.538000
-85.603100 10.661100 0.280607 54.538000
-85.676100 10.715300 0.253623 54.538000
-84.614200 10.009200 0.474991 57.919000
-84.687200 10.063400 0.454464 57.919000
-84.760200 10.117500 0.375914 57.919000
-84.833200 10.171700 0.345690 57.919000
-84.906200 10.225800 0.298430 57.919000
-84.979200 10.280000 0.217877 57.919000
-85.052200 10.334100 0.096624 57.919000
-85.125200 10.388300 0.045902 57.919000
-85.198200 10.442500 0.019708 57.919000
-85.271200 10.496600 0.004306 57.919000
-85.344200 10.550800 0.000000 57.919000
-85.417200 10.604900 0.009905 57.919000
-85.490200 10.659100 0.059002 57.919000
-85.563200 10.713300 0.236850 57.919000
-85.636200 10.767400 0.320369 57.919000
