-85.497500 9.175100 0.019540 4.028000
-85.552200 9.215700 0.026775 4.028000
-85.606900 9.256300 0.037612 4.028000
-85.661600 9.296900 0.037535 4.028000
-85.716300 9.337600 0.053112 4.028000
-85.771000 9.378200 0.010413 4.028000
-85.825700 9.418800 0.000231 4.028000
-85.880400 9.459400 0.000000 4.028000
-85.935100 9.500000 0.014425 4.028000
-85.989800 9.540700 0.038888 4.028000
-86.044500 9.581300 0.054087 4.028000
-86.099200 9.621900 0.064599 4.028000
-86.153900 9.662500 0.063158 4.028000
-86.208600 9.703100 0.062727 4.028000
-86.263300 9.743800 0.075652 4.028000
-86.318000 9.784400 0.089804 4.028000
-86.372700 9.825000 0.129494 4.028000
-85.456800 9.228300 0.044002 5.201300
-85.511500 9.268900 0.058397 5.201300
-85.566200 9.309600 0.135008 5.201300
-85.620900 9.350200 0.125008 5.201300
-85.675600 9.390800 0.096629 5.201300
-85.730300 9.431400 0.025215 5.201300
-85.785000 9.472000 0.003916 5.201300
-85.839700 9.512700 0.000000 5.201300
-85.894400 9.553300 0.025475 5.201300
-85.949100 9.593900 0.081965 5.201300
-86.003800 9.634500 0.111366 5.201300
-86.058500 9.675100 0.122672 5.201300
-86.113200 9.715800 0.113617 5.201300
-86.167900 9.756400 0.110641 5.201300
-86.222600 9.797000 0.075652 5.201300
-86.277200 9.837600 0.108008 5.201300
-86.331900 9.878200 0.129494 5.201300
-85.416100 9.281600 0.076831 6.374500
-85.470800 9.322200 0.176079 6.374500
-85.525500 9.362800 0.199318 6.374500
-85.580200 9.403400 0.192762 6.374500
-85.634900 9.444000 0.156615 6.374500
-85.689600 9.484700 0.055054 6.374500
-85.744300 9.525300 0.016678 6.374500
-85.799000 9.565900 0.004667 6.374500
-85.853700 9.606500 0.049010 6.374500
-85.908400 9.647100 0.135851 6.374500
-85.963100 9.687800 0.178403 6.374500
-86.017800 9.728400 0.173321 6.374500
-86.072500 9.769000 0.146331 6.374500
-86.127100 9.809600 0.123247 6.374500
-86.181800 9.850200 0.125236 6.374500
-86.236500 9.890900 0.182359 6.374500
-86.291200 9.931500 0.221655 6.374500
-85.375400 9.334800 0.168276 7.547800
-85.430100 9.375400 0.236201 7.547800
-85.484800 9.416000 0.268538 7.547800
-85.539500 9.456700 0.269075 7.547800
-85.594200 9.497300 0.227722 7.547800
-85.648900 9.537900 0.103696 7.547800
-85.703600 9.578500 0.051049 7.547800
-85.758300 9.619100 0.030919 7.547800
-85.813000 9.659800 0.203818 7.547800
-85.867700 9.700400 0.320038 7.547800
-85.922400 9.741000 0.268518 7.547800
-85.977100 9.781600 0.224179 7.547800
-86.031700 9.822200 0.125965 7.547800
-86.086400 9.862900 0.110590 7.547800
-86.141100 9.903500 0.166109 7.547800
-86.195800 9.944100 0.206202 7.547800
-86.250500 9.984700 0.317822 7.547800
-85.335100 9.388200 0.220475 8.660000
-85.389800 9.428800 0.291424 8.660000
-85.444500 9.469400 0.332646 8.660000
-85.499100 9.510100 0.341864 8.660000
-85.553800 9.550700 0.233134 8.660000
-85.608500 9.591300 0.166159 8.660000
-85.663200 9.631900 0.077976 8.660000
-85.717900 9.672500 0.087111 8.660000
-85.772600 9.713100 0.295361 8.660000
-85.827300 9.753800 0.441732 8.660000
-85.882000 9.794400 0.364277 8.660000
-85.936700 9.835000 0.279434 8.660000
-85.991400 9.875600 0.120170 8.660000
-86.046100 9.916200 0.092300 8.660000
-86.100800 9.956900 0.141585 8.660000
-86.155500 9.997500 0.178838 8.660000
-86.210200 10.038100 0.298487 8.660000
-85.294600 9.441100 0.268375 10.107000
-85.349300 9.481700 0.329862 10.107000
-85.404000 9.522300 0.407538 10.107000
-85.458700 9.563000 0.398181 10.107000
-85.513400 9.603600 0.286665 10.107000
-85.568100 9.644200 0.226413 10.107000
-85.622800 9.684800 0.160044 10.107000
-85.677500 9.725400 0.172337 10.107000
-85.732200 9.766100 0.384566 10.107000
-85.786900 9.806700 0.544911 10.107000
-85.841600 9.847300 0.466218 10.107000
-85.896300 9.887900 0.207523 10.107000
-85.951000 9.928500 0.131595 10.107000
-86.005700 9.969100 0.098412 10.107000
-86.060400 10.009800 0.058018 10.107000
-86.115100 10.050400 0.154990 10.107000
-86.169700 10.091000 0.220289 10.107000
-85.254500 9.493300 0.302966 11.904000
-85.309200 9.533900 0.337654 11.904000
-85.363900 9.574500 0.433195 11.904000
-85.418600 9.615100 0.430193 11.904000
-85.473300 9.655800 0.319231 11.904000
-85.528000 9.696400 0.275997 11.904000
-85.582700 9.737000 0.252837 11.904000
-85.637400 9.777600 0.349863 11.904000
-85.692100 9.818200 0.465814 11.904000
-85.746800 9.858900 0.648478 11.904000
-85.801500 9.899500 0.543447 11.904000
-85.856200 9.940100 0.249368 11.904000
-85.910900 9.980700 0.185589 11.904000
-85.965600 10.021300 0.115107 11.904000
-86.020300 10.062000 0.057427 11.904000
-86.075000 10.102600 0.063989 11.904000
-86.129700 10.143200 0.115493 11.904000
-85.215300 9.544800 0.279729 14.142000
-85.270000 9.585400 0.306325 14.142000
-85.324600 9.626000 0.428789 14.142000
-85.379300 9.666600 0.440545 14.142000
-85.434000 9.707300 0.339741 14.142000
-85.488700 9.747900 0.319516 14.142000
-85.543400 9.788500 0.339902 14.142000
-85.598100 9.829100 0.498264 14.142000
-85.652800 9.869700 0.585907 14.142000
-85.707500 9.910400 0.656954 14.142000
-85.762200 9.951000 0.569908 14.142000
-85.816900 9.991600 0.331331 14.142000
-85.871600 10.032200 0.292965 14.142000
-85.926300 10.072800 0.191130 14.142000
-85.981000 10.113500 0.096716 14.142000
-86.035700 10.154100 0.000755 14.142000
-86.090400 10.194700 0.031421 14.142000
-85.176800 9.595100 0.220393 16.815000
-85.231500 9.635800 0.277839 16.815000
-85.286200 9.676400 0.370849 16.815000
-85.340900 9.717000 0.432216 16.815000
-85.395600 9.757600 0.364612 16.815000
-85.450300 9.798200 0.365665 16.815000
-85.505000 9.838900 0.425508 16.815000
-85.559700 9.879500 0.679957 16.815000
-85.614400 9.920100 0.811061 16.815000
-85.669100 9.960700 0.779112 16.815000
-85.723800 10.001300 0.519702 16.815000
-85.778500 10.041900 0.453277 16.815000
-85.833200 10.082600 0.344815 16.815000
-85.887900 10.123200 0.253649 16.815000
-85.942500 10.163800 0.019761 16.815000
-85.997200 10.204400 0.000000 16.815000
-86.051900 10.245000 0.011703 16.815000
-85.138900 9.644800 0.266087 19.718000
-85.193600 9.685400 0.284419 19.718000
-85.248200 9.726100 0.357823 19.718000
-85.302900 9.766700 0.390540 19.718000
-85.357600 9.807300 0.394105 19.718000
-85.412300 9.847900 0.437372 19.718000
-85.467000 9.888500 0.574126 19.718000
-85.521700 9.929100 0.869867 19.718000
-85.576400 9.969800 0.994229 19.718000
-85.631100 10.010400 0.960897 19.718000
-85.685800 10.051000 0.656922 19.718000
-85.740500 10.091600 0.558835 19.718000
-85.795200 10.132200 0.350965 19.718000
-85.849900 10.172900 0.257893 19.718000
-85.904600 10.213500 0.060306 19.718000
-85.959300 10.254100 0.032454 19.718000
-86.014000 10.294700 0.180982 19.718000
-85.101900 9.693100 0.349324 23.063000
-85.156600 9.733700 0.328470 23.063000
-85.211300 9.774300 0.353018 23.063000
-85.266000 9.814900 0.310985 23.063000
-85.320700 9.855600 0.319445 23.063000
-85.375400 9.896200 0.620840 23.063000
-85.430100 9.936800 0.919890 23.063000
-85.484800 9.977400 0.948504 23.063000
-85.539500 10.018000 0.997269 23.063000
-85.594200 10.058700 1.000163 23.063000
-85.648900 10.099300 0.795789 23.063000
-85.703600 10.139900 0.492728 23.063000
-85.758300 10.180500 0.349329 23.063000
-85.813000 10.221100 0.244422 23.063000
-85.867700 10.261700 0.125293 23.063000
-85.922400 10.302400 0.135300 23.063000
-85.977100 10.343000 0.345050 23.063000
-85.065800 9.740200 0.390999 26.689000
-85.120500 9.780800 0.367707 26.689000
-85.175200 9.821400 0.355032 26.689000
-85.229900 9.862000 0.271429 26.689000
-85.284600 9.902700 0.264114 26.689000
-85.339300 9.943300 0.517780 26.689000
-85.394000 9.983900 0.945783 26.689000
-85.448700 10.024500 0.945783 26.689000
-85.503400 10.065100 0.956590 26.689000
-85.558100 10.105800 0.961970 26.689000
-85.612800 10.146400 0.900449 26.689000
-85.667500 10.187000 0.555044 26.689000
-85.722200 10.227600 0.369518 26.689000
-85.776900 10.268200 0.176146 26.689000
-85.831600 10.308900 0.183293 26.689000
-85.886200 10.349500 0.364370 26.689000
-85.940900 10.390100 0.491880 26.689000
-85.030100 9.786900 0.356416 30.439000
-85.084800 9.827500 0.387733 30.439000
-85.139500 9.868100 0.377375 30.439000
-85.194200 9.908700 0.272768 30.439000
-85.248900 9.949300 0.240649 30.439000
-85.303600 9.990000 0.330737 30.439000
-85.358300 10.030600 0.825512 30.439000
-85.413000 10.071200 0.912198 30.439000
-85.467700 10.111800 0.945783 30.439000
-85.522400 10.152400 0.921500 30.439000
-85.577100 10.193100 0.922269 30.439000
-85.631800 10.233700 0.550556 30.439000
-85.686500 10.274300 0.338042 30.439000
-85.741200 10.314900 0.122287 30.439000
-85.795900 10.355500 0.143374 30.439000
-85.850600 10.396200 0.406743 30.439000
-85.905200 10.436800 0.506488 30.439000
-84.994400 9.833600 0.281205 34.189000
-85.049100 9.874200 0.387640 34.189000
-85.103800 9.914800 0.364825 34.189000
-85.158500 9.955400 0.286512 34.189000
-85.213200 9.996000 0.160894 34.189000
-85.267900 10.036700 0.184651 34.189000
-85.322600 10.077300 0.536111 34.189000
-85.377300 10.117900 0.646381 34.189000
-85.432000 10.158500 0.710331 34.189000
-85.486700 10.199100 0.725127 34.189000
-85.541400 10.239700 0.836609 34.189000
-85.596100 10.280400 0.433270 34.189000
-85.650800 10.321000 0.232750 34.189000
-85.705500 10.361600 0.046799 34.189000
-85.760200 10.402200 0.067547 34.189000
-85.814900 10.442800 0.322253 34.189000
-85.869600 10.483500 0.396979 34.189000
-84.958700 9.880200 0.238331 37.939000
-85.013400 9.920900 0.346631 37.939000
-85.068100 9.961500 0.349752 37.939000
-85.122800 10.002100 0.282458 37.939000
-85.177500 10.042700 0.150893 37.939000
-85.232200 10.083300 0.141452 37.939000
-85.286900 10.124000 0.191859 37.939000
-85.341600 10.164600 0.414866 37.939000
-85.396300 10.205200 0.477124 37.939000
-85.451000 10.245800 0.502951 37.939000
-85.505700 10.286400 0.630283 37.939000
-85.560400 10.327000 0.272878 37.939000
-85.615100 10.367700 0.024806 37.939000
-85.669800 10.408300 0.000000 37.939000
-85.724500 10.448900 0.075253 37.939000
-85.779200 10.489500 0.198014 37.939000
-85.833900 10.530100 0.217470 37.939000
