144.139500 40.004000 0.000758 1.739000
143.863600 40.054100 0.044738 5.218300
143.711400 40.079200 0.089071 7.000000
143.143600 40.179100 0.262434 15.600000
142.575900 40.279000 0.409229 26.000000
144.120800 39.545000 0.000389 1.739000
143.992200 39.106500 0.003134 1.739000
143.863600 38.668100 0.002816 1.739000
143.734900 38.229700 0.000852 1.739000
143.606300 37.791200 0.000000 1.739000
143.477700 37.352800 0.000000 1.739000
143.845000 39.595100 0.028318 5.218300
143.716300 39.156600 0.026103 5.218300
143.587700 38.718200 0.027134 5.218300
143.459100 38.279800 0.032939 5.218300
143.330400 37.841300 0.027512 5.218300
143.201800 37.402900 0.019393 5.218300
143.702000 39.620100 0.075666 7.000000
143.573400 39.181600 0.060470 7.000000
143.444800 38.743200 0.071550 7.000000
143.316100 38.304800 0.064828 7.000000
143.187500 37.866400 0.061542 7.000000
143.058900 37.427900 0.039759 7.000000
143.146800 39.720000 0.230025 15.600000
143.018100 39.281600 0.262524 15.600000
142.889500 38.843200 0.238821 15.600000
142.760900 38.404700 0.301801 15.600000
142.632200 37.966300 0.303248 15.600000
142.503600 37.527900 0.250631 15.600000
142.591600 39.819900 0.408236 26.000000
142.463000 39.381500 0.432853 26.000000
142.334300 38.943000 0.441550 26.000000
142.205700 38.504600 0.518488 26.000000
142.077100 38.066200 0.543106 26.000000
141.948400 37.627700 0.367518 26.000000
143.198300 36.941100 0.000446 1.739000
142.922400 36.991200 0.039812 5.218300
142.788100 37.016200 0.090089 7.000000
142.244200 37.116200 0.275646 15.600000
141.700400 37.216000 0.334870 26.000000
142.869300 36.536100 0.000000 1.739000
142.593400 36.586200 0.069146 5.218300
142.461400 36.611200 0.065576 7.000000
141.920400 36.711200 0.276444 15.600000
141.379500 36.811000 0.178044 26.000000
142.540400 36.131100 0.002103 1.739000
142.264500 36.181200 0.053917 5.218300
142.134500 36.206300 0.082692 7.000000
141.596400 36.306200 0.291833 15.600000
141.058300 36.406000 0.124049 26.000000
142.305400 35.711100 0.001276 1.739000
142.029500 35.761200 0.047935 5.218300
141.901800 35.786300 0.100082 7.000000
141.366500 35.886200 0.154463 15.600000
140.831300 35.986000 0.000000 26.000000
