143.758100 38.867700 0.022293 6.112000
143.734800 38.788800 0.022293 6.112000
143.711600 38.709900 0.012003 6.112000
143.688300 38.631000 0.012003 6.112000
143.665000 38.552000 0.006984 6.112000
143.641800 38.473100 0.018168 6.112000
143.618500 38.394200 0.018011 6.112000
143.595300 38.315300 0.018011 6.112000
143.572000 38.236400 0.018485 6.112000
143.548700 38.157500 0.018485 6.112000
143.525500 38.078500 0.017630 6.112000
143.502200 37.999600 0.012969 6.112000
143.478900 37.920700 0.012969 6.112000
143.455700 37.841800 0.011995 6.112000
143.659700 38.885500 0.027476 8.060000
143.636500 38.806600 0.033128 8.060000
143.613200 38.727700 0.027134 8.060000
143.589900 38.648800 0.040912 8.060000
143.566700 38.569800 0.035694 8.060000
143.543400 38.490900 0.035694 8.060000
143.520100 38.412000 0.031606 8.060000
143.496900 38.333100 0.031606 8.060000
143.473600 38.254200 0.032939 8.060000
143.450300 38.175200 0.055304 8.060000
143.427100 38.096300 0.034513 8.060000
143.403800 38.017400 0.027953 8.060000
143.380600 37.938500 0.035359 8.060000
143.357300 37.859600 0.027512 8.060000
143.561300 38.903300 0.053771 10.007900
143.538100 38.824400 0.058361 10.007900
143.514800 38.745500 0.058361 10.007900
143.491600 38.666500 0.066069 10.007900
143.468300 38.587600 0.035694 10.007900
143.445000 38.508700 0.054969 10.007900
143.421800 38.429800 0.049944 10.007900
143.398500 38.350900 0.064828 10.007900
143.375200 38.271900 0.055304 10.007900
143.352000 38.193000 0.065130 10.007900
143.328700 38.114100 0.057758 10.007900
143.305400 38.035200 0.080910 10.007900
143.282200 37.956300 0.058747 10.007900
143.258900 37.877400 0.058747 10.007900
143.463000 38.921100 0.066379 11.955900
143.439700 38.842200 0.066379 11.955900
143.416400 38.763200 0.071550 11.955900
143.393200 38.684300 0.066069 11.955900
143.369900 38.605400 0.084151 11.955900
143.346600 38.526500 0.082932 11.955900
143.323400 38.447600 0.110252 11.955900
143.300100 38.368700 0.097661 11.955900
143.276900 38.289700 0.107757 11.955900
143.253600 38.210800 0.093977 11.955900
143.230300 38.131900 0.080910 11.955900
143.207100 38.053000 0.081182 11.955900
143.183800 37.974100 0.081182 11.955900
143.160500 37.895100 0.061542 11.955900
143.364600 38.938900 0.098532 13.903800
143.341300 38.859900 0.115310 13.903800
143.318100 38.781000 0.099136 13.903800
143.294800 38.702100 0.104445 13.903800
143.271500 38.623200 0.104445 13.903800
143.248300 38.544300 0.110252 13.903800
143.225000 38.465400 0.114857 13.903800
143.201700 38.386400 0.114857 13.903800
143.178500 38.307500 0.107757 13.903800
143.155200 38.228600 0.100962 13.903800
143.131900 38.149700 0.100962 13.903800
143.108700 38.070800 0.119542 13.903800
143.085400 37.991900 0.119542 13.903800
143.062200 37.912900 0.123070 13.903800
143.266200 38.956700 0.139829 15.851800
143.242900 38.877700 0.157137 15.851800
143.219700 38.798800 0.157137 15.851800
143.196400 38.719900 0.136504 15.851800
143.173100 38.641000 0.136504 15.851800
143.149900 38.562100 0.135330 15.851800
143.126600 38.483100 0.148427 15.851800
143.103400 38.404200 0.164304 15.851800
143.080100 38.325300 0.145508 15.851800
143.056800 38.246400 0.153251 15.851800
143.033600 38.167500 0.133314 15.851800
143.010300 38.088600 0.142499 15.851800
142.987000 38.009600 0.123070 15.851800
142.963800 37.930700 0.157442 15.851800
143.167800 38.974400 0.175263 17.799800
143.144600 38.895500 0.177316 17.799800
143.121300 38.816600 0.178042 17.799800
143.098000 38.737700 0.173985 17.799800
143.074800 38.658800 0.173985 17.799800
143.051500 38.579900 0.206772 17.799800
143.028200 38.500900 0.206772 17.799800
143.005000 38.422000 0.209068 17.799800
142.981700 38.343100 0.209068 17.799800
142.958500 38.264200 0.189912 17.799800
142.935200 38.185300 0.189912 17.799800
142.911900 38.106300 0.182560 17.799800
142.888700 38.027400 0.216484 17.799800
142.865400 37.948500 0.203966 17.799800
143.069400 38.992200 0.218017 19.747700
143.046200 38.913300 0.210154 19.747700
143.022900 38.834400 0.209798 19.747700
142.999700 38.755500 0.209798 19.747700
142.976400 38.676600 0.217751 19.747700
142.953100 38.597600 0.227824 19.747700
142.929900 38.518700 0.223275 19.747700
142.906600 38.439800 0.223275 19.747700
142.883300 38.360900 0.232901 19.747700
142.860100 38.282000 0.227108 19.747700
142.836800 38.203100 0.271998 19.747700
142.813500 38.124100 0.216484 19.747700
142.790300 38.045200 0.216484 19.747700
142.767000 37.966300 0.236793 19.747700
142.971100 39.010000 0.247375 21.695700
142.947800 38.931100 0.242715 21.695700
142.924500 38.852200 0.238821 21.695700
142.901300 38.773300 0.242462 21.695700
142.878000 38.694300 0.242462 21.695700
142.854700 38.615400 0.278094 21.695700
142.831500 38.536500 0.292480 21.695700
142.808200 38.457600 0.260299 21.695700
142.785000 38.378700 0.262707 21.695700
142.761700 38.299800 0.311954 21.695700
142.738400 38.220800 0.271998 21.695700
142.715200 38.141900 0.271847 21.695700
142.691900 38.063000 0.326254 21.695700
142.668600 37.984100 0.303248 21.695700
142.872700 39.027800 0.291080 23.643600
142.849400 38.948900 0.271561 23.643600
142.826200 38.870000 0.267226 23.643600
142.802900 38.791100 0.280167 23.643600
142.779600 38.712100 0.280167 23.643600
142.756400 38.633200 0.293425 23.643600
142.733100 38.554300 0.297867 23.643600
142.709800 38.475400 0.320648 23.643600
142.686600 38.396500 0.320648 23.643600
142.663300 38.317500 0.311954 23.643600
142.640000 38.238600 0.370169 23.643600
142.616800 38.159700 0.367628 23.643600
142.593500 38.080800 0.331090 23.643600
142.570300 38.001900 0.331090 23.643600
142.774300 39.045600 0.310998 25.591600
142.751000 38.966700 0.304141 25.591600
142.727800 38.887800 0.288983 25.591600
142.704500 38.808800 0.288983 25.591600
142.681300 38.729900 0.337343 25.591600
142.658000 38.651000 0.337343 25.591600
142.634700 38.572100 0.341495 25.591600
142.611500 38.493200 0.377233 25.591600
142.588200 38.414300 0.377233 25.591600
142.564900 38.335300 0.421926 25.591600
142.541700 38.256400 0.370169 25.591600
142.518400 38.177500 0.367628 25.591600
142.495100 38.098600 0.390329 25.591600
142.471900 38.019700 0.390329 25.591600
142.675900 39.063400 0.347047 27.539500
142.652700 38.984500 0.331027 27.539500
142.629400 38.905500 0.329124 27.539500
142.606100 38.826600 0.366843 27.539500
142.582900 38.747700 0.371598 27.539500
142.559600 38.668800 0.371598 27.539500
142.536300 38.589900 0.379024 27.539500
142.513100 38.511000 0.379024 27.539500
142.489800 38.432000 0.423263 27.539500
142.466600 38.353100 0.421926 27.539500
142.443300 38.274200 0.461842 27.539500
142.420000 38.195300 0.457065 27.539500
142.396800 38.116400 0.408751 27.539500
142.373500 38.037500 0.399420 27.539500
142.577600 39.081200 0.356555 29.487500
142.554300 39.002300 0.356555 29.487500
142.531000 38.923300 0.366843 29.487500
142.507800 38.844400 0.366843 29.487500
142.484500 38.765500 0.371598 29.487500
142.461200 38.686600 0.415291 29.487500
142.438000 38.607700 0.423376 29.487500
142.414700 38.528700 0.461311 29.487500
142.391400 38.449800 0.464009 29.487500
142.368200 38.370900 0.498684 29.487500
142.344900 38.292000 0.499764 29.487500
142.321600 38.213100 0.501777 29.487500
142.298400 38.134200 0.501777 29.487500
142.275100 38.055200 0.455711 29.487500
142.479200 39.099000 0.420006 31.435500
142.455900 39.020000 0.398739 31.435500
142.432600 38.941100 0.412018 31.435500
142.409400 38.862200 0.406771 31.435500
142.386100 38.783300 0.434388 31.435500
142.362900 38.704400 0.442452 31.435500
142.339600 38.625500 0.496036 31.435500
142.316300 38.546500 0.496036 31.435500
142.293100 38.467600 0.518488 31.435500
142.269800 38.388700 0.498684 31.435500
142.246500 38.309800 0.524486 31.435500
142.223300 38.230900 0.524486 31.435500
142.200000 38.151900 0.499812 31.435500
142.176700 38.073000 0.499812 31.435500
