144.763600 42.152500 0.600234 23.300000
144.671100 42.094700 0.587404 23.300000
144.578700 42.036800 0.562584 23.300000
144.486200 41.979000 0.613232 23.300000
144.393800 41.921100 0.584987 23.300000
144.301300 41.863300 0.570689 23.300000
144.208900 41.805500 0.616694 23.300000
144.116400 41.747600 0.534190 23.300000
144.024000 41.689800 0.508651 23.300000
143.931600 41.631900 0.462548 23.300000
143.839100 41.574100 0.510747 23.300000
143.746700 41.516200 0.469939 23.300000
144.690700 42.217300 0.622254 26.720200
144.598200 42.159500 0.625362 26.720200
144.505800 42.101600 0.638521 26.720200
144.413300 42.043800 0.617218 26.720200
144.320900 41.985900 0.648871 26.720200
144.228400 41.928100 0.648040 26.720200
144.136000 41.870200 0.616694 26.720200
144.043600 41.812400 0.599848 26.720200
143.951100 41.754500 0.508651 26.720200
143.858700 41.696700 0.543256 26.720200
143.766200 41.638900 0.519691 26.720200
143.673800 41.581000 0.469939 26.720200
144.617800 42.282100 0.634574 30.140400
144.525300 42.224200 0.634937 30.140400
144.432900 42.166400 0.654015 30.140400
144.340400 42.108600 0.660664 30.140400
144.248000 42.050700 0.663595 30.140400
144.155600 41.992900 0.648040 30.140400
144.063100 41.935000 0.673638 30.140400
143.970700 41.877200 0.646037 30.140400
143.878200 41.819300 0.633951 30.140400
143.785800 41.761500 0.614149 30.140400
143.693300 41.703600 0.580502 30.140400
143.600900 41.645800 0.590343 30.140400
144.544900 42.346900 0.579873 33.560600
144.452400 42.289000 0.593331 33.560600
144.360000 42.231200 0.598566 33.560600
144.267600 42.173300 0.639020 33.560600
144.175100 42.115500 0.672975 33.560600
144.082700 42.057600 0.671724 33.560600
143.990200 41.999800 0.673638 33.560600
143.897800 41.942000 0.687349 33.560600
143.805300 41.884100 0.662290 33.560600
143.712900 41.826300 0.651306 33.560600
143.620400 41.768400 0.666501 33.560600
143.528000 41.710600 0.626879 33.560600
144.472000 42.411700 0.502741 36.980800
144.379600 42.353800 0.540742 36.980800
144.287100 42.296000 0.598566 36.980800
144.194700 42.238100 0.639020 36.980800
144.102200 42.180300 0.644646 36.980800
144.009800 42.122400 0.679658 36.980800
143.917300 42.064600 0.679658 36.980800
143.824900 42.006700 0.679445 36.980800
143.732400 41.948900 0.679445 36.980800
143.640000 41.891000 0.666501 36.980800
143.547500 41.833200 0.666501 36.980800
143.455100 41.775300 0.655597 36.980800
144.399100 42.476400 0.380621 40.401000
144.306700 42.418600 0.487138 40.401000
144.214200 42.360700 0.536291 40.401000
144.121800 42.302900 0.511925 40.401000
144.029300 42.245100 0.585070 40.401000
143.936900 42.187200 0.593230 40.401000
143.844400 42.129400 0.647741 40.401000
143.752000 42.071500 0.667591 40.401000
143.659500 42.013700 0.657361 40.401000
143.567100 41.955800 0.662205 40.401000
143.474600 41.898000 0.649053 40.401000
143.382200 41.840100 0.656462 40.401000
144.326200 42.541200 0.325685 43.821200
144.233800 42.483400 0.393336 43.821200
144.141300 42.425500 0.361373 43.821200
144.048900 42.367700 0.417685 43.821200
143.956400 42.309800 0.593230 43.821200
143.864000 42.252000 0.593230 43.821200
143.771500 42.194100 0.643517 43.821200
143.679100 42.136300 0.593211 43.821200
143.586600 42.078400 0.631181 43.821200
143.494200 42.020600 0.631713 43.821200
143.401700 41.962800 0.645615 43.821200
143.309300 41.904900 0.655545 43.821200
144.253300 42.606000 0.241080 47.241400
144.160900 42.548200 0.220619 47.241400
144.068400 42.490300 0.303819 47.241400
143.976000 42.432500 0.368864 47.241400
143.883500 42.374600 0.404937 47.241400
143.791100 42.316800 0.498495 47.241400
143.698600 42.258900 0.526911 47.241400
143.606200 42.201100 0.598197 47.241400
143.513700 42.143200 0.554714 47.241400
143.421300 42.085400 0.608201 47.241400
143.328800 42.027500 0.620098 47.241400
143.236400 41.969700 0.641792 47.241400
