144.530800 39.565300 0.000014 7.371600
144.442400 39.351300 0.000014 7.371600
144.354100 39.137300 0.000000 7.371600
144.265700 38.923400 0.000000 7.371600
144.177400 38.709400 0.000010 7.371600
144.089000 38.495400 0.000016 7.371600
144.000700 38.281500 0.000000 7.371600
143.912300 38.067500 0.000000 7.371600
143.824000 37.853500 0.000000 7.371600
143.735600 37.639500 0.000000 7.371600
143.647300 37.425600 0.000010 7.371600
143.558900 37.211600 0.000000 7.371600
143.470600 36.997600 0.000038 7.371600
143.382200 36.783700 0.000013 7.371600
143.293900 36.569700 0.000017 7.371600
143.205600 36.355700 0.000000 7.371600
143.117200 36.141800 0.000002 7.371600
143.028900 35.927800 0.000012 7.371600
142.940500 35.713800 0.000002 7.371600
144.316500 39.620100 0.000027 10.844600
144.228200 39.406100 0.000014 10.844600
144.139800 39.192100 0.000296 10.844600
144.051500 38.978100 0.000000 10.844600
143.963200 38.764200 0.000010 10.844600
143.874800 38.550200 0.000373 10.844600
143.786500 38.336200 0.003006 10.844600
143.698100 38.122300 0.000000 10.844600
143.609800 37.908300 0.000632 10.844600
143.521400 37.694300 0.006111 10.844600
143.433100 37.480400 0.000466 10.844600
143.344700 37.266400 0.000430 10.844600
143.256400 37.052400 0.000280 10.844600
143.168000 36.838400 0.000013 10.844600
143.079700 36.624500 0.000000 10.844600
142.991300 36.410500 0.000000 10.844600
142.903000 36.196500 0.000022 10.844600
142.814600 35.982600 0.000012 10.844600
142.726300 35.768600 0.000002 10.844600
144.102300 39.674800 0.001008 14.317500
144.014000 39.460900 0.004633 14.317500
143.925600 39.246900 0.005609 14.317500
143.837300 39.032900 0.005861 14.317500
143.748900 38.818900 0.022293 14.317500
143.660600 38.605000 0.006520 14.317500
143.572200 38.391000 0.018011 14.317500
143.483900 38.177000 0.032939 14.317500
143.395500 37.963100 0.027953 14.317500
143.307200 37.749100 0.037992 14.317500
143.218900 37.535100 0.033598 14.317500
143.130500 37.321200 0.019393 14.317500
143.042200 37.107200 0.028915 14.317500
142.953800 36.893200 0.011768 14.317500
142.865500 36.679200 0.009245 14.317500
142.777100 36.465300 0.000776 14.317500
142.688800 36.251300 0.000022 14.317500
142.600400 36.037300 0.000022 14.317500
142.512100 35.823400 0.000029 14.317500
143.888100 39.729600 0.028203 17.790500
143.799800 39.515600 0.033591 17.790500
143.711400 39.301700 0.051310 17.790500
143.623100 39.087700 0.050481 17.790500
143.534700 38.873700 0.066379 17.790500
143.446400 38.659800 0.066069 17.790500
143.358000 38.445800 0.054969 17.790500
143.269700 38.231800 0.093977 17.790500
143.181300 38.017800 0.081182 17.790500
143.093000 37.803900 0.099459 17.790500
143.004600 37.589900 0.087011 17.790500
142.916300 37.375900 0.075822 17.790500
142.827900 37.162000 0.072869 17.790500
142.739600 36.948000 0.049458 17.790500
142.651200 36.734000 0.054691 17.790500
142.562900 36.520000 0.045018 17.790500
142.474600 36.306100 0.015705 17.790500
142.386200 36.092100 0.033286 17.790500
142.297900 35.878100 0.018489 17.790500
143.673900 39.784400 0.067782 21.263500
143.585500 39.570400 0.101152 21.263500
143.497200 39.356400 0.091129 21.263500
143.408800 39.142500 0.103760 21.263500
143.320500 38.928500 0.098532 21.263500
143.232100 38.714500 0.104445 21.263500
143.143800 38.500600 0.158852 21.263500
143.055500 38.286600 0.145508 21.263500
142.967100 38.072600 0.182560 21.263500
142.878800 37.858600 0.150447 21.263500
142.790400 37.644700 0.181301 21.263500
142.702100 37.430700 0.134727 21.263500
142.613700 37.216700 0.146486 21.263500
142.525400 37.002800 0.135323 21.263500
142.437000 36.788800 0.162549 21.263500
142.348700 36.574800 0.098139 21.263500
142.260300 36.360800 0.074830 21.263500
142.172000 36.146900 0.070610 21.263500
142.083600 35.932900 0.071789 21.263500
143.459700 39.839200 0.131465 24.736400
143.371300 39.625200 0.152330 24.736400
143.283000 39.411200 0.171451 24.736400
143.194600 39.197200 0.164847 24.736400
143.106300 38.983300 0.175263 24.736400
143.017900 38.769300 0.209798 24.736400
142.929600 38.555300 0.227824 24.736400
142.841200 38.341400 0.262707 24.736400
142.752900 38.127400 0.271847 24.736400
142.664500 37.913400 0.236793 24.736400
142.576200 37.699400 0.241647 24.736400
142.487900 37.485500 0.245206 24.736400
142.399500 37.271500 0.256871 24.736400
142.311200 37.057500 0.243269 24.736400
142.222800 36.843600 0.220374 24.736400
142.134500 36.629600 0.187361 24.736400
142.046100 36.415600 0.180430 24.736400
141.957800 36.201700 0.163433 24.736400
141.869400 35.987700 0.140518 24.736400
143.245400 39.893900 0.198176 28.209400
143.157100 39.680000 0.230025 28.209400
143.068800 39.466000 0.244584 28.209400
142.980400 39.252000 0.262524 28.209400
142.892100 39.038000 0.247375 28.209400
142.803700 38.824100 0.288983 28.209400
142.715400 38.610100 0.297867 28.209400
142.627000 38.396100 0.320648 28.209400
142.538700 38.182200 0.367628 28.209400
142.450300 37.968200 0.369727 28.209400
142.362000 37.754200 0.301400 28.209400
142.273600 37.540200 0.312056 28.209400
142.185300 37.326300 0.326745 28.209400
142.096900 37.112300 0.290518 28.209400
142.008600 36.898300 0.301933 28.209400
141.920200 36.684400 0.276444 28.209400
141.831900 36.470400 0.240928 28.209400
141.743600 36.256400 0.232301 28.209400
141.655200 36.042500 0.186273 28.209400
143.031200 39.948700 0.281770 31.682400
142.942900 39.734700 0.300885 31.682400
142.854500 39.520800 0.332342 31.682400
142.766200 39.306800 0.334191 31.682400
142.677800 39.092800 0.347047 31.682400
142.589500 38.878800 0.366843 31.682400
142.501100 38.664900 0.415291 31.682400
142.412800 38.450900 0.464009 31.682400
142.324500 38.236900 0.457065 31.682400
142.236100 38.023000 0.455711 31.682400
142.147800 37.809000 0.390856 31.682400
142.059400 37.595000 0.365192 31.682400
141.971100 37.381100 0.362868 31.682400
141.882700 37.167100 0.356880 31.682400
141.794400 36.953100 0.313297 31.682400
141.706000 36.739100 0.274348 31.682400
141.617700 36.525200 0.277724 31.682400
141.529300 36.311200 0.294137 31.682400
141.441000 36.097200 0.239514 31.682400
142.817000 40.003500 0.367151 35.155300
142.728700 39.789500 0.384725 35.155300
142.640300 39.575500 0.397039 35.155300
142.552000 39.361600 0.401007 35.155300
142.463600 39.147600 0.420404 35.155300
142.375300 38.933600 0.412018 35.155300
142.286900 38.719600 0.479227 35.155300
142.198600 38.505700 0.518488 35.155300
142.110200 38.291700 0.566231 35.155300
142.021900 38.077700 0.525685 35.155300
141.933500 37.863800 0.387605 35.155300
141.845200 37.649800 0.343068 35.155300
141.756800 37.435800 0.359860 35.155300
141.668500 37.221900 0.334870 35.155300
141.580200 37.007900 0.278689 35.155300
141.491800 36.793900 0.245647 35.155300
141.403500 36.579900 0.253400 35.155300
141.315100 36.366000 0.277539 35.155300
141.226800 36.152000 0.218451 35.155300
142.602800 40.058200 0.410393 38.628300
142.514400 39.844300 0.424119 38.628300
142.426100 39.630300 0.440642 38.628300
142.337800 39.416300 0.447849 38.628300
142.249400 39.202400 0.463737 38.628300
142.161100 38.988400 0.445902 38.628300
142.072700 38.774400 0.493571 38.628300
141.984400 38.560500 0.545164 38.628300
141.896000 38.346500 0.602563 38.628300
141.807700 38.132500 0.538947 38.628300
141.719300 37.918500 0.353424 38.628300
141.631000 37.704600 0.269861 38.628300
141.542600 37.490600 0.306953 38.628300
141.454300 37.276600 0.226943 38.628300
141.365900 37.062700 0.163678 38.628300
141.277600 36.848700 0.143679 38.628300
141.189200 36.634700 0.161761 38.628300
141.100900 36.420700 0.124049 38.628300
141.012500 36.206800 0.140550 38.628300
