144.403100 38.505000 0.863353 9.776082
144.274500 38.254700 0.879119 9.777456
144.146000 38.004300 0.891732 9.861019
144.017500 37.754000 0.907499 10.260003
143.888900 37.503700 0.924420 10.764030
143.760400 37.253400 0.935878 11.204245
143.631900 37.003100 0.916556 11.674072
143.503300 36.752700 0.896056 12.030392
143.374800 36.502400 0.906112 12.569983
143.246300 36.252100 0.916169 13.039475
143.117800 36.001800 0.926225 12.716955
142.989200 35.751500 0.935339 12.368556
142.860700 35.501200 0.945395 11.449015
142.732200 35.250800 0.955451 10.318028
144.092300 38.606600 0.867029 9.776082
143.963800 38.356200 0.903212 10.133895
143.835300 38.105900 0.939362 10.927073
143.706700 37.855600 0.970492 11.701375
143.578200 37.605300 0.971100 12.408056
143.449700 37.355000 0.943627 12.986288
143.321200 37.104600 0.887626 13.383638
143.192600 36.854300 0.831142 13.559531
143.064100 36.604000 0.828440 13.442853
142.935600 36.353700 0.825904 12.832312
142.807000 36.103400 0.854728 12.586594
142.678500 35.853000 0.878054 12.100394
142.550000 35.602700 0.887860 10.353068
142.421400 35.352400 0.898972 9.817271
143.780300 38.707300 0.761494 12.457830
143.651700 38.456900 0.848171 13.327722
143.523200 38.206600 0.916064 14.221679
143.394700 37.956300 0.963800 15.085618
143.266200 37.706000 0.962564 15.868275
143.137600 37.455700 0.926127 16.514244
143.009100 37.205300 0.872333 16.965189
142.880600 36.955000 0.792350 17.176802
142.752000 36.704700 0.717683 17.089830
142.623500 36.454400 0.634382 16.559843
142.495000 36.204100 0.513390 15.399330
142.366400 35.953700 0.351550 13.705230
142.237900 35.703400 0.299796 12.075060
142.109400 35.453100 0.423288 11.165467
143.465500 38.807300 0.682069 16.211980
143.337000 38.557000 0.786701 17.192422
143.208400 38.306700 0.889638 18.213561
143.079900 38.056400 0.938295 19.220241
142.951400 37.806100 0.934505 20.146956
142.822800 37.555700 0.891421 20.920571
142.694300 37.305400 0.817681 21.472639
142.565800 37.055100 0.732350 21.758223
142.437200 36.804800 0.669621 21.741148
142.308700 36.554500 0.583417 21.317272
142.180200 36.304100 0.467939 20.267769
142.051600 36.053800 0.309886 18.517773
141.923100 35.803500 0.212180 16.579109
141.794600 35.553200 0.000000 15.296968
143.159300 38.904300 0.543434 20.586205
143.030800 38.653900 0.676285 21.749653
142.902300 38.403600 0.833420 22.965245
142.773700 38.153300 0.892680 24.161128
142.645200 37.903000 0.894523 25.250504
142.516700 37.652700 0.847685 26.154437
142.388100 37.402300 0.745743 26.810516
142.259600 37.152000 0.654838 27.180692
142.131100 36.901700 0.575675 27.251272
142.002500 36.651400 0.502231 26.969085
141.874000 36.401100 0.413612 26.152609
141.745500 36.150700 0.231181 24.678652
141.617000 35.900400 0.028470 22.933727
141.488400 35.650100 0.000000 21.598945
142.857600 38.998800 0.419566 25.855736
142.729100 38.748500 0.576963 27.243581
142.600500 38.498200 0.740988 28.666512
142.472000 38.247900 0.835473 30.032943
142.343500 37.997600 0.850023 31.257711
142.214900 37.747200 0.798352 32.268297
142.086400 37.496900 0.699393 33.011138
141.957900 37.246600 0.594762 33.466046
141.829300 36.996300 0.491550 33.639331
141.700800 36.746000 0.424221 33.522501
141.572300 36.495600 0.339663 33.046869
141.443700 36.245300 0.152388 32.162520
141.315200 35.995000 0.003242 31.028016
141.186700 35.744700 0.000000 29.862035
142.564800 39.091900 0.256232 32.041185
142.436200 38.841600 0.433710 33.638179
142.307700 38.591300 0.621903 35.229904
142.179200 38.341000 0.734363 36.725807
142.050600 38.090600 0.772460 38.046543
141.922100 37.840300 0.735608 39.128936
141.793600 37.590000 0.645099 39.940338
141.665000 37.339700 0.546088 40.475626
141.536500 37.089400 0.411241 40.748400
141.408000 36.839000 0.338262 40.792066
141.279400 36.588700 0.260213 40.630239
141.150900 36.338400 0.068560 40.247128
141.022400 36.088100 0.000000 39.596003
140.893900 35.837800 0.000000 38.617287
142.271900 39.185000 0.090504 39.299746
142.143400 38.934700 0.269280 41.075201
142.014900 38.684400 0.427488 42.802290
141.886300 38.434100 0.539848 44.393758
141.757800 38.183700 0.610377 45.774949
141.629300 37.933400 0.631491 46.906938
141.500700 37.683100 0.583668 47.773460
141.372200 37.432800 0.498186 48.374132
141.243700 37.182500 0.390559 48.738637
141.115100 36.932100 0.291507 48.918618
140.986600 36.681800 0.204603 48.967173
140.858100 36.431500 0.039909 48.873921
140.729500 36.181200 0.000000 48.470139
140.601000 35.930900 0.000000 47.631364
