144.664500 40.460700 0.000010 5.774900
144.593000 40.242800 0.000000 5.774900
144.521500 40.024900 0.000038 5.774900
144.450000 39.807100 0.000000 5.774900
144.378500 39.589200 0.000014 5.774900
144.307000 39.371300 0.000014 5.774900
144.235500 39.153400 0.000000 5.774900
144.164000 38.935500 0.000000 5.774900
144.092500 38.717600 0.000010 5.774900
144.021100 38.499700 0.000000 5.774900
143.949600 38.281900 0.000000 5.774900
143.878100 38.064000 0.000000 5.774900
143.806600 37.846100 0.000029 5.774900
143.735100 37.628200 0.000000 5.774900
143.663600 37.410300 0.000010 5.774900
143.592100 37.192400 0.000000 5.774900
143.520600 36.974600 0.000038 5.774900
143.449100 36.756700 0.000000 5.774900
143.377600 36.538800 0.000017 5.774900
143.306100 36.320900 0.000000 5.774900
143.234700 36.103000 0.000002 5.774900
143.163200 35.885100 0.000022 5.774900
143.091700 35.667300 0.000022 5.774900
143.020200 35.449400 0.000017 5.774900
142.948700 35.231500 0.000021 5.774900
144.445700 40.504900 0.000010 9.320100
144.374200 40.287000 0.000000 9.320100
144.302700 40.069100 0.000038 9.320100
144.231200 39.851200 0.000000 9.320100
144.159800 39.633300 0.000389 9.320100
144.088300 39.415400 0.000498 9.320100
144.016800 39.197500 0.002598 9.320100
143.945300 38.979700 0.002826 9.320100
143.873800 38.761800 0.006624 9.320100
143.802300 38.543900 0.006520 9.320100
143.730800 38.326000 0.003006 9.320100
143.659300 38.108100 0.000672 9.320100
143.587800 37.890200 0.007824 9.320100
143.516300 37.672400 0.000658 9.320100
143.444800 37.454500 0.000466 9.320100
143.373400 37.236600 0.000028 9.320100
143.301900 37.018700 0.000280 9.320100
143.230400 36.800800 0.000013 9.320100
143.158900 36.582900 0.000000 9.320100
143.087400 36.365000 0.000000 9.320100
143.015900 36.147200 0.000002 9.320100
142.944400 35.929300 0.000012 9.320100
142.872900 35.711400 0.000002 9.320100
142.801400 35.493500 0.000017 9.320100
142.729900 35.275600 0.000021 9.320100
144.227000 40.549000 0.004342 12.865200
144.155500 40.331100 0.006483 12.865200
144.084000 40.113200 0.005920 12.865200
144.012500 39.895300 0.010072 12.865200
143.941000 39.677500 0.015685 12.865200
143.869500 39.459600 0.025870 12.865200
143.798000 39.241700 0.026396 12.865200
143.726500 39.023800 0.018558 12.865200
143.655000 38.805900 0.033128 12.865200
143.583600 38.588000 0.035694 12.865200
143.512100 38.370100 0.031606 12.865200
143.440600 38.152300 0.034513 12.865200
143.369100 37.934400 0.035359 12.865200
143.297600 37.716500 0.030257 12.865200
143.226100 37.498600 0.033598 12.865200
143.154600 37.280700 0.016788 12.865200
143.083100 37.062800 0.010324 12.865200
143.011600 36.845000 0.005833 12.865200
142.940100 36.627100 0.000950 12.865200
142.868600 36.409200 0.000002 12.865200
142.797200 36.191300 0.000022 12.865200
142.725700 35.973400 0.000022 12.865200
142.654200 35.755500 0.000002 12.865200
142.582700 35.537600 0.000008 12.865200
142.511200 35.319800 0.000021 12.865200
144.008200 40.593100 0.042638 16.410300
143.936700 40.375200 0.038261 16.410300
143.865200 40.157400 0.044738 16.410300
143.793800 39.939500 0.054987 16.410300
143.722300 39.721600 0.059926 16.410300
143.650800 39.503700 0.064018 16.410300
143.579300 39.285800 0.061634 16.410300
143.507800 39.067900 0.063039 16.410300
143.436300 38.850100 0.066379 16.410300
143.364800 38.632200 0.084151 16.410300
143.293300 38.414300 0.097661 16.410300
143.221800 38.196400 0.093977 16.410300
143.150300 37.978500 0.081182 16.410300
143.078800 37.760600 0.113668 16.410300
143.007400 37.542800 0.087011 16.410300
142.935900 37.324900 0.075822 16.410300
142.864400 37.107000 0.053148 16.410300
142.792900 36.889100 0.049458 16.410300
142.721400 36.671200 0.019170 16.410300
142.649900 36.453300 0.020028 16.410300
142.578400 36.235400 0.001161 16.410300
142.506900 36.017600 0.000022 16.410300
142.435400 35.799700 0.000029 16.410300
142.363900 35.581800 0.000008 16.410300
142.292400 35.363900 0.000021 16.410300
143.789500 40.637300 0.106633 19.955500
143.718000 40.419400 0.104380 19.955500
143.646500 40.201500 0.131116 19.955500
143.575000 39.983600 0.106033 19.955500
143.503500 39.765700 0.104607 19.955500
143.432000 39.547900 0.110959 19.955500
143.360500 39.330000 0.138195 19.955500
143.289000 39.112100 0.139616 19.955500
143.217600 38.894200 0.157137 19.955500
143.146100 38.676300 0.173985 19.955500
143.074600 38.458400 0.148427 19.955500
143.003100 38.240500 0.153251 19.955500
142.931600 38.022700 0.182560 19.955500
142.860100 37.804800 0.173529 19.955500
142.788600 37.586900 0.170885 19.955500
142.717100 37.369000 0.134727 19.955500
142.645600 37.151100 0.134450 19.955500
142.574100 36.933200 0.086395 19.955500
142.502600 36.715400 0.092649 19.955500
142.431200 36.497500 0.044041 19.955500
142.359700 36.279600 0.054010 19.955500
142.288200 36.061700 0.033836 19.955500
142.216700 35.843800 0.028466 19.955500
142.145200 35.625900 0.009466 19.955500
142.073700 35.408000 0.004398 19.955500
143.570700 40.681400 0.222724 23.500600
143.499200 40.463500 0.193479 23.500600
143.427700 40.245600 0.200740 23.500600
143.356300 40.027800 0.194254 23.500600
143.284800 39.809900 0.198176 23.500600
143.213300 39.592000 0.223194 23.500600
143.141800 39.374100 0.203207 23.500600
143.070300 39.156200 0.226069 23.500600
142.998800 38.938300 0.210154 23.500600
142.927300 38.720500 0.242462 23.500600
142.855800 38.502600 0.260299 23.500600
142.784300 38.284700 0.271998 23.500600
142.712800 38.066800 0.271847 23.500600
142.641300 37.848900 0.242396 23.500600
142.569900 37.631000 0.241647 23.500600
142.498400 37.413100 0.215645 23.500600
142.426900 37.195300 0.212084 23.500600
142.355400 36.977400 0.183332 23.500600
142.283900 36.759500 0.192343 23.500600
142.212400 36.541600 0.149977 23.500600
142.140900 36.323700 0.141862 23.500600
142.069400 36.105800 0.080907 23.500600
141.997900 35.888000 0.099826 23.500600
141.926400 35.670100 0.039944 23.500600
141.855000 35.452200 0.000000 23.500600
143.352000 40.725600 0.299837 27.045700
143.280500 40.507700 0.279353 27.045700
143.209000 40.289800 0.265714 27.045700
143.137500 40.071900 0.253838 27.045700
143.066000 39.854000 0.259348 27.045700
142.994500 39.636100 0.298934 27.045700
142.923000 39.418300 0.273357 27.045700
142.851500 39.200400 0.300108 27.045700
142.780100 38.982500 0.304141 27.045700
142.708600 38.764600 0.288983 27.045700
142.637100 38.546700 0.341495 27.045700
142.565600 38.328800 0.370169 27.045700
142.494100 38.110900 0.408751 27.045700
142.422600 37.893100 0.369727 27.045700
142.351100 37.675200 0.281289 27.045700
142.279600 37.457300 0.292904 27.045700
142.208100 37.239400 0.288185 27.045700
142.136600 37.021500 0.273946 27.045700
142.065100 36.803600 0.266497 27.045700
141.993700 36.585800 0.218178 27.045700
141.922200 36.367900 0.216970 27.045700
141.850700 36.150000 0.193073 27.045700
141.779200 35.932100 0.127287 27.045700
141.707700 35.714200 0.102679 27.045700
141.636200 35.496300 0.000000 27.045700
143.133200 40.769700 0.354628 30.590800
143.061700 40.551800 0.326459 30.590800
142.990300 40.333900 0.341679 30.590800
142.918800 40.116000 0.350359 30.590800
142.847300 39.898200 0.361733 30.590800
142.775800 39.680300 0.377232 30.590800
142.704300 39.462400 0.386105 30.590800
142.632800 39.244500 0.390142 30.590800
142.561300 39.026600 0.356555 30.590800
142.489800 38.808700 0.366843 30.590800
142.418300 38.590900 0.423376 30.590800
142.346800 38.373000 0.498684 30.590800
142.275300 38.155100 0.501777 30.590800
142.203900 37.937200 0.429434 30.590800
142.132400 37.719300 0.375713 30.590800
142.060900 37.501400 0.357434 30.590800
141.989400 37.283500 0.362868 30.590800
141.917900 37.065700 0.316202 30.590800
141.846400 36.847800 0.287194 30.590800
141.774900 36.629900 0.272896 30.590800
141.703400 36.412000 0.270995 30.590800
141.631900 36.194100 0.245450 30.590800
141.560400 35.976200 0.199588 30.590800
141.488900 35.758400 0.092954 30.590800
141.417500 35.540500 0.000000 30.590800
142.914500 40.813800 0.446296 34.136000
142.843000 40.596000 0.410626 34.136000
142.771500 40.378100 0.393696 34.136000
142.700000 40.160200 0.400254 34.136000
142.628500 39.942300 0.407146 34.136000
142.557000 39.724400 0.429405 34.136000
142.485500 39.506500 0.438627 34.136000
142.414100 39.288700 0.441869 34.136000
142.342600 39.070800 0.447267 34.136000
142.271100 38.852900 0.449836 34.136000
142.199600 38.635000 0.498852 34.136000
142.128100 38.417100 0.553731 34.136000
142.056600 38.199200 0.567679 34.136000
141.985100 37.981300 0.483396 34.136000
141.913600 37.763500 0.367133 34.136000
141.842100 37.545600 0.361737 34.136000
141.770600 37.327700 0.370536 34.136000
141.699100 37.109800 0.310812 34.136000
141.627700 36.891900 0.278689 34.136000
141.556200 36.674000 0.261607 34.136000
141.484700 36.456200 0.283540 34.136000
141.413200 36.238300 0.257864 34.136000
141.341700 36.020400 0.195108 34.136000
141.270200 35.802500 0.120809 34.136000
141.198700 35.584600 0.000000 34.136000
142.695700 40.858000 0.461104 37.681100
142.624200 40.640100 0.438617 37.681100
142.552800 40.422200 0.409695 37.681100
142.481300 40.204300 0.403134 37.681100
142.409800 39.986400 0.402369 37.681100
142.338300 39.768600 0.425119 37.681100
142.266800 39.550700 0.424860 37.681100
142.195300 39.332800 0.463498 37.681100
142.123800 39.114900 0.451316 37.681100
142.052300 38.897000 0.454790 37.681100
141.980800 38.679100 0.523320 37.681100
141.909300 38.461300 0.587432 37.681100
141.837900 38.243400 0.605212 37.681100
141.766400 38.025500 0.492560 37.681100
141.694900 37.807600 0.319876 37.681100
141.623400 37.589700 0.319363 37.681100
141.551900 37.371800 0.309521 37.681100
141.480400 37.153900 0.265099 37.681100
141.408900 36.936100 0.202815 37.681100
141.337400 36.718200 0.173724 37.681100
141.265900 36.500300 0.210049 37.681100
141.194400 36.282400 0.201265 37.681100
141.122900 36.064500 0.141645 37.681100
141.051500 35.846600 0.132448 37.681100
140.980000 35.628800 0.000000 37.681100
142.477000 40.902100 0.447075 41.226200
142.405500 40.684200 0.391878 41.226200
142.334000 40.466400 0.382987 41.226200
142.262500 40.248500 0.350612 41.226200
142.191000 40.030600 0.357364 41.226200
142.119500 39.812700 0.350356 41.226200
142.048000 39.594800 0.353028 41.226200
141.976600 39.376900 0.360823 41.226200
141.905100 39.159000 0.333070 41.226200
141.833600 38.941200 0.395401 41.226200
141.762100 38.723300 0.411724 41.226200
141.690600 38.505400 0.555441 41.226200
141.619100 38.287500 0.539147 41.226200
141.547600 38.069600 0.479901 41.226200
141.476100 37.851700 0.318548 41.226200
141.404600 37.633900 0.200475 41.226200
141.333100 37.416000 0.208594 41.226200
141.261600 37.198100 0.115680 41.226200
141.190200 36.980200 0.051888 41.226200
141.118700 36.762300 0.034654 41.226200
141.047200 36.544400 0.076163 41.226200
140.975700 36.326600 0.115581 41.226200
140.904200 36.108700 0.056040 41.226200
140.832700 35.890800 0.000000 41.226200
140.761200 35.672900 0.000000 41.226200
142.258200 40.946300 0.380679 44.771400
142.186800 40.728400 0.361663 44.771400
142.115300 40.510500 0.299836 44.771400
142.043800 40.292600 0.231962 44.771400
141.972300 40.074700 0.219068 44.771400
141.900800 39.856800 0.193469 44.771400
141.829300 39.639000 0.233536 44.771400
141.757800 39.421100 0.170194 44.771400
141.686300 39.203200 0.171117 44.771400
141.614800 38.985300 0.222052 44.771400
141.543300 38.767400 0.293028 44.771400
141.471800 38.549500 0.379064 44.771400
141.400400 38.331700 0.436724 44.771400
141.328900 38.113800 0.422717 44.771400
141.257400 37.895900 0.295422 44.771400
141.185900 37.678000 0.167850 44.771400
141.114400 37.460100 0.182859 44.771400
141.042900 37.242200 0.147954 44.771400
140.971400 37.024300 0.000000 44.771400
140.899900 36.806500 0.000000 44.771400
140.828400 36.588600 0.000000 44.771400
140.756900 36.370700 0.000000 44.771400
140.685400 36.152800 0.000000 44.771400
140.614000 35.934900 0.000000 44.771400
140.542500 35.717000 0.000000 44.771400
142.039500 40.990400 0.289959 48.316500
141.968000 40.772500 0.285268 48.316500
141.896500 40.554600 0.246549 48.316500
141.825000 40.336800 0.209670 48.316500
141.753500 40.118900 0.109428 48.316500
141.682000 39.901000 0.042864 48.316500
141.610600 39.683100 0.000000 48.316500
141.539100 39.465200 0.000000 48.316500
141.467600 39.247300 0.040663 48.316500
141.396100 39.029400 0.018483 48.316500
141.324600 38.811600 0.145911 48.316500
141.253100 38.593700 0.212494 48.316500
141.181600 38.375800 0.324369 48.316500
141.110100 38.157900 0.297148 48.316500
141.038600 37.940000 0.203371 48.316500
140.967100 37.722100 0.184258 48.316500
140.895600 37.504300 0.278401 48.316500
140.824200 37.286400 0.290175 48.316500
140.752700 37.068500 0.000000 48.316500
140.681200 36.850600 0.000000 48.316500
140.609700 36.632700 0.000000 48.316500
140.538200 36.414800 0.000000 48.316500
140.466700 36.196900 0.000000 48.316500
140.395200 35.979100 0.000000 48.316500
140.323700 35.761200 0.167989 48.316500
