144.453200 39.348700 0.703784 10.311284
144.388800 39.223500 0.730991 10.102303
144.324400 39.098300 0.757999 9.987253
144.259900 38.973200 0.784634 9.962604
144.195500 38.848000 0.811178 9.775473
144.131000 38.722900 0.837734 9.928013
144.066600 38.597700 0.860544 9.729693
144.002200 38.472500 0.878556 9.998195
143.937700 38.347400 0.896523 10.365060
143.873300 38.222200 0.914560 10.756441
143.808900 38.097100 0.932582 11.154336
143.744400 37.971900 0.949999 11.550578
143.680000 37.846700 0.971299 11.935430
143.615600 37.721600 0.976329 12.302107
143.551100 37.596400 0.971314 12.643396
143.486700 37.471300 0.958614 12.950411
143.422300 37.346100 0.941148 13.216758
143.357800 37.220900 0.913317 13.437748
143.293400 37.095800 0.883815 13.606864
143.228900 36.970600 0.853767 13.720317
143.164500 36.845500 0.817789 13.770611
143.100100 36.720300 0.803659 13.747221
143.035600 36.595100 0.806993 13.634153
142.971200 36.470000 0.814573 13.361657
142.906800 36.344800 0.822900 13.031573
142.842300 36.219700 0.830845 12.716955
142.777900 36.094500 0.835020 12.586594
142.713500 35.969300 0.839770 12.368556
142.649000 35.844200 0.843848 12.100394
142.584600 35.719000 0.847131 10.853842
142.520100 35.593900 0.856255 10.353068
142.455700 35.468700 0.869439 9.999857
142.391300 35.343500 0.881473 9.817271
142.326800 35.218400 0.883357 9.948923
142.262400 35.093200 0.871916 9.824196
144.297200 39.398100 0.650065 10.311284
144.232800 39.273000 0.648234 10.221025
144.168400 39.147800 0.658024 9.938862
144.103900 39.022600 0.670296 10.095770
144.039500 38.897500 0.694049 10.364151
143.975000 38.772300 0.736168 10.696665
143.910600 38.647200 0.783299 11.068348
143.846200 38.522000 0.824558 11.469368
143.781700 38.396800 0.865496 11.889819
143.717300 38.271700 0.897886 12.317686
143.652900 38.146500 0.927909 12.744864
143.588400 38.021400 0.956100 13.165348
143.524000 37.896200 0.969770 13.569922
143.459600 37.771000 0.973357 13.953084
143.395100 37.645900 0.968032 14.309330
143.330700 37.520700 0.955396 14.629222
143.266300 37.395600 0.934934 14.907791
143.201800 37.270400 0.905375 15.139444
143.137400 37.145200 0.877665 15.317065
143.072900 37.020100 0.844274 15.438032
143.008500 36.894900 0.805784 15.493226
142.944100 36.769800 0.766618 15.474807
142.879600 36.644600 0.727572 15.366047
142.815200 36.519400 0.686531 15.141271
142.750800 36.394300 0.640457 14.774890
142.686300 36.269100 0.580716 14.247880
142.621900 36.144000 0.515535 13.567825
142.557500 36.018800 0.484753 12.807855
142.493000 35.893600 0.446364 11.922463
142.428600 35.768500 0.409183 11.116876
142.364100 35.643300 0.372236 10.543401
142.299700 35.518200 0.385766 10.085075
142.235300 35.393000 0.471898 9.875563
142.170800 35.267800 0.561383 9.967958
142.106400 35.142700 0.658133 10.034641
142.042000 35.017500 0.761597 10.249619
144.141200 39.447600 0.618660 10.788870
144.076800 39.322400 0.614428 11.019864
144.012400 39.197300 0.623250 11.276105
143.947900 39.072100 0.642031 11.572029
143.883500 38.946900 0.671294 11.910680
143.819000 38.821800 0.715389 12.291137
143.754600 38.696600 0.764164 12.702828
143.690200 38.571500 0.807308 13.137208
143.625700 38.446300 0.850946 13.585424
143.561300 38.321100 0.885544 14.037382
143.496900 38.196000 0.919007 14.487550
143.432400 38.070800 0.950319 14.930484
143.368000 37.945700 0.964002 15.358220
143.303600 37.820500 0.966685 15.764817
143.239100 37.695300 0.958727 16.144463
143.174700 37.570200 0.942486 16.487715
143.110300 37.445000 0.921449 16.787786
143.045800 37.319900 0.895675 17.039674
142.981400 37.194700 0.865148 17.234310
142.916900 37.069500 0.826166 17.369070
142.852500 36.944400 0.784642 17.436522
142.788100 36.819200 0.745966 17.428354
142.723600 36.694100 0.710864 17.332436
142.659200 36.568900 0.671260 17.122781
142.594800 36.443700 0.625722 16.772632
142.530300 36.318600 0.573991 16.259466
142.465900 36.193400 0.502578 15.574405
142.401500 36.068300 0.416067 14.750014
142.337000 35.943100 0.342022 13.853868
142.272600 35.817900 0.300975 12.980074
142.208100 35.692800 0.300630 12.230345
142.143700 35.567600 0.346073 11.676226
142.079300 35.442500 0.427065 11.357383
142.014800 35.317300 0.218148 11.269666
141.950400 35.192100 0.280087 11.376520
141.886000 35.067000 0.297971 11.628651
143.985200 39.497000 0.609381 12.349099
143.920800 39.371900 0.591772 12.626138
143.856400 39.246700 0.595862 12.929636
143.791900 39.121600 0.611852 13.270933
143.727500 38.996400 0.637497 13.649333
143.663000 38.871200 0.679464 14.063191
143.598600 38.746100 0.729156 14.503404
143.534200 38.620900 0.779023 14.962880
143.469700 38.495800 0.826696 15.436124
143.405300 38.370600 0.871042 15.914224
143.340900 38.245400 0.909161 16.392719
143.276400 38.120300 0.937135 16.866926
143.212000 37.995100 0.952394 17.327116
143.147600 37.870000 0.954173 17.767410
143.083100 37.744800 0.942751 18.180097
143.018700 37.619600 0.928016 18.554357
142.954300 37.494500 0.905849 18.883589
142.889800 37.369300 0.878501 19.160746
142.825400 37.244200 0.841612 19.377754
142.760900 37.119000 0.797418 19.531092
142.696500 36.993800 0.759408 19.613865
142.632100 36.868700 0.727526 19.621554
142.567600 36.743500 0.693630 19.542548
142.503200 36.618400 0.650627 19.356087
142.438800 36.493200 0.606511 19.033468
142.374300 36.368000 0.547605 18.546765
142.309900 36.242900 0.479061 17.877932
142.245500 36.117700 0.402630 17.040412
142.181000 35.992600 0.329980 16.096541
142.116600 35.867400 0.275465 15.137854
142.052100 35.742200 0.263706 14.281240
141.987700 35.617100 0.302700 13.620516
141.923300 35.491900 0.027663 13.207118
141.858800 35.366800 0.000000 13.046018
141.794400 35.241600 0.000000 13.096237
141.730000 35.116400 0.000000 13.306587
143.829200 39.546500 0.587107 14.105754
143.764800 39.421300 0.563137 14.420281
143.700400 39.296200 0.558574 14.762358
143.635900 39.171000 0.570748 15.139492
143.571500 39.045900 0.593410 15.550674
143.507000 38.920700 0.632046 15.994387
143.442600 38.795500 0.684504 16.463357
143.378200 38.670400 0.735334 16.953363
143.313700 38.545200 0.789928 17.459662
143.249300 38.420100 0.845331 17.974610
143.184900 38.294900 0.893118 18.492600
143.120400 38.169700 0.924014 19.008018
143.056000 38.044600 0.938734 19.510265
142.991600 37.919400 0.940167 19.991017
142.927100 37.794300 0.930974 20.442763
142.862700 37.669100 0.912696 20.852538
142.798300 37.543900 0.885391 21.213198
142.733800 37.418800 0.855093 21.518944
142.669400 37.293600 0.805873 21.759570
142.604900 37.168500 0.759606 21.934438
142.540500 37.043300 0.724589 22.035832
142.476100 36.918100 0.694916 22.061260
142.411600 36.793000 0.659839 22.004329
142.347200 36.667800 0.617586 21.844157
142.282800 36.542700 0.573754 21.556770
142.218300 36.417500 0.527687 21.108509
142.153900 36.292300 0.454166 20.471425
142.089500 36.167200 0.374186 19.650316
142.025000 36.042000 0.296547 18.692502
141.960600 35.916900 0.235936 17.693240
141.896100 35.791700 0.192478 16.773360
141.831700 35.666500 0.012213 16.037548
141.767300 35.541400 0.000000 15.548565
141.702800 35.416200 0.000000 15.308815
141.638400 35.291100 0.000000 15.279683
141.574000 35.165900 0.000000 15.413872
141.509500 35.040700 0.000000 15.683410
143.673200 39.596000 0.551653 16.043320
143.608800 39.470800 0.523647 16.388577
143.544400 39.345600 0.512770 16.764049
143.479900 39.220500 0.518265 17.176095
143.415500 39.095300 0.532052 17.621883
143.351000 38.970200 0.566382 18.102152
143.286600 38.845000 0.619166 18.609691
143.222200 38.719800 0.675493 19.141261
143.157700 38.594700 0.743398 19.693046
143.093300 38.469500 0.813069 20.255236
143.028900 38.344400 0.864664 20.822110
142.964400 38.219200 0.903990 21.385898
142.900000 38.094000 0.917426 21.934271
142.835600 37.968900 0.920161 22.458925
142.771100 37.843700 0.911733 22.950380
142.706700 37.718600 0.892179 23.396533
142.642300 37.593400 0.861915 23.789086
142.577800 37.468200 0.816497 24.122540
142.513400 37.343100 0.764396 24.388454
142.448900 37.217900 0.722800 24.584873
142.384500 37.092800 0.683107 24.707492
142.320100 36.967600 0.649170 24.753851
142.255600 36.842400 0.611606 24.720378
142.191200 36.717300 0.575072 24.591800
142.126800 36.592100 0.534828 24.343649
142.062300 36.467000 0.489204 23.946722
141.997900 36.341800 0.424531 23.365799
141.933500 36.216700 0.346673 22.599481
141.869000 36.091500 0.262208 21.686604
141.804600 35.966300 0.186865 20.713928
141.740100 35.841200 0.138124 19.802820
141.675700 35.716000 0.000018 19.048301
141.611300 35.590900 0.000000 18.509665
141.546800 35.465700 0.000000 18.185002
141.482400 35.340500 0.000000 18.041397
141.418000 35.215400 0.000000 18.057080
141.353500 35.090200 0.000000 18.237283
143.517200 39.645400 0.515841 18.170356
143.452800 39.520300 0.482620 18.545971
143.388400 39.395100 0.461232 18.957391
143.323900 39.269900 0.451758 19.409210
143.259500 39.144800 0.454295 19.898658
143.195000 39.019600 0.487799 20.425387
143.130600 38.894500 0.542362 20.982986
143.066200 38.769300 0.606027 21.566934
143.001700 38.644100 0.678336 22.172515
142.937300 38.519000 0.768633 22.789075
142.872900 38.393800 0.836166 23.408392
142.808400 38.268700 0.870837 24.022851
142.744000 38.143500 0.891603 24.617820
142.679600 38.018400 0.895011 25.184969
142.615100 37.893200 0.889459 25.714679
142.550700 37.768000 0.871243 26.194237
142.486300 37.642900 0.839899 26.617336
142.421800 37.517700 0.789447 26.977664
142.357400 37.392600 0.735432 27.267901
142.292900 37.267400 0.689499 27.487001
142.228500 37.142200 0.640628 27.630829
142.164100 37.017100 0.602068 27.700992
142.099600 36.891900 0.562953 27.694383
142.035200 36.766800 0.521941 27.600162
141.970800 36.641600 0.493566 27.398846
141.906300 36.516400 0.452843 27.065065
141.841900 36.391300 0.401819 26.569327
141.777500 36.266100 0.321095 25.903630
141.713000 36.141000 0.209370 25.104811
141.648600 36.015800 0.112951 24.240429
141.584100 35.890600 0.018697 23.412349
141.519700 35.765500 0.000000 22.697495
141.455300 35.640300 0.000000 22.131112
141.390800 35.515200 0.000000 21.713696
141.326400 35.390000 0.000000 21.429689
141.262000 35.264800 0.000000 21.305080
141.197500 35.139700 0.000000 21.405639
141.133100 35.014500 0.003944 21.804320
143.361200 39.694900 0.469142 20.516291
143.296800 39.569700 0.429827 20.926634
143.232400 39.444600 0.400532 21.381071
143.167900 39.319400 0.381800 21.881120
143.103500 39.194300 0.375892 22.422857
143.039000 39.069100 0.414256 23.005144
142.974600 38.943900 0.480992 23.619909
142.910200 38.818800 0.549410 24.262498
142.845700 38.693600 0.624812 24.925873
142.781300 38.568500 0.712806 25.598035
142.716900 38.443300 0.794388 26.269665
142.652400 38.318100 0.839004 26.932093
142.588000 38.193000 0.865423 27.571010
142.523600 38.067800 0.875071 28.176518
142.459100 37.942700 0.868117 28.741125
142.394700 37.817500 0.848879 29.250946
142.330300 37.692300 0.811606 29.700481
142.265800 37.567200 0.760037 30.086157
142.201400 37.442000 0.712093 30.398784
142.136900 37.316900 0.661137 30.641142
142.072500 37.191700 0.615771 30.807739
142.008100 37.066500 0.557819 30.901677
141.943600 36.941400 0.517058 30.925081
141.879200 36.816200 0.483132 30.867435
141.814800 36.691100 0.450569 30.719899
141.750300 36.565900 0.424738 30.462502
141.685900 36.440700 0.366673 30.072451
141.621500 36.315600 0.273817 29.548022
141.557000 36.190400 0.167780 28.911854
141.492600 36.065300 0.056991 28.215536
141.428100 35.940100 -0.000003 27.524208
141.363700 35.814900 0.000000 26.880635
141.299300 35.689800 0.000000 26.304250
141.234800 35.564600 0.000000 25.796625
141.170400 35.439500 0.000000 25.388665
141.106000 35.314300 0.000000 25.167322
141.041500 35.189100 0.000693 25.263354
140.977100 35.064000 0.017689 25.776343
143.205200 39.744400 0.421253 23.115065
143.140800 39.619200 0.379514 23.568203
143.076400 39.494000 0.341088 24.072223
143.011900 39.368900 0.315695 24.627924
142.947500 39.243700 0.313546 25.227721
142.883000 39.118600 0.348802 25.870885
142.818600 38.993400 0.412213 26.546343
142.754200 38.868200 0.484376 27.248154
142.689700 38.743100 0.576560 27.969155
142.625300 38.617900 0.666915 28.694301
142.560900 38.492800 0.739911 29.415148
142.496400 38.367600 0.796795 30.121467
142.432000 38.242400 0.832358 30.798483
142.367600 38.117300 0.842888 31.438156
142.303100 37.992100 0.841738 32.031756
142.238700 37.867000 0.824568 32.568036
142.174300 37.741800 0.789148 33.040910
142.109800 37.616600 0.740770 33.447870
142.045400 37.491500 0.687981 33.782487
141.980900 37.366300 0.641632 34.045925
141.916500 37.241200 0.579674 34.236346
141.852100 37.116000 0.524325 34.355832
141.787600 36.990800 0.478434 34.408766
141.723200 36.865700 0.441562 34.391424
141.658800 36.740500 0.408554 34.298017
141.594300 36.615400 0.377712 34.122466
141.529900 36.490200 0.323690 33.847155
141.465500 36.365000 0.233859 33.472804
141.401000 36.239900 0.131128 33.016262
141.336600 36.114700 0.033586 32.497571
141.272100 35.989600 -0.000029 31.952849
141.207700 35.864400 0.000000 31.388140
141.143300 35.739200 0.000000 30.812473
141.078800 35.614100 0.000000 30.255001
141.014400 35.488900 0.000000 29.792763
140.950000 35.363800 0.000000 29.582977
140.885500 35.238600 0.004925 29.799853
140.821100 35.113400 0.054267 30.555970
143.049200 39.793800 0.372233 25.993641
142.984800 39.668700 0.323938 26.497468
142.920400 39.543500 0.279072 27.057355
142.855900 39.418300 0.245682 27.672374
142.791500 39.293200 0.241409 28.334123
142.727000 39.168000 0.271007 29.038845
142.662600 39.042900 0.336447 29.775260
142.598200 38.917700 0.413412 30.534860
142.533700 38.792500 0.503330 31.309492
142.469300 38.667400 0.598351 32.084097
142.404900 38.542200 0.688667 32.848098
142.340400 38.417100 0.744334 33.593130
142.276000 38.291900 0.792365 34.302899
142.211600 38.166700 0.805774 34.970021
142.147100 38.041600 0.802978 35.588452
142.082700 37.916400 0.790292 36.145320
142.018300 37.791300 0.759262 36.638363
141.953800 37.666100 0.711416 37.064308
141.889400 37.540900 0.659071 37.417337
141.824900 37.415800 0.608906 37.702293
141.760500 37.290600 0.551252 37.914338
141.696100 37.165500 0.488356 38.060369
141.631600 37.040300 0.427862 38.143895
141.567200 36.915100 0.390381 38.164245
141.502800 36.790000 0.366338 38.124985
141.438300 36.664800 0.340877 38.023635
141.373900 36.539700 0.279657 37.854293
141.309500 36.414500 0.190547 37.615042
141.245000 36.289300 0.093720 37.311633
141.180600 36.164200 0.012149 36.945179
141.116200 36.039000 0.000000 36.514688
141.051700 35.913900 0.000000 36.021477
140.987300 35.788700 0.000000 35.467773
140.922800 35.663500 0.000000 34.918283
140.858400 35.538400 0.000000 34.504220
140.794000 35.413200 0.000011 34.419572
140.729500 35.288100 0.004270 34.863909
140.665100 35.162900 0.101112 35.940063
140.600700 35.037700 0.240623 37.645430
142.893200 39.843300 0.312910 29.168009
142.828800 39.718100 0.266493 29.727425
142.764400 39.593000 0.206343 30.347883
142.699900 39.467800 0.170407 31.025178
142.635500 39.342600 0.156586 31.748928
142.571100 39.217500 0.168814 32.513379
142.506600 39.092300 0.231688 33.310000
142.442200 38.967200 0.316455 34.124536
142.377700 38.842000 0.413623 34.948798
142.313300 38.716800 0.504536 35.766757
142.248900 38.591700 0.598368 36.569225
142.184400 38.466500 0.664100 37.346090
142.120000 38.341400 0.716457 38.083396
142.055600 38.216200 0.751845 38.773040
141.991100 38.091000 0.755157 39.410135
141.926700 37.965900 0.741059 39.984648
141.862300 37.840700 0.713805 40.492876
141.797800 37.715600 0.674533 40.935797
141.733400 37.590400 0.629482 41.305908
141.668900 37.465200 0.582146 41.609069
141.604500 37.340100 0.533060 41.843580
141.540100 37.214900 0.453685 42.013362
141.475600 37.089800 0.391142 42.127411
141.411200 36.964600 0.351967 42.184079
141.346800 36.839400 0.323360 42.191148
141.282300 36.714300 0.292821 42.155105
141.217900 36.589100 0.234079 42.069162
141.153500 36.464000 0.145075 41.935531
141.089000 36.338800 0.040901 41.746431
141.024600 36.213600 0.000000 41.485031
140.960200 36.088500 0.000000 41.137815
140.895700 35.963300 0.000000 40.695439
140.831300 35.838200 0.000000 40.182565
140.766800 35.713000 0.000000 39.692351
140.702400 35.587800 0.000000 39.390630
140.638000 35.462700 0.000718 39.494640
140.573500 35.337500 0.019637 40.196917
140.509100 35.212400 0.127711 41.594764
140.444700 35.087200 0.316571 43.681376
142.737200 39.892700 0.274199 32.639270
142.672800 39.767600 0.219890 33.260153
142.608400 39.642400 0.157992 33.943179
142.543900 39.517300 0.110723 34.684846
142.479500 39.392100 0.081263 35.471105
142.415100 39.266900 0.094380 36.294914
142.350600 39.141800 0.151151 37.148119
142.286200 39.016600 0.233987 38.013001
142.221700 38.891500 0.326882 38.883037
142.157300 38.766300 0.412058 39.739887
142.092900 38.641100 0.498074 40.574583
142.028400 38.516000 0.556078 41.379302
141.964000 38.390800 0.614406 42.138094
141.899600 38.265700 0.656131 42.846546
141.835100 38.140500 0.678894 43.499076
141.770700 38.015300 0.680287 44.086470
141.706300 37.890200 0.661694 44.608676
141.641800 37.765000 0.636192 45.064617
141.577400 37.639900 0.602084 45.450813
141.512900 37.514700 0.553085 45.771388
141.448500 37.389500 0.503104 46.024954
141.384100 37.264400 0.437606 46.219074
141.319600 37.139200 0.383604 46.359558
141.255200 37.014100 0.339369 46.450473
141.190800 36.888900 0.297424 46.498848
141.126300 36.763700 0.258650 46.514194
141.061900 36.638600 0.203608 46.495092
140.997500 36.513400 0.128611 46.436788
140.933000 36.388300 0.045581 46.329353
140.868600 36.263100 0.000000 46.139956
140.804200 36.137900 0.000000 45.845683
140.739700 36.012800 0.000000 45.443621
140.675300 35.887600 0.000000 44.968631
140.610800 35.762500 0.000000 44.547270
140.546400 35.637300 0.000000 44.362592
140.482000 35.512100 0.001623 44.639539
140.417500 35.387000 0.037313 45.568394
140.353100 35.261800 0.185405 47.240197
140.288700 35.136700 0.427496 49.663121
140.224200 35.011500 0.781745 52.787320
142.581200 39.942200 0.248659 36.400220
142.516800 39.817000 0.148068 37.085585
142.452400 39.691900 0.004816 37.835120
142.387900 39.566700 -0.000272 38.641427
142.323500 39.441600 0.003563 39.490878
142.259100 39.316400 0.024704 40.373455
142.194600 39.191200 0.070127 41.280058
142.130200 39.066100 0.140392 42.193472
142.065700 38.940900 0.225643 43.104746
142.001300 38.815800 0.315253 43.997455
141.936900 38.690600 0.381137 44.861302
141.872400 38.565400 0.431169 45.689187
141.808000 38.440300 0.486016 46.467741
141.743600 38.315100 0.524234 47.190964
141.679100 38.190000 0.558656 47.857525
141.614700 38.064800 0.586634 48.456713
141.550300 37.939600 0.587887 48.989618
141.485800 37.814500 0.576764 49.458894
141.421400 37.689300 0.559528 49.857820
141.356900 37.564200 0.530090 50.195340
141.292500 37.439000 0.477273 50.467292
141.228100 37.313800 0.427332 50.681754
141.163600 37.188700 0.383485 50.848817
141.099200 37.063500 0.335169 50.968677
141.034800 36.938400 0.278889 51.054921
140.970300 36.813200 0.237737 51.115285
140.905900 36.688000 0.195017 51.148967
140.841500 36.562900 0.141775 51.153672
140.777000 36.437700 0.005075 51.108600
140.712600 36.312600 0.000000 50.977529
140.648200 36.187400 0.000000 50.725533
140.583700 36.062300 0.000000 50.350535
140.519300 35.937100 0.000000 49.898380
140.454800 35.811900 0.000000 49.514561
140.390400 35.686800 0.000000 49.407154
140.326000 35.561600 0.000002 49.807127
140.261500 35.436500 0.048647 50.908952
140.197100 35.311300 0.209557 52.809205
140.132700 35.186100 0.530616 55.531732
140.068200 35.061000 0.903391 59.040577
142.425200 39.991700 0.031842 40.434122
142.360800 39.866500 0.000000 41.188877
142.296400 39.741300 0.000000 42.006841
142.231900 39.616200 0.000000 42.880992
142.167500 39.491000 0.000000 43.793385
142.103100 39.365900 0.000000 44.735342
142.038600 39.240700 0.000099 45.695159
141.974200 39.115500 0.067811 46.654708
141.909700 38.990400 0.125555 47.606975
141.845300 38.865200 0.185824 48.532821
141.780900 38.740100 0.223648 49.425231
141.716400 38.614900 0.281532 50.275940
141.652000 38.489700 0.317187 51.072154
141.587600 38.364600 0.355660 51.811358
141.523100 38.239400 0.416047 52.490181
141.458700 38.114300 0.469256 53.101994
141.394300 37.989100 0.477978 53.646263
141.329800 37.864000 0.493204 54.127549
141.265400 37.738800 0.488845 54.539358
141.200900 37.613600 0.471225 54.890525
141.136500 37.488500 0.430814 55.180451
141.072100 37.363300 0.392886 55.414672
141.007600 37.238200 0.356098 55.605348
140.943200 37.113000 0.304958 55.753330
140.878800 36.987800 0.261084 55.872542
140.814300 36.862700 0.237099 55.976379
140.749900 36.737500 0.222323 56.060935
140.685500 36.612400 0.220505 56.124744
140.621000 36.487200 0.159537 56.142954
140.556600 36.362000 0.000000 56.069315
140.492200 36.236900 0.000000 55.863515
140.427700 36.111700 0.000000 55.510837
140.363300 35.986600 0.008570 55.067990
140.298800 35.861400 0.082665 54.692195
140.234400 35.736200 0.000001 54.615549
140.170000 35.611100 0.000271 55.094360
140.105500 35.485900 0.069756 56.333301
140.041100 35.360800 0.236232 58.443429
139.976700 35.235600 0.507154 61.460702
139.912200 35.110400 0.868094 65.359115
