145.351500 43.337200 0.059601 74.850000
145.191100 43.266200 0.124104 74.480000
145.030800 43.195300 0.000000 73.700000
144.870700 43.124300 0.000000 72.490000
144.710600 43.053300 0.000000 70.810000
144.551600 42.982000 0.000000 68.720000
144.393900 42.910400 0.000000 66.320000
144.237200 42.838400 0.000000 63.790000
144.081700 42.766200 0.000000 61.220000
143.926800 42.693600 0.226451 58.770000
143.773100 42.620400 0.282132 56.600000
143.620700 42.547200 0.345822 54.710000
143.468900 42.474200 0.393715 53.100000
143.317800 42.401300 0.388574 51.790000
143.167600 42.328700 0.385424 50.750000
143.018900 42.256700 0.374312 50.090000
142.871200 42.185100 0.319726 49.820000
145.441000 43.229100 0.213383 65.030000
145.280500 43.158200 0.188973 64.580000
145.120200 43.087100 0.219253 63.720000
144.960400 43.016000 0.000000 62.390000
144.800900 42.944600 0.000000 60.690000
144.642900 42.872900 0.000000 58.720000
144.486200 42.800900 0.000000 56.650000
144.330200 42.728500 0.000000 54.600000
144.175100 42.655700 0.201388 52.650000
144.021000 42.583100 0.244908 50.830000
143.867600 42.510600 0.296739 49.170000
143.715000 42.438200 0.344749 47.660000
143.563000 42.365700 0.407296 46.350000
143.412000 42.293500 0.458545 45.280000
143.262200 42.221300 0.450859 44.490000
143.113200 42.149500 0.462822 43.990000
142.965400 42.078100 0.526547 43.820000
145.530700 43.119300 0.305249 55.910000
145.370300 43.048400 0.302113 55.410000
145.210500 42.977100 0.310722 54.550000
145.050800 42.905700 0.325064 53.340000
144.892600 42.834100 0.000000 51.900000
144.735400 42.762300 0.254845 50.320000
144.579000 42.690500 0.231655 48.680000
144.423100 42.618400 0.242771 47.050000
144.268300 42.546400 0.241080 45.460000
144.114300 42.474400 0.361373 43.980000
143.960900 42.402300 0.368864 42.630000
143.808300 42.330000 0.498495 41.440000
143.656700 42.257800 0.526911 40.410000
143.505800 42.185700 0.554714 39.600000
143.355800 42.113700 0.608201 38.990000
143.207100 42.042100 0.594063 38.640000
143.059500 41.971000 0.592237 38.600000
145.621300 43.010400 0.349239 47.060000
145.461500 42.939300 0.346249 46.750000
145.302000 42.867900 0.409244 46.150000
145.143200 42.796400 0.422360 45.260000
144.985100 42.724700 0.341582 44.180000
144.827800 42.653100 0.384195 42.940000
144.671400 42.581500 0.346523 41.650000
144.516000 42.509700 0.321389 40.350000
144.361300 42.437900 0.540742 39.090000
144.207400 42.366000 0.536291 37.920000
144.054200 42.294200 0.585070 36.840000
143.901800 42.222200 0.593230 35.900000
143.750200 42.150300 0.643517 35.110000
143.599500 42.078500 0.631181 34.470000
143.449900 42.006800 0.649053 34.070000
143.301200 41.935400 0.655545 33.900000
143.154000 41.864700 0.640591 34.020000
145.712400 42.901200 0.411296 38.880000
145.553100 42.830200 0.433657 38.790000
145.394200 42.759100 0.510889 38.450000
145.235600 42.687800 0.522185 37.890000
145.077500 42.616200 0.484470 37.110000
144.920400 42.544600 0.534430 36.210000
144.764400 42.473100 0.536412 35.260000
144.609000 42.401400 0.579873 34.300000
144.454400 42.329800 0.593331 33.370000
144.300200 42.257900 0.598566 32.460000
144.147200 42.186400 0.644646 31.600000
143.994600 42.114600 0.679658 30.840000
143.843600 42.043100 0.687349 30.250000
143.693300 41.971400 0.667591 29.850000
143.543800 41.900000 0.662205 29.630000
143.395600 41.829100 0.656462 29.610000
143.248300 41.758600 0.638056 29.840000
145.803400 42.790800 0.431514 31.890000
145.644900 42.720400 0.463830 31.900000
145.486600 42.649500 0.549164 31.800000
145.328100 42.578400 0.577809 31.500000
145.170400 42.507200 0.603643 31.000000
145.012800 42.436000 0.628267 30.330000
144.856500 42.365000 0.620358 29.480000
144.700900 42.294300 0.620507 28.490000
144.545900 42.223200 0.634574 27.520000
144.393600 42.152000 0.654015 26.760000
144.241500 42.080500 0.663595 26.250000
144.090300 42.008700 0.669276 26.000000
143.939600 41.937000 0.673638 25.940000
143.789400 41.865300 0.662290 26.010000
143.639900 41.794000 0.651306 26.190000
143.491200 41.722800 0.626879 26.450000
143.343500 41.652400 0.605809 26.790000
145.890100 42.682300 0.417913 24.800000
145.731300 42.613000 0.472014 24.490000
145.572800 42.543400 0.501359 24.020000
145.414600 42.473600 0.550916 23.390000
145.257700 42.403600 0.588336 22.630000
145.101400 42.332900 0.615036 21.840000
144.946500 42.261900 0.603523 21.070000
144.793300 42.190700 0.600234 20.440000
144.641100 42.119300 0.625362 20.080000
144.490500 42.048100 0.613232 20.090000
144.340300 41.977000 0.617218 20.340000
144.189700 41.905700 0.616694 20.790000
144.039300 41.834300 0.599848 21.370000
143.889200 41.763000 0.543256 22.020000
143.738900 41.691400 0.580502 22.720000
143.589100 41.620000 0.590343 23.420000
143.439700 41.548600 0.577220 24.140000
145.976000 42.570400 0.370866 18.100000
145.818300 42.500600 0.390359 17.750000
145.661100 42.430300 0.395367 17.370000
145.505200 42.360200 0.507920 16.970000
145.348600 42.289500 0.533276 16.440000
145.194700 42.218800 0.490148 16.210000
145.041300 42.148400 0.487815 15.980000
144.889100 42.078100 0.514723 15.900000
144.739700 42.009200 0.529477 15.940000
144.589500 41.939800 0.511812 16.170000
144.439700 41.870700 0.546783 16.540000
144.289700 41.801200 0.570689 17.140000
144.138500 41.730600 0.534190 17.830000
143.986600 41.659400 0.508651 18.540000
143.835700 41.588300 0.510747 19.360000
143.684800 41.516700 0.469939 20.220000
143.535300 41.445700 0.508205 21.160000
146.064700 42.456600 0.256581 15.460000
145.906500 42.386600 0.254488 15.250000
145.749300 42.316700 0.249594 15.060000
145.592800 42.246800 0.347162 14.800000
145.437500 42.176900 0.323201 14.600000
145.284900 42.107600 0.397977 14.430000
145.132600 42.038100 0.373367 14.290000
144.983100 41.969700 0.419566 14.280000
144.835100 41.902100 0.388094 14.400000
144.687600 41.834900 0.436743 14.650000
144.539000 41.767400 0.420719 15.020000
144.388900 41.698700 0.439531 15.490000
144.236500 41.627700 0.441114 16.010000
144.084400 41.556500 0.396268 16.600000
143.932500 41.485000 0.420236 17.230000
143.780900 41.413200 0.361971 17.940000
143.630400 41.342100 0.418381 18.710000
146.151000 42.346400 0.149980 13.830000
145.993300 42.276800 0.194558 13.620000
145.836400 42.207300 0.181782 13.390000
145.680600 42.137600 0.164356 13.140000
145.526400 42.068200 0.202567 12.930000
145.373900 41.999100 0.274343 12.760000
145.223200 41.930400 0.222187 12.680000
145.074800 41.862800 0.323076 12.700000
144.927500 41.795900 0.238757 12.850000
144.780300 41.729400 0.278857 13.150000
144.631800 41.662300 0.336919 13.600000
144.482800 41.594800 0.229237 14.180000
144.332200 41.525600 0.199910 14.840000
144.179800 41.454000 0.225795 15.430000
144.027500 41.381900 0.302534 15.990000
143.876100 41.310400 0.361971 16.560000
143.725400 41.239200 0.320560 17.190000
146.240300 42.238300 0.080634 11.760000
146.083400 42.168900 0.086583 11.650000
145.926400 42.099300 0.074148 11.510000
145.770600 42.029700 0.103043 11.350000
145.616600 41.960400 0.124351 11.210000
145.464300 41.891500 0.091761 11.110000
145.313800 41.823100 0.124751 11.070000
145.164500 41.755100 0.186080 11.120000
145.016200 41.687700 0.084412 11.280000
144.868100 41.620700 0.111606 11.550000
144.719600 41.553500 0.127522 11.960000
144.571700 41.487100 0.140779 12.520000
144.422700 41.419600 0.132770 13.300000
144.271400 41.348900 0.207235 14.170000
144.119700 41.277500 0.188750 14.920000
143.969100 41.206700 0.247211 15.520000
143.819000 41.136200 0.203041 16.120000
146.331100 42.130500 0.037352 9.790000
146.174400 42.061300 0.016310 9.770000
146.017300 41.991600 0.038322 9.730000
145.861100 41.921900 0.037380 9.660000
145.706800 41.852600 0.038893 9.590000
145.553600 41.783400 0.038486 9.510000
145.401800 41.714600 0.026344 9.470000
145.251600 41.646200 0.059316 9.450000
145.103100 41.578800 0.041703 9.550000
144.955700 41.512000 0.023878 9.840000
144.807200 41.444700 0.064377 10.300000
144.659000 41.377700 0.050920 10.840000
144.511800 41.312200 0.052539 11.530000
144.362000 41.243800 0.116395 12.510000
144.210400 41.172100 0.128745 13.520000
144.059500 41.100800 0.150907 14.360000
143.910200 41.031100 0.121628 15.100000
146.424400 42.024100 0.000604 8.200000
146.262000 41.952300 0.001086 8.290000
146.104800 41.882600 0.001519 8.210000
145.951700 41.814300 0.002344 8.150000
145.795800 41.744400 0.002357 8.140000
145.639400 41.674000 0.001817 8.060000
145.484800 41.604000 0.003487 7.910000
145.333600 41.535100 0.005071 7.740000
145.186600 41.468000 0.001899 7.630000
145.044300 41.404400 0.004784 7.820000
144.900300 41.340900 0.003262 8.510000
144.750400 41.272500 0.003170 9.370000
144.600800 41.204600 0.031093 9.980000
144.452400 41.138300 0.036104 10.820000
144.300600 41.066500 0.054831 11.920000
144.149100 40.994200 0.078757 12.930000
143.999700 40.924300 0.121628 13.870000
