143.575400 39.904500 0.584902 17.705818
143.486800 39.690500 0.512813 17.939578
143.398200 39.476500 0.464613 18.195757
143.309600 39.262600 0.446050 18.455520
143.221000 39.048600 0.482945 18.750494
143.132400 38.834600 0.576122 19.120221
143.043700 38.620600 0.703220 19.584472
142.955100 38.406700 0.835169 20.139714
142.866500 38.192700 0.895728 20.768926
142.777900 37.978700 0.911234 21.447373
142.689300 37.764800 0.893563 22.138991
142.600700 37.550800 0.843472 22.805053
142.512100 37.336800 0.762672 23.402252
142.423400 37.122800 0.699556 23.887171
142.334800 36.908900 0.650918 24.219522
142.246200 36.694900 0.590311 24.369562
142.157600 36.480900 0.523550 24.320773
142.069000 36.267000 0.416409 24.058888
141.980400 36.053000 0.284274 23.547522
141.891800 35.839000 0.205174 22.680639
141.803100 35.625100 -0.002092 21.312630
141.714500 35.411100 0.000000 19.458418
143.400500 39.949100 0.546155 17.489965
143.311900 39.735100 0.458970 15.946827
143.223300 39.521100 0.399034 15.108103
143.134700 39.307100 0.370751 20.700862
143.046100 39.093200 0.401758 20.765950
142.957400 38.879200 0.518306 20.905120
142.868800 38.665200 0.647986 21.116966
142.780200 38.451300 0.797799 21.419409
142.691600 38.237300 0.865972 21.830501
142.603000 38.023300 0.885889 22.353261
142.514400 37.809400 0.870340 22.976528
142.425800 37.595400 0.816238 23.678682
142.337100 37.381400 0.727589 24.425354
142.248500 37.167400 0.654746 25.179663
142.159900 36.953500 0.592575 25.896891
142.071300 36.739500 0.535087 26.531539
141.982700 36.525500 0.477667 27.040332
141.894100 36.311600 0.384289 27.384763
141.805500 36.097600 0.234848 27.539948
141.716800 35.883600 0.110263 27.488024
141.628200 35.669600 0.000000 27.225430
141.539600 35.455700 0.000000 26.725156
143.225600 39.993600 0.496364 25.895679
143.137000 39.779700 0.402674 24.592681
143.048400 39.565700 0.336371 22.802844
142.959700 39.351700 0.296172 20.852706
142.871100 39.137800 0.334165 19.231843
142.782500 38.923800 0.450410 18.202575
142.693900 38.709800 0.605333 23.898026
142.605300 38.495900 0.743205 23.820531
142.516700 38.281900 0.831876 23.882238
142.428100 38.067900 0.862749 24.076636
142.339400 37.853900 0.840902 24.407189
142.250800 37.640000 0.774838 24.872742
142.162200 37.426000 0.696344 25.466125
142.073600 37.212000 0.621680 26.164479
141.985000 36.998100 0.538322 26.939406
141.896400 36.784100 0.485216 27.753733
141.807800 36.570100 0.437466 28.564093
141.719100 36.356100 0.345948 29.322853
141.630500 36.142200 0.171462 29.984243
141.541900 35.928200 0.030691 30.508473
141.453300 35.714200 0.000000 30.858401
141.364700 35.500300 0.000000 31.011748
142.962100 39.824300 0.338058 30.958756
142.873400 39.610300 0.263453 30.699666
142.784800 39.396300 0.214036 30.219253
142.696200 39.182400 0.248323 29.450065
142.607600 38.968400 0.373936 28.274630
142.519000 38.754400 0.533179 26.671724
142.430400 38.540400 0.689067 24.884392
142.341800 38.326500 0.789470 23.280576
142.253100 38.112500 0.822603 22.049593
142.164500 37.898500 0.810423 27.281203
142.075900 37.684600 0.751165 27.121087
141.987300 37.470600 0.668200 27.154990
141.898700 37.256600 0.579791 27.366476
141.810100 37.042600 0.494859 27.745185
141.721500 36.828700 0.438060 28.279303
141.632800 36.614700 0.389602 28.946603
141.544200 36.400700 0.286840 29.721925
141.455600 36.186800 0.120320 30.568235
141.367000 35.972800 0.004994 31.442700
141.278400 35.758800 0.000000 32.297756
141.189800 35.544900 0.000000 33.086014
142.787100 39.868900 0.283860 33.763938
142.698500 39.654900 0.191061 34.289654
142.609900 39.440900 0.133283 34.636875
142.521300 39.226900 0.146914 34.786097
142.432700 39.013000 0.276196 34.731907
142.344100 38.799000 0.441768 34.478602
142.255400 38.585000 0.606943 34.026210
142.166800 38.371100 0.713528 33.336759
142.078200 38.157100 0.771152 32.330008
141.989600 37.943100 0.762209 30.990850
141.901000 37.729200 0.711036 29.456003
141.812400 37.515200 0.634128 27.923130
141.723800 37.301200 0.545938 26.519308
141.635100 37.087200 0.440313 30.882342
141.546500 36.873300 0.381586 30.695575
141.457900 36.659300 0.345854 30.744533
141.369300 36.445300 0.234452 31.003671
141.280700 36.231400 0.077485 31.448233
141.192100 36.017400 0.000000 32.057301
141.103500 35.803400 0.000000 32.804597
141.014800 35.589400 0.000000 33.655397
144.587400 39.890500 0.701504 34.567702
144.498800 39.676500 0.671226 35.492555
144.410200 39.462500 0.671740 36.382942
144.321600 39.248600 0.705461 37.187366
144.233000 39.034600 0.731661 37.865406
144.144400 38.820600 0.792224 38.384392
144.055700 38.606700 0.851633 38.721591
143.967100 38.392700 0.892246 38.862479
143.878500 38.178700 0.930998 38.806021
143.789900 37.964700 0.960974 38.562960
143.701300 37.750800 0.945772 38.140360
143.612700 37.536800 0.933880 37.529462
143.524100 37.322800 0.942185 36.694884
143.435400 37.108900 0.898147 35.616241
143.346800 36.894900 0.896056 34.324674
143.258200 36.680900 0.902970 32.874958
143.169600 36.466900 0.911455 31.398667
143.081000 36.253000 0.919940 10.255462
142.992400 36.039000 0.926854 10.380817
142.903800 35.825000 0.935339 10.875453
142.815100 35.611100 0.943824 10.994291
142.726500 35.397100 0.950738 10.311284
142.637900 35.183100 0.959223 10.221025
144.408100 39.936200 0.705935 9.987253
144.319500 39.722200 0.659208 9.775473
144.230900 39.508200 0.632673 9.762657
144.142300 39.294300 0.619582 10.149553
144.053600 39.080300 0.645919 10.647083
143.965000 38.866300 0.701935 11.119904
143.876400 38.652400 0.782981 11.561529
143.787800 38.438400 0.854788 11.940338
143.699200 38.224400 0.909357 12.225187
143.610600 38.010500 0.957121 12.390032
143.522000 37.796500 0.973015 12.409342
143.433300 37.582500 0.966029 12.347499
143.344700 37.368500 0.939306 12.847199
143.256100 37.154600 0.889368 12.738440
143.167500 36.940600 0.840014 12.664496
143.078900 36.726600 0.782751 12.368556
142.990300 36.512700 0.807786 11.449015
142.901700 36.298700 0.833226 10.353068
142.813000 36.084700 0.848711 9.999857
142.724400 35.870700 0.869470 10.380817
142.635800 35.656800 0.886786 10.656404
142.547200 35.442800 0.905170 10.994291
142.458600 35.228800 0.927450 10.914946
144.228800 39.981900 0.729943 10.434304
144.140200 39.767900 0.668869 10.367809
144.051500 39.554000 0.622205 10.625908
143.962900 39.340000 0.599069 10.964884
143.874300 39.126000 0.620508 11.400907
143.785700 38.912100 0.676758 11.899154
143.697100 38.698100 0.758306 12.417084
143.608500 38.484100 0.839265 12.919160
143.519900 38.270100 0.898862 13.374807
143.431200 38.056200 0.952339 13.755404
143.342600 37.842200 0.968090 14.029265
143.254000 37.628200 0.956017 14.171800
143.165400 37.414300 0.923725 14.161018
143.076800 37.200300 0.879941 13.967102
142.988200 36.986300 0.822099 13.525829
142.899600 36.772300 0.757366 12.730724
142.810900 36.558400 0.695165 12.586594
142.722300 36.344400 0.618984 12.100394
142.633700 36.130400 0.543769 10.853842
142.545100 35.916500 0.537168 10.318028
142.456500 35.702500 0.542377 9.817271
142.367900 35.488500 0.586717 10.370680
142.279300 35.274600 0.628734 10.896549
143.960800 39.813600 0.660021 11.196330
143.872200 39.599700 0.607409 11.608814
143.783600 39.385700 0.566855 11.875815
143.695000 39.171700 0.582832 12.121258
143.606400 38.957800 0.632390 12.427405
143.517800 38.743800 0.719703 12.829499
143.429100 38.529800 0.807796 13.314015
143.340500 38.315900 0.888274 13.845476
143.251900 38.101900 0.939868 14.387668
143.163300 37.887900 0.954622 14.911056
143.074700 37.673900 0.937665 15.383447
142.986100 37.460000 0.906037 15.774607
142.897500 37.246000 0.862172 16.052896
142.808800 37.032000 0.793283 16.189289
142.720200 36.818100 0.733663 16.161481
142.631600 36.604100 0.674442 15.940948
142.543000 36.390100 0.603526 15.463135
142.454400 36.176100 0.491910 14.610194
142.365800 35.962200 0.354989 13.330535
142.277200 35.748200 0.291549 12.100394
142.188500 35.534200 0.372219 10.853842
142.099900 35.320300 0.514491 9.999857
143.781500 39.859400 0.636752 9.948923
143.692900 39.645400 0.566584 12.224560
143.604300 39.431400 0.524637 12.686672
143.515700 39.217400 0.528400 13.147717
143.427000 39.003500 0.573670 13.515902
143.338400 38.789500 0.668122 13.809565
143.249800 38.575500 0.768364 14.104657
143.161200 38.361600 0.864512 14.465991
143.072600 38.147600 0.925564 14.913744
142.984000 37.933600 0.939334 15.431936
142.895400 37.719700 0.922232 15.993220
142.806700 37.505700 0.881464 16.565760
142.718100 37.291700 0.821982 17.120492
142.629500 37.077700 0.753615 17.624836
142.540900 36.863800 0.708472 18.042488
142.452300 36.649800 0.642615 18.337594
142.363700 36.435800 0.570630 18.478262
142.275100 36.221900 0.458774 18.443098
142.186400 36.007900 0.338245 18.205763
142.097800 35.793900 0.269863 17.708033
142.009200 35.579900 0.328335 16.834667
141.920600 35.366000 0.000000 15.493977
142.607200 39.911200 0.246082 13.812406
142.518600 39.697200 0.022757 12.187741
142.430000 39.483200 0.047788 11.051119
142.341300 39.269200 0.070542 10.576451
142.252700 39.055300 0.185413 14.563779
142.164100 38.841300 0.349089 14.961524
142.075500 38.627300 0.502113 15.352530
141.986900 38.413400 0.610027 15.682547
141.898300 38.199400 0.689345 15.980977
141.809700 37.985400 0.697972 16.311573
141.721000 37.771500 0.660996 16.717751
141.632400 37.557500 0.597815 17.209554
141.543800 37.343500 0.513235 17.769047
141.455200 37.129500 0.399230 18.373397
141.366600 36.915600 0.337970 18.994291
141.278000 36.701600 0.288783 19.597894
141.189400 36.487600 0.171024 20.146095
141.100700 36.273700 0.006343 20.598208
141.012100 36.059700 0.000000 20.915711
140.923500 35.845700 0.000000 21.064107
140.834900 35.631700 0.000000 21.023172
142.438100 39.954300 0.007227 20.774788
142.349500 39.740300 0.000000 20.270090
142.260900 39.526300 0.000000 19.397211
142.172300 39.312300 0.009551 18.033401
142.083700 39.098400 0.094341 16.242635
141.995000 38.884400 0.250865 14.412126
141.906400 38.670400 0.378238 13.044984
141.817800 38.456500 0.479816 12.393946
141.729200 38.242500 0.563561 34.809763
141.640600 38.028500 0.614338 34.644413
141.552000 37.814500 0.603267 34.745364
141.463400 37.600600 0.563986 35.075695
141.374700 37.386600 0.481298 35.606103
141.286100 37.172600 0.391336 36.305555
141.197500 36.958700 0.315482 37.140075
141.108900 36.744700 0.250444 38.070271
141.020300 36.530700 0.142818 39.043647
140.931700 36.316800 0.000023 40.009929
140.843100 36.102800 0.000000 40.919149
140.754400 35.888800 0.000000 41.726670
140.665800 35.674800 0.000000 42.394184
142.269100 39.997400 0.000000 42.895022
142.180400 39.783400 0.000000 43.215096
142.091800 39.569400 0.000000 43.340352
142.003200 39.355400 0.000000 43.276456
141.914600 39.141500 0.052595 43.035930
141.826000 38.927500 0.140760 42.639097
141.737400 38.713500 0.206033 42.096546
141.648800 38.499600 0.307912 41.400053
141.560100 38.285600 0.403511 40.518955
141.471500 38.071600 0.497387 39.395718
141.382900 37.857600 0.521776 38.019137
141.294300 37.643700 0.516439 36.606734
141.205700 37.429700 0.446998 38.773507
141.117100 37.215700 0.381484 38.653300
141.028500 37.001800 0.297481 38.825803
140.939800 36.787800 0.227653 39.241186
140.851200 36.573800 0.148277 39.864348
140.762600 36.359900 0.000000 40.656461
140.674000 36.145900 0.000000 41.576230
140.585400 35.931900 0.000000 42.575487
140.496800 35.717900 0.000000 43.602133
