143.533400 36.904400 0.000038 2.648000
143.523700 36.860100 0.000000 2.648000
143.513900 36.815700 0.000000 2.648000
143.504200 36.771400 0.000000 2.648000
143.494500 36.727000 0.000000 2.648000
143.484800 36.682700 0.000013 2.648000
143.475100 36.638400 0.000013 2.648000
143.465400 36.594000 0.000013 2.648000
143.455700 36.549700 0.000017 2.648000
143.445900 36.505300 0.000017 2.648000
143.436200 36.461000 0.000017 2.648000
143.426500 36.416600 0.000017 2.648000
143.416800 36.372300 0.000000 2.648000
143.407100 36.328000 0.000000 2.648000
143.397400 36.283600 0.000000 2.648000
143.387700 36.239300 0.000000 2.648000
143.377900 36.194900 0.000000 2.648000
143.368200 36.150600 0.000000 2.648000
143.358500 36.106300 0.000000 2.648000
143.348800 36.061900 0.000000 2.648000
143.339100 36.017600 0.000002 2.648000
143.329400 35.973200 0.000002 2.648000
143.319600 35.928900 0.000002 2.648000
143.309900 35.884500 0.000002 2.648000
143.300200 35.840200 0.000022 2.648000
144.101900 39.749500 0.001008 3.942400
144.092200 39.705200 0.009911 3.942400
144.082400 39.660900 0.009911 3.942400
144.072700 39.616500 0.005331 3.942400
144.063000 39.572200 0.005331 3.942400
144.053300 39.527800 0.005331 3.942400
144.043600 39.483500 0.004633 3.942400
144.033900 39.439100 0.004633 3.942400
144.024100 39.394800 0.012180 3.942400
144.014400 39.350500 0.004085 3.942400
144.004700 39.306100 0.004085 3.942400
143.995000 39.261800 0.002598 3.942400
143.985300 39.217400 0.002598 3.942400
143.975600 39.173100 0.005609 3.942400
143.965900 39.128700 0.005609 3.942400
143.956100 39.084400 0.003134 3.942400
143.946400 39.040100 0.003134 3.942400
143.936700 38.995700 0.005861 3.942400
143.927000 38.951400 0.002826 3.942400
143.917300 38.907000 0.002826 3.942400
143.907600 38.862700 0.003105 3.942400
143.897900 38.818400 0.003105 3.942400
143.888100 38.774000 0.003105 3.942400
143.878400 38.729700 0.002816 3.942400
143.868700 38.685300 0.002816 3.942400
143.859000 38.641000 0.002519 3.942400
143.849300 38.596600 0.002519 3.942400
143.839600 38.552300 0.002519 3.942400
143.829900 38.508000 0.000130 3.942400
143.820100 38.463600 0.000130 3.942400
143.810400 38.419300 0.002509 3.942400
143.800700 38.374900 0.003006 3.942400
143.791000 38.330600 0.000460 3.942400
143.781300 38.286200 0.000460 3.942400
143.771600 38.241900 0.000033 3.942400
143.761800 38.197600 0.000852 3.942400
143.752100 38.153200 0.000852 3.942400
143.742400 38.108900 0.000000 3.942400
143.732700 38.064500 0.000000 3.942400
143.723000 38.020200 0.000672 3.942400
143.713300 37.975800 0.000000 3.942400
143.703600 37.931500 0.000000 3.942400
143.693800 37.887200 0.000632 3.942400
143.684100 37.842800 0.000029 3.942400
143.674400 37.798500 0.000029 3.942400
143.664700 37.754100 0.000000 3.942400
143.655000 37.709800 0.000000 3.942400
143.645300 37.665500 0.000000 3.942400
143.635600 37.621100 0.000012 3.942400
143.625800 37.576800 0.000012 3.942400
143.616100 37.532400 0.000012 3.942400
143.606400 37.488100 0.000010 3.942400
143.596700 37.443700 0.000010 3.942400
143.587000 37.399400 0.000010 3.942400
143.577300 37.355100 0.000000 3.942400
143.567500 37.310700 0.000000 3.942400
143.557800 37.266400 0.000000 3.942400
143.548100 37.222000 0.000000 3.942400
143.538400 37.177700 0.000028 3.942400
143.528700 37.133300 0.000028 3.942400
143.519000 37.089000 0.000038 3.942400
143.509300 37.044700 0.000038 3.942400
143.499500 37.000300 0.000038 3.942400
143.489800 36.956000 0.000038 3.942400
143.480100 36.911600 0.000038 3.942400
143.470400 36.867300 0.000000 3.942400
143.460700 36.823000 0.000000 3.942400
143.451000 36.778600 0.000000 3.942400
143.441300 36.734300 0.000013 3.942400
143.431500 36.689900 0.000013 3.942400
143.421800 36.645600 0.000013 3.942400
143.412100 36.601200 0.000017 3.942400
143.402400 36.556900 0.000017 3.942400
143.392700 36.512600 0.000017 3.942400
143.383000 36.468200 0.000017 3.942400
143.373300 36.423900 0.000000 3.942400
143.363500 36.379500 0.000000 3.942400
143.353800 36.335200 0.000000 3.942400
143.344100 36.290800 0.000000 3.942400
143.334400 36.246500 0.000000 3.942400
143.324700 36.202200 0.000000 3.942400
143.315000 36.157800 0.000000 3.942400
143.305200 36.113500 0.000000 3.942400
143.295500 36.069100 0.000002 3.942400
143.285800 36.024800 0.000002 3.942400
143.276100 35.980500 0.000002 3.942400
143.266400 35.936100 0.000002 3.942400
143.256700 35.891800 0.000022 3.942400
143.247000 35.847400 0.000022 3.942400
144.048600 39.756800 0.009911 5.236900
144.038900 39.712400 0.009911 5.236900
144.029200 39.668100 0.015685 5.236900
144.019500 39.623700 0.014029 5.236900
144.009700 39.579400 0.014029 5.236900
144.000000 39.535100 0.005331 5.236900
143.990300 39.490700 0.004633 5.236900
143.980600 39.446400 0.012180 5.236900
143.970900 39.402000 0.012180 5.236900
143.961200 39.357700 0.010917 5.236900
143.951500 39.313300 0.010917 5.236900
143.941700 39.269000 0.010917 5.236900
143.932000 39.224700 0.005609 5.236900
143.922300 39.180300 0.005609 5.236900
143.912600 39.136000 0.005609 5.236900
143.902900 39.091600 0.003134 5.236900
143.893200 39.047300 0.005861 5.236900
143.883500 39.002900 0.005861 5.236900
143.873700 38.958600 0.005861 5.236900
143.864000 38.914300 0.002826 5.236900
143.854300 38.869900 0.003105 5.236900
143.844600 38.825600 0.008178 5.236900
143.834900 38.781200 0.008178 5.236900
143.825200 38.736900 0.006624 5.236900
143.815500 38.692600 0.006624 5.236900
143.805700 38.648200 0.002519 5.236900
143.796000 38.603900 0.006520 5.236900
143.786300 38.559500 0.006520 5.236900
143.776600 38.515200 0.006984 5.236900
143.766900 38.470800 0.002509 5.236900
143.757200 38.426500 0.002509 5.236900
143.747400 38.382200 0.003006 5.236900
143.737700 38.337800 0.003006 5.236900
143.728000 38.293500 0.008017 5.236900
143.718300 38.249100 0.007111 5.236900
143.708600 38.204800 0.000852 5.236900
143.698900 38.160400 0.000852 5.236900
143.689200 38.116100 0.000000 5.236900
143.679400 38.071800 0.000672 5.236900
143.669700 38.027400 0.000672 5.236900
143.660000 37.983100 0.000672 5.236900
143.650300 37.938700 0.000632 5.236900
143.640600 37.894400 0.000632 5.236900
143.630900 37.850000 0.000632 5.236900
143.621200 37.805700 0.000029 5.236900
143.611400 37.761400 0.000000 5.236900
143.601700 37.717000 0.000658 5.236900
143.592000 37.672700 0.000658 5.236900
143.582300 37.628300 0.000012 5.236900
143.572600 37.584000 0.000012 5.236900
143.562900 37.539700 0.000504 5.236900
143.553100 37.495300 0.000010 5.236900
143.543400 37.451000 0.000010 5.236900
143.533700 37.406600 0.000010 5.236900
143.524000 37.362300 0.000000 5.236900
143.514300 37.317900 0.000000 5.236900
143.504600 37.273600 0.000000 5.236900
143.494900 37.229300 0.000028 5.236900
143.485100 37.184900 0.000028 5.236900
143.475400 37.140600 0.000028 5.236900
143.465700 37.096200 0.000038 5.236900
143.456000 37.051900 0.000038 5.236900
143.446300 37.007500 0.000038 5.236900
143.436600 36.963200 0.000038 5.236900
143.426900 36.918900 0.000000 5.236900
143.417100 36.874500 0.000000 5.236900
143.407400 36.830200 0.000000 5.236900
143.397700 36.785800 0.000000 5.236900
143.388000 36.741500 0.000013 5.236900
143.378300 36.697200 0.000013 5.236900
143.368600 36.652800 0.000013 5.236900
143.358900 36.608500 0.000017 5.236900
143.349100 36.564100 0.000017 5.236900
143.339400 36.519800 0.000017 5.236900
143.329700 36.475400 0.000017 5.236900
143.320000 36.431100 0.000000 5.236900
143.310300 36.386800 0.000000 5.236900
143.300600 36.342400 0.000000 5.236900
143.290800 36.298100 0.000000 5.236900
143.281100 36.253700 0.000000 5.236900
143.271400 36.209400 0.000000 5.236900
143.261700 36.165000 0.000000 5.236900
143.252000 36.120700 0.000002 5.236900
143.242300 36.076400 0.000002 5.236900
143.232600 36.032000 0.000002 5.236900
143.222800 35.987700 0.000002 5.236900
143.213100 35.943300 0.000022 5.236900
143.203400 35.899000 0.000022 5.236900
143.193700 35.854600 0.000022 5.236900
143.995300 39.764000 0.009911 6.531300
143.985600 39.719600 0.015685 6.531300
143.975900 39.675300 0.015685 6.531300
143.966200 39.631000 0.014029 6.531300
143.956500 39.586600 0.014029 6.531300
143.946800 39.542300 0.014029 6.531300
143.937100 39.497900 0.012180 6.531300
143.927300 39.453600 0.012180 6.531300
143.917600 39.409300 0.012180 6.531300
143.907900 39.364900 0.010917 6.531300
143.898200 39.320600 0.023469 6.531300
143.888500 39.276200 0.023469 6.531300
143.878800 39.231900 0.018561 6.531300
143.869100 39.187500 0.018561 6.531300
143.859300 39.143200 0.018561 6.531300
143.849600 39.098900 0.018561 6.531300
143.839900 39.054500 0.005861 6.531300
143.830200 39.010200 0.005861 6.531300
143.820500 38.965800 0.005861 6.531300
143.810800 38.921500 0.018558 6.531300
143.801100 38.877100 0.008178 6.531300
143.791300 38.832800 0.008178 6.531300
143.781600 38.788500 0.008178 6.531300
143.771900 38.744100 0.006624 6.531300
143.762200 38.699800 0.012003 6.531300
143.752500 38.655400 0.012003 6.531300
143.742800 38.611100 0.006520 6.531300
143.733000 38.566700 0.006520 6.531300
143.723300 38.522400 0.006984 6.531300
143.713600 38.478100 0.006984 6.531300
143.703900 38.433700 0.002509 6.531300
143.694200 38.389400 0.003006 6.531300
143.684500 38.345000 0.008017 6.531300
143.674800 38.300700 0.008017 6.531300
143.665000 38.256400 0.007111 6.531300
143.655300 38.212000 0.007111 6.531300
143.645600 38.167700 0.007111 6.531300
143.635900 38.123300 0.018485 6.531300
143.626200 38.079000 0.009402 6.531300
143.616500 38.034600 0.009402 6.531300
143.606800 37.990300 0.009402 6.531300
143.597000 37.946000 0.000632 6.531300
143.587300 37.901600 0.007824 6.531300
143.577600 37.857300 0.007824 6.531300
143.567900 37.812900 0.007824 6.531300
143.558200 37.768600 0.000658 6.531300
143.548500 37.724200 0.000658 6.531300
143.538800 37.679900 0.000658 6.531300
143.529000 37.635600 0.000012 6.531300
143.519300 37.591200 0.000504 6.531300
143.509600 37.546900 0.000504 6.531300
143.499900 37.502500 0.000504 6.531300
143.490200 37.458200 0.000010 6.531300
143.480500 37.413900 0.000466 6.531300
143.470700 37.369500 0.000000 6.531300
143.461000 37.325200 0.000000 6.531300
143.451300 37.280800 0.000000 6.531300
143.441600 37.236500 0.000028 6.531300
143.431900 37.192100 0.000028 6.531300
143.422200 37.147800 0.000028 6.531300
143.412500 37.103500 0.000038 6.531300
143.402700 37.059100 0.000038 6.531300
143.393000 37.014800 0.000038 6.531300
143.383300 36.970400 0.000000 6.531300
143.373600 36.926100 0.000000 6.531300
143.363900 36.881700 0.000000 6.531300
143.354200 36.837400 0.000000 6.531300
143.344500 36.793100 0.000013 6.531300
143.334700 36.748700 0.000013 6.531300
143.325000 36.704400 0.000013 6.531300
143.315300 36.660000 0.000017 6.531300
143.305600 36.615700 0.000017 6.531300
143.295900 36.571400 0.000017 6.531300
143.286200 36.527000 0.000017 6.531300
143.276400 36.482700 0.000000 6.531300
143.266700 36.438300 0.000000 6.531300
143.257000 36.394000 0.000000 6.531300
143.247300 36.349600 0.000000 6.531300
143.237600 36.305300 0.000000 6.531300
143.227900 36.261000 0.000000 6.531300
143.218200 36.216600 0.000000 6.531300
143.208400 36.172300 0.000002 6.531300
143.198700 36.127900 0.000002 6.531300
143.189000 36.083600 0.000002 6.531300
143.179300 36.039200 0.000002 6.531300
143.169600 35.994900 0.000022 6.531300
143.159900 35.950600 0.000022 6.531300
143.150200 35.906200 0.000022 6.531300
143.140400 35.861900 0.000012 6.531300
143.942100 39.771200 0.014765 7.825800
143.932400 39.726900 0.028203 7.825800
143.922700 39.682500 0.015685 7.825800
143.912900 39.638200 0.028318 7.825800
143.903200 39.593800 0.028318 7.825800
143.893500 39.549500 0.028318 7.825800
143.883800 39.505200 0.033591 7.825800
143.874100 39.460800 0.025870 7.825800
143.864400 39.416500 0.025870 7.825800
143.854700 39.372100 0.023469 7.825800
143.844900 39.327800 0.023469 7.825800
143.835200 39.283500 0.023469 7.825800
143.825500 39.239100 0.026396 7.825800
143.815800 39.194800 0.018561 7.825800
143.806100 39.150400 0.018561 7.825800
143.796400 39.106100 0.026103 7.825800
143.786700 39.061700 0.018558 7.825800
143.776900 39.017400 0.018558 7.825800
143.767200 38.973100 0.018558 7.825800
143.757500 38.928700 0.027476 7.825800
143.747800 38.884400 0.022293 7.825800
143.738100 38.840000 0.022293 7.825800
143.728400 38.795700 0.022293 7.825800
143.718600 38.751300 0.012003 7.825800
143.708900 38.707000 0.012003 7.825800
143.699200 38.662700 0.012003 7.825800
143.689500 38.618300 0.006520 7.825800
143.679800 38.574000 0.006984 7.825800
143.670100 38.529600 0.006984 7.825800
143.660400 38.485300 0.018168 7.825800
143.650600 38.440900 0.018168 7.825800
143.640900 38.396600 0.018011 7.825800
143.631200 38.352300 0.018011 7.825800
143.621500 38.307900 0.008017 7.825800
143.611800 38.263600 0.007111 7.825800
143.602100 38.219200 0.018485 7.825800
143.592400 38.174900 0.018485 7.825800
143.582600 38.130600 0.017630 7.825800
143.572900 38.086200 0.017630 7.825800
143.563200 38.041900 0.009402 7.825800
143.553500 37.997500 0.009402 7.825800
143.543800 37.953200 0.012969 7.825800
143.534100 37.908800 0.007824 7.825800
143.524400 37.864500 0.007824 7.825800
143.514600 37.820200 0.011995 7.825800
143.504900 37.775800 0.011995 7.825800
143.495200 37.731500 0.006111 7.825800
143.485500 37.687100 0.006111 7.825800
143.475800 37.642800 0.006111 7.825800
143.466100 37.598400 0.000504 7.825800
143.456300 37.554100 0.000504 7.825800
143.446600 37.509800 0.000504 7.825800
143.436900 37.465400 0.000466 7.825800
143.427200 37.421100 0.000466 7.825800
143.417500 37.376700 0.000466 7.825800
143.407800 37.332400 0.000430 7.825800
143.398100 37.288100 0.000430 7.825800
143.388300 37.243700 0.000028 7.825800
143.378600 37.199400 0.000028 7.825800
143.368900 37.155000 0.000682 7.825800
143.359200 37.110700 0.000038 7.825800
143.349500 37.066300 0.000038 7.825800
143.339800 37.022000 0.000280 7.825800
143.330100 36.977700 0.000000 7.825800
143.320300 36.933300 0.000000 7.825800
143.310600 36.889000 0.000000 7.825800
143.300900 36.844600 0.000013 7.825800
143.291200 36.800300 0.000013 7.825800
143.281500 36.755900 0.000013 7.825800
143.271800 36.711600 0.000013 7.825800
143.262000 36.667300 0.000017 7.825800
143.252300 36.622900 0.000017 7.825800
143.242600 36.578600 0.000017 7.825800
143.232900 36.534200 0.000000 7.825800
143.223200 36.489900 0.000000 7.825800
143.213500 36.445500 0.000000 7.825800
143.203800 36.401200 0.000000 7.825800
143.194000 36.356900 0.000000 7.825800
143.184300 36.312500 0.000000 7.825800
143.174600 36.268200 0.000000 7.825800
143.164900 36.223800 0.000000 7.825800
143.155200 36.179500 0.000002 7.825800
143.145500 36.135200 0.000002 7.825800
143.135800 36.090800 0.000002 7.825800
143.126000 36.046500 0.000002 7.825800
143.116300 36.002100 0.000022 7.825800
143.106600 35.957800 0.000022 7.825800
143.096900 35.913400 0.000012 7.825800
143.087200 35.869100 0.000012 7.825800
143.888800 39.778400 0.030073 9.120200
143.879100 39.734100 0.028203 9.120200
143.869400 39.689800 0.028203 9.120200
143.859700 39.645400 0.037415 9.120200
143.850000 39.601100 0.028318 9.120200
143.840300 39.556700 0.028318 9.120200
143.830500 39.512400 0.033591 9.120200
143.820800 39.468000 0.033591 9.120200
143.811100 39.423700 0.031432 9.120200
143.801400 39.379400 0.031432 9.120200
143.791700 39.335000 0.031432 9.120200
143.782000 39.290700 0.026396 9.120200
143.772300 39.246300 0.026396 9.120200
143.762500 39.202000 0.026396 9.120200
143.752800 39.157600 0.026103 9.120200
143.743100 39.113300 0.026103 9.120200
143.733400 39.069000 0.026103 9.120200
143.723700 39.024600 0.018558 9.120200
143.714000 38.980300 0.027476 9.120200
143.704200 38.935900 0.027476 9.120200
143.694500 38.891600 0.022293 9.120200
143.684800 38.847300 0.022293 9.120200
143.675100 38.802900 0.022293 9.120200
143.665400 38.758600 0.033128 9.120200
143.655700 38.714200 0.027134 9.120200
143.646000 38.669900 0.027134 9.120200
143.636200 38.625500 0.027134 9.120200
143.626500 38.581200 0.035694 9.120200
143.616800 38.536900 0.018168 9.120200
143.607100 38.492500 0.018168 9.120200
143.597400 38.448200 0.018168 9.120200
143.587700 38.403800 0.018011 9.120200
143.578000 38.359500 0.018011 9.120200
143.568200 38.315100 0.031606 9.120200
143.558500 38.270800 0.032939 9.120200
143.548800 38.226500 0.018485 9.120200
143.539100 38.182100 0.018485 9.120200
143.529400 38.137800 0.017630 9.120200
143.519700 38.093400 0.017630 9.120200
143.510000 38.049100 0.017630 9.120200
143.500200 38.004800 0.012969 9.120200
143.490500 37.960400 0.012969 9.120200
143.480800 37.916100 0.012969 9.120200
143.471100 37.871700 0.011995 9.120200
143.461400 37.827400 0.011995 9.120200
143.451700 37.783000 0.011995 9.120200
143.441900 37.738700 0.006111 9.120200
143.432200 37.694400 0.006111 9.120200
143.422500 37.650000 0.010124 9.120200
143.412800 37.605700 0.006188 9.120200
143.403100 37.561300 0.006188 9.120200
143.393400 37.517000 0.006188 9.120200
143.383700 37.472600 0.005688 9.120200
143.373900 37.428300 0.005688 9.120200
143.364200 37.384000 0.005688 9.120200
143.354500 37.339600 0.000430 9.120200
143.344800 37.295300 0.000430 9.120200
143.335100 37.250900 0.000430 9.120200
143.325400 37.206600 0.000682 9.120200
143.315700 37.162300 0.000682 9.120200
143.305900 37.117900 0.000038 9.120200
143.296200 37.073600 0.000280 9.120200
143.286500 37.029200 0.000280 9.120200
143.276800 36.984900 0.000000 9.120200
143.267100 36.940500 0.000000 9.120200
143.257400 36.896200 0.000000 9.120200
143.247600 36.851900 0.000013 9.120200
143.237900 36.807500 0.000013 9.120200
143.228200 36.763200 0.000013 9.120200
143.218500 36.718800 0.000017 9.120200
143.208800 36.674500 0.000017 9.120200
143.199100 36.630100 0.000017 9.120200
143.189400 36.585800 0.000017 9.120200
143.179600 36.541500 0.000000 9.120200
143.169900 36.497100 0.000000 9.120200
143.160200 36.452800 0.000000 9.120200
143.150500 36.408400 0.000000 9.120200
143.140800 36.364100 0.000000 9.120200
143.131100 36.319700 0.000000 9.120200
143.121400 36.275400 0.000000 9.120200
143.111600 36.231100 0.000002 9.120200
143.101900 36.186700 0.000002 9.120200
143.092200 36.142400 0.000002 9.120200
143.082500 36.098000 0.000002 9.120200
143.072800 36.053700 0.000022 9.120200
143.063100 36.009400 0.000022 9.120200
143.053400 35.965000 0.000022 9.120200
143.043600 35.920700 0.000012 9.120200
143.033900 35.876300 0.000012 9.120200
143.835600 39.785700 0.030073 10.414700
143.825900 39.741300 0.028203 10.414700
143.816100 39.697000 0.037415 10.414700
143.806400 39.652600 0.037415 10.414700
143.796700 39.608300 0.037415 10.414700
143.787000 39.564000 0.033591 10.414700
143.777300 39.519600 0.033591 10.414700
143.767600 39.475300 0.033591 10.414700
143.757900 39.430900 0.031432 10.414700
143.748100 39.386600 0.031432 10.414700
143.738400 39.342200 0.053033 10.414700
143.728700 39.297900 0.026396 10.414700
143.719000 39.253600 0.026396 10.414700
143.709300 39.209200 0.051310 10.414700
143.699600 39.164900 0.026103 10.414700
143.689800 39.120500 0.026103 10.414700
143.680100 39.076200 0.026103 10.414700
143.670400 39.031800 0.026103 10.414700
143.660700 38.987500 0.027476 10.414700
143.651000 38.943200 0.027476 10.414700
143.641300 38.898800 0.027476 10.414700
143.631600 38.854500 0.033128 10.414700
143.621800 38.810100 0.033128 10.414700
143.612100 38.765800 0.033128 10.414700
143.602400 38.721500 0.027134 10.414700
143.592700 38.677100 0.027134 10.414700
143.583000 38.632800 0.040912 10.414700
143.573300 38.588400 0.035694 10.414700
143.563600 38.544100 0.035694 10.414700
143.553800 38.499700 0.035694 10.414700
143.544100 38.455400 0.018168 10.414700
143.534400 38.411100 0.031606 10.414700
143.524700 38.366700 0.031606 10.414700
143.515000 38.322400 0.031606 10.414700
143.505300 38.278000 0.032939 10.414700
143.495600 38.233700 0.032939 10.414700
143.485800 38.189300 0.032939 10.414700
143.476100 38.145000 0.017630 10.414700
143.466400 38.100700 0.034513 10.414700
143.456700 38.056300 0.034513 10.414700
143.447000 38.012000 0.027953 10.414700
143.437300 37.967600 0.027953 10.414700
143.427500 37.923300 0.027953 10.414700
143.417800 37.879000 0.027512 10.414700
143.408100 37.834600 0.027512 10.414700
143.398400 37.790300 0.027512 10.414700
143.388700 37.745900 0.027512 10.414700
143.379000 37.701600 0.010124 10.414700
143.369300 37.657200 0.010124 10.414700
143.359500 37.612900 0.010124 10.414700
143.349800 37.568600 0.006188 10.414700
143.340100 37.524200 0.011790 10.414700
143.330400 37.479900 0.011790 10.414700
143.320700 37.435500 0.005688 10.414700
143.311000 37.391200 0.006082 10.414700
143.301300 37.346800 0.006082 10.414700
143.291500 37.302500 0.006082 10.414700
143.281800 37.258200 0.005347 10.414700
143.272100 37.213800 0.005347 10.414700
143.262400 37.169500 0.005347 10.414700
143.252700 37.125100 0.003284 10.414700
143.243000 37.080800 0.003284 10.414700
143.233200 37.036500 0.000280 10.414700
143.223500 36.992100 0.000000 10.414700
143.213800 36.947800 0.000446 10.414700
143.204100 36.903400 0.000446 10.414700
143.194400 36.859100 0.000013 10.414700
143.184700 36.814700 0.000013 10.414700
143.175000 36.770400 0.000017 10.414700
143.165200 36.726100 0.000017 10.414700
143.155500 36.681700 0.000017 10.414700
143.145800 36.637400 0.000017 10.414700
143.136100 36.593000 0.000000 10.414700
143.126400 36.548700 0.000000 10.414700
143.116700 36.504300 0.000000 10.414700
143.107000 36.460000 0.000000 10.414700
143.097200 36.415700 0.000000 10.414700
143.087500 36.371300 0.000000 10.414700
143.077800 36.327000 0.000000 10.414700
143.068100 36.282600 0.000002 10.414700
143.058400 36.238300 0.000002 10.414700
143.048700 36.193900 0.000002 10.414700
143.039000 36.149600 0.000002 10.414700
143.029200 36.105300 0.000022 10.414700
143.019500 36.060900 0.000022 10.414700
143.009800 36.016600 0.000022 10.414700
143.000100 35.972200 0.000012 10.414700
142.990400 35.927900 0.000012 10.414700
142.980700 35.883600 0.000012 10.414700
143.782300 39.792900 0.067782 11.709100
143.772600 39.748600 0.059926 11.709100
143.762900 39.704200 0.059926 11.709100
143.753200 39.659900 0.059926 11.709100
143.743500 39.615500 0.075666 11.709100
143.733700 39.571200 0.059585 11.709100
143.724000 39.526800 0.059585 11.709100
143.714300 39.482500 0.059585 11.709100
143.704600 39.438200 0.053033 11.709100
143.694900 39.393800 0.053033 11.709100
143.685200 39.349500 0.053033 11.709100
143.675400 39.305100 0.051310 11.709100
143.665700 39.260800 0.051310 11.709100
143.656000 39.216400 0.051310 11.709100
143.646300 39.172100 0.060470 11.709100
143.636600 39.127800 0.050481 11.709100
143.626900 39.083400 0.050481 11.709100
143.617200 39.039100 0.050481 11.709100
143.607400 38.994700 0.053771 11.709100
143.597700 38.950400 0.053771 11.709100
143.588000 38.906000 0.053771 11.709100
143.578300 38.861700 0.033128 11.709100
143.568600 38.817400 0.033128 11.709100
143.558900 38.773000 0.033128 11.709100
143.549200 38.728700 0.040912 11.709100
143.539400 38.684300 0.040912 11.709100
143.529700 38.640000 0.040912 11.709100
143.520000 38.595700 0.035694 11.709100
143.510300 38.551300 0.035694 11.709100
143.500600 38.507000 0.035694 11.709100
143.490900 38.462600 0.054969 11.709100
143.481200 38.418300 0.049944 11.709100
143.471400 38.373900 0.049944 11.709100
143.461700 38.329600 0.031606 11.709100
143.452000 38.285300 0.032939 11.709100
143.442300 38.240900 0.055304 11.709100
143.432600 38.196600 0.055304 11.709100
143.422900 38.152200 0.034513 11.709100
143.413100 38.107900 0.034513 11.709100
143.403400 38.063500 0.034513 11.709100
143.393700 38.019200 0.027953 11.709100
143.384000 37.974900 0.027953 11.709100
143.374300 37.930500 0.035359 11.709100
143.364600 37.886200 0.035359 11.709100
143.354900 37.841800 0.027512 11.709100
143.345100 37.797500 0.027512 11.709100
143.335400 37.753200 0.037992 11.709100
143.325700 37.708800 0.030257 11.709100
143.316000 37.664500 0.030257 11.709100
143.306300 37.620100 0.030257 11.709100
143.296600 37.575800 0.011790 11.709100
143.286900 37.531400 0.011790 11.709100
143.277100 37.487100 0.011790 11.709100
143.267400 37.442800 0.011790 11.709100
143.257700 37.398400 0.006082 11.709100
143.248000 37.354100 0.006082 11.709100
143.238300 37.309700 0.019393 11.709100
143.228600 37.265400 0.016788 11.709100
143.218800 37.221000 0.005347 11.709100
143.209100 37.176700 0.005347 11.709100
143.199400 37.132400 0.003284 11.709100
143.189700 37.088000 0.003284 11.709100
143.180000 37.043700 0.003284 11.709100
143.170300 36.999300 0.000446 11.709100
143.160600 36.955000 0.000446 11.709100
143.150800 36.910600 0.000446 11.709100
143.141100 36.866300 0.000013 11.709100
143.131400 36.822000 0.000579 11.709100
143.121700 36.777600 0.000017 11.709100
143.112000 36.733300 0.000017 11.709100
143.102300 36.688900 0.000017 11.709100
143.092600 36.644600 0.000000 11.709100
143.082800 36.600300 0.000000 11.709100
143.073100 36.555900 0.000000 11.709100
143.063400 36.511600 0.000000 11.709100
143.053700 36.467200 0.000000 11.709100
143.044000 36.422900 0.000000 11.709100
143.034300 36.378500 0.000000 11.709100
143.024600 36.334200 0.000000 11.709100
143.014800 36.289900 0.000002 11.709100
143.005100 36.245500 0.000002 11.709100
142.995400 36.201200 0.000002 11.709100
142.985700 36.156800 0.000002 11.709100
142.976000 36.112500 0.000022 11.709100
142.966300 36.068100 0.000022 11.709100
142.956500 36.023800 0.000022 11.709100
142.946800 35.979500 0.000012 11.709100
142.937100 35.935100 0.000012 11.709100
142.927400 35.890800 0.000012 11.709100
143.729100 39.800100 0.067782 13.003600
143.719300 39.755800 0.067782 13.003600
143.709600 39.711400 0.059926 13.003600
143.699900 39.667100 0.075666 13.003600
143.690200 39.622700 0.075666 13.003600
143.680500 39.578400 0.076123 13.003600
143.670800 39.534100 0.059585 13.003600
143.661000 39.489700 0.064018 13.003600
143.651300 39.445400 0.064018 13.003600
143.641600 39.401000 0.053033 13.003600
143.631900 39.356700 0.061634 13.003600
143.622200 39.312400 0.061634 13.003600
143.612500 39.268000 0.051310 13.003600
143.602800 39.223700 0.060470 13.003600
143.593000 39.179300 0.060470 13.003600
143.583300 39.135000 0.050481 13.003600
143.573600 39.090600 0.050481 13.003600
143.563900 39.046300 0.063039 13.003600
143.554200 39.002000 0.063039 13.003600
143.544500 38.957600 0.053771 13.003600
143.534800 38.913300 0.053771 13.003600
143.525000 38.868900 0.066379 13.003600
143.515300 38.824600 0.058361 13.003600
143.505600 38.780200 0.058361 13.003600
143.495900 38.735900 0.071550 13.003600
143.486200 38.691600 0.066069 13.003600
143.476500 38.647200 0.066069 13.003600
143.466800 38.602900 0.066069 13.003600
143.457000 38.558500 0.054969 13.003600
143.447300 38.514200 0.054969 13.003600
143.437600 38.469900 0.054969 13.003600
143.427900 38.425500 0.049944 13.003600
143.418200 38.381200 0.049944 13.003600
143.408500 38.336800 0.064828 13.003600
143.398700 38.292500 0.055304 13.003600
143.389000 38.248100 0.055304 13.003600
143.379300 38.203800 0.065130 13.003600
143.369600 38.159500 0.057758 13.003600
143.359900 38.115100 0.057758 13.003600
143.350200 38.070800 0.057758 13.003600
143.340500 38.026400 0.027953 13.003600
143.330700 37.982100 0.035359 13.003600
143.321000 37.937700 0.035359 13.003600
143.311300 37.893400 0.035359 13.003600
143.301600 37.849100 0.037992 13.003600
143.291900 37.804700 0.037992 13.003600
143.282200 37.760400 0.037992 13.003600
143.272500 37.716000 0.030257 13.003600
143.262700 37.671700 0.030257 13.003600
143.253000 37.627400 0.030257 13.003600
143.243300 37.583000 0.033598 13.003600
143.233600 37.538700 0.033598 13.003600
143.223900 37.494300 0.033598 13.003600
143.214200 37.450000 0.033598 13.003600
143.204400 37.405600 0.019393 13.003600
143.194700 37.361300 0.019393 13.003600
143.185000 37.317000 0.019393 13.003600
143.175300 37.272600 0.016788 13.003600
143.165600 37.228300 0.016788 13.003600
143.155900 37.183900 0.016788 13.003600
143.146200 37.139600 0.003284 13.003600
143.136400 37.095200 0.010324 13.003600
143.126700 37.050900 0.010324 13.003600
143.117000 37.006600 0.005839 13.003600
143.107300 36.962200 0.005839 13.003600
143.097600 36.917900 0.005839 13.003600
143.087900 36.873500 0.000579 13.003600
143.078200 36.829200 0.000579 13.003600
143.068400 36.784800 0.000017 13.003600
143.058700 36.740500 0.000533 13.003600
143.049000 36.696200 0.000533 13.003600
143.039300 36.651800 0.000000 13.003600
143.029600 36.607500 0.000000 13.003600
143.019900 36.563100 0.000000 13.003600
143.010200 36.518800 0.000000 13.003600
143.000400 36.474500 0.000000 13.003600
142.990700 36.430100 0.000000 13.003600
142.981000 36.385800 0.000000 13.003600
142.971300 36.341400 0.000002 13.003600
142.961600 36.297100 0.000002 13.003600
142.951900 36.252700 0.000002 13.003600
142.942100 36.208400 0.000002 13.003600
142.932400 36.164100 0.000022 13.003600
142.922700 36.119700 0.000022 13.003600
142.913000 36.075400 0.000022 13.003600
142.903300 36.031000 0.000012 13.003600
142.893600 35.986700 0.000012 13.003600
142.883900 35.942300 0.000012 13.003600
142.874100 35.898000 0.000012 13.003600
143.675800 39.807300 0.067782 14.298000
143.666100 39.763000 0.067782 14.298000
143.656400 39.718700 0.075666 14.298000
143.646600 39.674300 0.075666 14.298000
143.636900 39.630000 0.076123 14.298000
143.627200 39.585600 0.076123 14.298000
143.617500 39.541300 0.076123 14.298000
143.607800 39.496900 0.064018 14.298000
143.598100 39.452600 0.064018 14.298000
143.588400 39.408300 0.064018 14.298000
143.578600 39.363900 0.061634 14.298000
143.568900 39.319600 0.061634 14.298000
143.559200 39.275200 0.061634 14.298000
143.549500 39.230900 0.060470 14.298000
143.539800 39.186600 0.060470 14.298000
143.530100 39.142200 0.060470 14.298000
143.520400 39.097900 0.063039 14.298000
143.510600 39.053500 0.063039 14.298000
143.500900 39.009200 0.063039 14.298000
143.491200 38.964800 0.053771 14.298000
143.481500 38.920500 0.066379 14.298000
143.471800 38.876200 0.066379 14.298000
143.462100 38.831800 0.058361 14.298000
143.452400 38.787500 0.071550 14.298000
143.442600 38.743100 0.071550 14.298000
143.432900 38.698800 0.066069 14.298000
143.423200 38.654400 0.066069 14.298000
143.413500 38.610100 0.084151 14.298000
143.403800 38.565800 0.082932 14.298000
143.394100 38.521400 0.054969 14.298000
143.384300 38.477100 0.054969 14.298000
143.374600 38.432700 0.049944 14.298000
143.364900 38.388400 0.064828 14.298000
143.355200 38.344100 0.064828 14.298000
143.345500 38.299700 0.064828 14.298000
143.335800 38.255400 0.065130 14.298000
143.326100 38.211000 0.065130 14.298000
143.316300 38.166700 0.065130 14.298000
143.306600 38.122300 0.057758 14.298000
143.296900 38.078000 0.057758 14.298000
143.287200 38.033700 0.080910 14.298000
143.277500 37.989300 0.058747 14.298000
143.267800 37.945000 0.058747 14.298000
143.258100 37.900600 0.058747 14.298000
143.248300 37.856300 0.061542 14.298000
143.238600 37.811900 0.037992 14.298000
143.228900 37.767600 0.037992 14.298000
143.219200 37.723300 0.030257 14.298000
143.209500 37.678900 0.044435 14.298000
143.199800 37.634600 0.044435 14.298000
143.190000 37.590200 0.044435 14.298000
143.180300 37.545900 0.033598 14.298000
143.170600 37.501500 0.033598 14.298000
143.160900 37.457200 0.047314 14.298000
143.151200 37.412900 0.039759 14.298000
143.141500 37.368500 0.039759 14.298000
143.131800 37.324200 0.019393 14.298000
143.122000 37.279800 0.016788 14.298000
143.112300 37.235500 0.016788 14.298000
143.102600 37.191200 0.032663 14.298000
143.092900 37.146800 0.032663 14.298000
143.083200 37.102500 0.010324 14.298000
143.073500 37.058100 0.010324 14.298000
143.063800 37.013800 0.005839 14.298000
143.054000 36.969400 0.005839 14.298000
143.044300 36.925100 0.011768 14.298000
143.034600 36.880800 0.005833 14.298000
143.024900 36.836400 0.005833 14.298000
143.015200 36.792100 0.005833 14.298000
143.005500 36.747700 0.000533 14.298000
142.995800 36.703400 0.000533 14.298000
142.986000 36.659000 0.000000 14.298000
142.976300 36.614700 0.000000 14.298000
142.966600 36.570400 0.000950 14.298000
142.956900 36.526000 0.000000 14.298000
142.947200 36.481700 0.000000 14.298000
142.937500 36.437300 0.000000 14.298000
142.927700 36.393000 0.000002 14.298000
142.918000 36.348700 0.000002 14.298000
142.908300 36.304300 0.000002 14.298000
142.898600 36.260000 0.000002 14.298000
142.888900 36.215600 0.000022 14.298000
142.879200 36.171300 0.000022 14.298000
142.869500 36.126900 0.000022 14.298000
142.859700 36.082600 0.000012 14.298000
142.850000 36.038300 0.000012 14.298000
142.840300 35.993900 0.000012 14.298000
142.830600 35.949600 0.000012 14.298000
142.820900 35.905200 0.000022 14.298000
143.622500 39.814600 0.093306 15.592500
143.612800 39.770200 0.104607 15.592500
143.603100 39.725900 0.098954 15.592500
143.593400 39.681500 0.098954 15.592500
143.583700 39.637200 0.101152 15.592500
143.574000 39.592900 0.101152 15.592500
143.564200 39.548500 0.101152 15.592500
143.554500 39.504200 0.096257 15.592500
143.544800 39.459800 0.096257 15.592500
143.535100 39.415500 0.096257 15.592500
143.525400 39.371100 0.091129 15.592500
143.515700 39.326800 0.091129 15.592500
143.506000 39.282500 0.091129 15.592500
143.496200 39.238100 0.092687 15.592500
143.486500 39.193800 0.092687 15.592500
143.476800 39.149400 0.092687 15.592500
143.467100 39.105100 0.092418 15.592500
143.457400 39.060800 0.092418 15.592500
143.447700 39.016400 0.092418 15.592500
143.438000 38.972100 0.092418 15.592500
143.428200 38.927700 0.066379 15.592500
143.418500 38.883400 0.066379 15.592500
143.408800 38.839000 0.098532 15.592500
143.399100 38.794700 0.071550 15.592500
143.389400 38.750400 0.071550 15.592500
143.379700 38.706000 0.071550 15.592500
143.369900 38.661700 0.084151 15.592500
143.360200 38.617300 0.084151 15.592500
143.350500 38.573000 0.082932 15.592500
143.340800 38.528600 0.082932 15.592500
143.331100 38.484300 0.082932 15.592500
143.321400 38.440000 0.097661 15.592500
143.311700 38.395600 0.097661 15.592500
143.301900 38.351300 0.097661 15.592500
143.292200 38.306900 0.097661 15.592500
143.282500 38.262600 0.093977 15.592500
143.272800 38.218300 0.093977 15.592500
143.263100 38.173900 0.093977 15.592500
143.253400 38.129600 0.080910 15.592500
143.243700 38.085200 0.080910 15.592500
143.233900 38.040900 0.081182 15.592500
143.224200 37.996500 0.081182 15.592500
143.214500 37.952200 0.058747 15.592500
143.204800 37.907900 0.061542 15.592500
143.195100 37.863500 0.061542 15.592500
143.185400 37.819200 0.061542 15.592500
143.175600 37.774800 0.061542 15.592500
143.165900 37.730500 0.044435 15.592500
143.156200 37.686100 0.044435 15.592500
143.146500 37.641800 0.044435 15.592500
143.136800 37.597500 0.044435 15.592500
143.127100 37.553100 0.047314 15.592500
143.117400 37.508800 0.047314 15.592500
143.107600 37.464400 0.047314 15.592500
143.097900 37.420100 0.039759 15.592500
143.088200 37.375700 0.039759 15.592500
143.078500 37.331400 0.039759 15.592500
143.068800 37.287100 0.055791 15.592500
143.059100 37.242700 0.032663 15.592500
143.049400 37.198400 0.032663 15.592500
143.039600 37.154000 0.028915 15.592500
143.029900 37.109700 0.028915 15.592500
143.020200 37.065400 0.028915 15.592500
143.010500 37.021000 0.005839 15.592500
143.000800 36.976700 0.011768 15.592500
142.991100 36.932300 0.011768 15.592500
142.981400 36.888000 0.011768 15.592500
142.971600 36.843600 0.005833 15.592500
142.961900 36.799300 0.005226 15.592500
142.952200 36.755000 0.005226 15.592500
142.942500 36.710600 0.000533 15.592500
142.932800 36.666300 0.000950 15.592500
142.923100 36.621900 0.000950 15.592500
142.913300 36.577600 0.000950 15.592500
142.903600 36.533200 0.000000 15.592500
142.893900 36.488900 0.000000 15.592500
142.884200 36.444600 0.000776 15.592500
142.874500 36.400200 0.000002 15.592500
142.864800 36.355900 0.000002 15.592500
142.855100 36.311500 0.000002 15.592500
142.845300 36.267200 0.000022 15.592500
142.835600 36.222900 0.000022 15.592500
142.825900 36.178500 0.000022 15.592500
142.816200 36.134200 0.000022 15.592500
142.806500 36.089800 0.000012 15.592500
142.796800 36.045500 0.000012 15.592500
142.787100 36.001100 0.000012 15.592500
142.777300 35.956800 0.000022 15.592500
142.767600 35.912500 0.000022 15.592500
143.569300 39.821800 0.104607 16.886900
143.559600 39.777500 0.104607 16.886900
143.549800 39.733100 0.098954 16.886900
143.540100 39.688800 0.111058 16.886900
143.530400 39.644400 0.111058 16.886900
143.520700 39.600100 0.101152 16.886900
143.511000 39.555700 0.110959 16.886900
143.501300 39.511400 0.096257 16.886900
143.491600 39.467100 0.096257 16.886900
143.481800 39.422700 0.104306 16.886900
143.472100 39.378400 0.104306 16.886900
143.462400 39.334000 0.091129 16.886900
143.452700 39.289700 0.103865 16.886900
143.443000 39.245300 0.103865 16.886900
143.433300 39.201000 0.092687 16.886900
143.423600 39.156700 0.103760 16.886900
143.413800 39.112300 0.103760 16.886900
143.404100 39.068000 0.092418 16.886900
143.394400 39.023600 0.092418 16.886900
143.384700 38.979300 0.107841 16.886900
143.375000 38.935000 0.098532 16.886900
143.365300 38.890600 0.098532 16.886900
143.355500 38.846300 0.115310 16.886900
143.345800 38.801900 0.099136 16.886900
143.336100 38.757600 0.099136 16.886900
143.326400 38.713200 0.099136 16.886900
143.316700 38.668900 0.104445 16.886900
143.307000 38.624600 0.084151 16.886900
143.297300 38.580200 0.082932 16.886900
143.287500 38.535900 0.110252 16.886900
143.277800 38.491500 0.110252 16.886900
143.268100 38.447200 0.114857 16.886900
143.258400 38.402800 0.097661 16.886900
143.248700 38.358500 0.097661 16.886900
143.239000 38.314200 0.107757 16.886900
143.229300 38.269800 0.107757 16.886900
143.219500 38.225500 0.093977 16.886900
143.209800 38.181100 0.100962 16.886900
143.200100 38.136800 0.100962 16.886900
143.190400 38.092500 0.080910 16.886900
143.180700 38.048100 0.081182 16.886900
143.171000 38.003800 0.081182 16.886900
143.161200 37.959400 0.081182 16.886900
143.151500 37.915100 0.061542 16.886900
143.141800 37.870700 0.099459 16.886900
143.132100 37.826400 0.099459 16.886900
143.122400 37.782100 0.099459 16.886900
143.112700 37.737700 0.079913 16.886900
143.103000 37.693400 0.079913 16.886900
143.093200 37.649000 0.079913 16.886900
143.083500 37.604700 0.079913 16.886900
143.073800 37.560300 0.087011 16.886900
143.064100 37.516000 0.074768 16.886900
143.054400 37.471700 0.074768 16.886900
143.044700 37.427300 0.074768 16.886900
143.035000 37.383000 0.055791 16.886900
143.025200 37.338600 0.055791 16.886900
143.015500 37.294300 0.055791 16.886900
143.005800 37.249900 0.052020 16.886900
142.996100 37.205600 0.052020 16.886900
142.986400 37.161300 0.028915 16.886900
142.976700 37.116900 0.028915 16.886900
142.967000 37.072600 0.053148 16.886900
142.957200 37.028200 0.053148 16.886900
142.947500 36.983900 0.011768 16.886900
142.937800 36.939600 0.011768 16.886900
142.928100 36.895200 0.011768 16.886900
142.918400 36.850900 0.005226 16.886900
142.908700 36.806500 0.005226 16.886900
142.898900 36.762200 0.014355 16.886900
142.889200 36.717800 0.014355 16.886900
142.879500 36.673500 0.009245 16.886900
142.869800 36.629200 0.009245 16.886900
142.860100 36.584800 0.000950 16.886900
142.850400 36.540500 0.000776 16.886900
142.840700 36.496100 0.000776 16.886900
142.830900 36.451800 0.000776 16.886900
142.821200 36.407400 0.000002 16.886900
142.811500 36.363100 0.000002 16.886900
142.801800 36.318800 0.000002 16.886900
142.792100 36.274400 0.000022 16.886900
142.782400 36.230100 0.000022 16.886900
142.772700 36.185700 0.000022 16.886900
142.762900 36.141400 0.000012 16.886900
142.753200 36.097100 0.000012 16.886900
142.743500 36.052700 0.000012 16.886900
142.733800 36.008400 0.000012 16.886900
142.724100 35.964000 0.000022 16.886900
142.714400 35.919700 0.000022 16.886900
143.516000 39.829000 0.131465 18.181400
143.506300 39.784700 0.131465 18.181400
143.496600 39.740300 0.111058 18.181400
143.486900 39.696000 0.111058 18.181400
143.477200 39.651700 0.111058 18.181400
143.467400 39.607300 0.110959 18.181400
143.457700 39.563000 0.110959 18.181400
143.448000 39.518600 0.110959 18.181400
143.438300 39.474300 0.104306 18.181400
143.428600 39.429900 0.104306 18.181400
143.418900 39.385600 0.104306 18.181400
143.409200 39.341300 0.138195 18.181400
143.399400 39.296900 0.103865 18.181400
143.389700 39.252600 0.103865 18.181400
143.380000 39.208200 0.103865 18.181400
143.370300 39.163900 0.103760 18.181400
143.360600 39.119500 0.103760 18.181400
143.350900 39.075200 0.103760 18.181400
143.341100 39.030900 0.107841 18.181400
143.331400 38.986500 0.107841 18.181400
143.321700 38.942200 0.098532 18.181400
143.312000 38.897800 0.098532 18.181400
143.302300 38.853500 0.115310 18.181400
143.292600 38.809200 0.115310 18.181400
143.282900 38.764800 0.099136 18.181400
143.273100 38.720500 0.104445 18.181400
143.263400 38.676100 0.104445 18.181400
143.253700 38.631800 0.104445 18.181400
143.244000 38.587400 0.135330 18.181400
143.234300 38.543100 0.110252 18.181400
143.224600 38.498800 0.110252 18.181400
143.214900 38.454400 0.114857 18.181400
143.205100 38.410100 0.114857 18.181400
143.195400 38.365700 0.107757 18.181400
143.185700 38.321400 0.107757 18.181400
143.176000 38.277000 0.107757 18.181400
143.166300 38.232700 0.093977 18.181400
143.156600 38.188400 0.100962 18.181400
143.146800 38.144000 0.100962 18.181400
143.137100 38.099700 0.100962 18.181400
143.127400 38.055300 0.119542 18.181400
143.117700 38.011000 0.119542 18.181400
143.108000 37.966600 0.119542 18.181400
143.098300 37.922300 0.123070 18.181400
143.088600 37.878000 0.099459 18.181400
143.078800 37.833600 0.099459 18.181400
143.069100 37.789300 0.113668 18.181400
143.059400 37.744900 0.105748 18.181400
143.049700 37.700600 0.105748 18.181400
143.040000 37.656300 0.079913 18.181400
143.030300 37.611900 0.087011 18.181400
143.020600 37.567600 0.087011 18.181400
143.010800 37.523200 0.074768 18.181400
143.001100 37.478900 0.074768 18.181400
142.991400 37.434500 0.085827 18.181400
142.981700 37.390200 0.075822 18.181400
142.972000 37.345900 0.075822 18.181400
142.962300 37.301500 0.052020 18.181400
142.952600 37.257200 0.052020 18.181400
142.942800 37.212800 0.070930 18.181400
142.933100 37.168500 0.053148 18.181400
142.923400 37.124100 0.053148 18.181400
142.913700 37.079800 0.053148 18.181400
142.904000 37.035500 0.056021 18.181400
142.894300 36.991100 0.039812 18.181400
142.884500 36.946800 0.039812 18.181400
142.874800 36.902400 0.039812 18.181400
142.865100 36.858100 0.014355 18.181400
142.855400 36.813800 0.014355 18.181400
142.845700 36.769400 0.014355 18.181400
142.836000 36.725100 0.014355 18.181400
142.826300 36.680700 0.009245 18.181400
142.816500 36.636400 0.009245 18.181400
142.806800 36.592000 0.009245 18.181400
142.797100 36.547700 0.000776 18.181400
142.787400 36.503400 0.000776 18.181400
142.777700 36.459000 0.000776 18.181400
142.768000 36.414700 0.000002 18.181400
142.758300 36.370300 0.001511 18.181400
142.748500 36.326000 0.001511 18.181400
142.738800 36.281600 0.000022 18.181400
142.729100 36.237300 0.000022 18.181400
142.719400 36.193000 0.000012 18.181400
142.709700 36.148600 0.000012 18.181400
142.700000 36.104300 0.000012 18.181400
142.690300 36.059900 0.000012 18.181400
142.680500 36.015600 0.000022 18.181400
142.670800 35.971300 0.000022 18.181400
142.661100 35.926900 0.000022 18.181400
143.462800 39.836200 0.131465 19.475800
143.453000 39.791900 0.131465 19.475800
143.443300 39.747600 0.143704 19.475800
143.433600 39.703200 0.143704 19.475800
143.423900 39.658900 0.143704 19.475800
143.414200 39.614500 0.152330 19.475800
143.404500 39.570200 0.152330 19.475800
143.394800 39.525900 0.152330 19.475800
143.385000 39.481500 0.152330 19.475800
143.375300 39.437200 0.138195 19.475800
143.365600 39.392800 0.138195 19.475800
143.355900 39.348500 0.138195 19.475800
143.346200 39.304100 0.136751 19.475800
143.336500 39.259800 0.136751 19.475800
143.326700 39.215500 0.136751 19.475800
143.317000 39.171100 0.139616 19.475800
143.307300 39.126800 0.139616 19.475800
143.297600 39.082400 0.139616 19.475800
143.287900 39.038100 0.139829 19.475800
143.278200 38.993700 0.139829 19.475800
143.268500 38.949400 0.139829 19.475800
143.258700 38.905100 0.115310 19.475800
143.249000 38.860700 0.115310 19.475800
143.239300 38.816400 0.157137 19.475800
143.229600 38.772000 0.157137 19.475800
143.219900 38.727700 0.104445 19.475800
143.210200 38.683400 0.136504 19.475800
143.200500 38.639000 0.136504 19.475800
143.190700 38.594700 0.135330 19.475800
143.181000 38.550300 0.135330 19.475800
143.171300 38.506000 0.135330 19.475800
143.161600 38.461600 0.148427 19.475800
143.151900 38.417300 0.148427 19.475800
143.142200 38.373000 0.148427 19.475800
143.132500 38.328600 0.145508 19.475800
143.122700 38.284300 0.145508 19.475800
143.113000 38.239900 0.145508 19.475800
143.103300 38.195600 0.133314 19.475800
143.093600 38.151200 0.133314 19.475800
143.083900 38.106900 0.133314 19.475800
143.074200 38.062600 0.119542 19.475800
143.064400 38.018200 0.119542 19.475800
143.054700 37.973900 0.119542 19.475800
143.045000 37.929500 0.123070 19.475800
143.035300 37.885200 0.123070 19.475800
143.025600 37.840800 0.113668 19.475800
143.015900 37.796500 0.113668 19.475800
143.006200 37.752200 0.105748 19.475800
142.996400 37.707800 0.105748 19.475800
142.986700 37.663500 0.105748 19.475800
142.977000 37.619100 0.115496 19.475800
142.967300 37.574800 0.115496 19.475800
142.957600 37.530500 0.087011 19.475800
142.947900 37.486100 0.085827 19.475800
142.938200 37.441800 0.085827 19.475800
142.928400 37.397400 0.075822 19.475800
142.918700 37.353100 0.075822 19.475800
142.909000 37.308700 0.083350 19.475800
142.899300 37.264400 0.070930 19.475800
142.889600 37.220100 0.070930 19.475800
142.879900 37.175700 0.072869 19.475800
142.870100 37.131400 0.053148 19.475800
142.860400 37.087000 0.056021 19.475800
142.850700 37.042700 0.056021 19.475800
142.841000 36.998300 0.056021 19.475800
142.831300 36.954000 0.039812 19.475800
142.821600 36.909700 0.049458 19.475800
142.811900 36.865300 0.049458 19.475800
142.802100 36.821000 0.038585 19.475800
142.792400 36.776600 0.038585 19.475800
142.782700 36.732300 0.038585 19.475800
142.773000 36.688000 0.009245 19.475800
142.763300 36.643600 0.019170 19.475800
142.753600 36.599300 0.019170 19.475800
142.743900 36.554900 0.011674 19.475800
142.734100 36.510600 0.011674 19.475800
142.724400 36.466200 0.011674 19.475800
142.714700 36.421900 0.001511 19.475800
142.705000 36.377600 0.001511 19.475800
142.695300 36.333200 0.001511 19.475800
142.685600 36.288900 0.000022 19.475800
142.675900 36.244500 0.001161 19.475800
142.666100 36.200200 0.000012 19.475800
142.656400 36.155800 0.000012 19.475800
142.646700 36.111500 0.000012 19.475800
142.637000 36.067200 0.000022 19.475800
142.627300 36.022800 0.000022 19.475800
142.617600 35.978500 0.000022 19.475800
142.607800 35.934100 0.000022 19.475800
143.409500 39.843500 0.152757 20.770200
143.399800 39.799100 0.152757 20.770200
143.390100 39.754800 0.143704 20.770200
143.380400 39.710400 0.143704 20.770200
143.370600 39.666100 0.163778 20.770200
143.360900 39.621800 0.152330 20.770200
143.351200 39.577400 0.152330 20.770200
143.341500 39.533100 0.152330 20.770200
143.331800 39.488700 0.178784 20.770200
143.322100 39.444400 0.171451 20.770200
143.312300 39.400100 0.138195 20.770200
143.302600 39.355700 0.138195 20.770200
143.292900 39.311400 0.136751 20.770200
143.283200 39.267000 0.163981 20.770200
143.273500 39.222700 0.163981 20.770200
143.263800 39.178300 0.164847 20.770200
143.254100 39.134000 0.139616 20.770200
143.244300 39.089700 0.139616 20.770200
143.234600 39.045300 0.139829 20.770200
143.224900 39.001000 0.139829 20.770200
143.215200 38.956600 0.175263 20.770200
143.205500 38.912300 0.177316 20.770200
143.195800 38.867900 0.157137 20.770200
143.186100 38.823600 0.157137 20.770200
143.176300 38.779300 0.178042 20.770200
143.166600 38.734900 0.173985 20.770200
143.156900 38.690600 0.173985 20.770200
143.147200 38.646200 0.136504 20.770200
143.137500 38.601900 0.135330 20.770200
