144.547700 39.490200 0.000014 -0.370300
144.500100 39.314100 0.000005 -0.370300
144.452600 39.138000 0.000005 -0.370300
144.405000 38.962000 0.000000 -0.370300
144.357500 38.785900 0.000000 -0.370300
144.309900 38.609900 0.000010 -0.370300
144.262400 38.433800 0.000016 -0.370300
144.214800 38.257800 0.000000 -0.370300
144.167200 38.081700 0.000033 -0.370300
144.119700 37.905700 0.000000 -0.370300
144.072100 37.729600 0.000029 -0.370300
144.024600 37.553600 0.000000 -0.370300
143.977000 37.377500 0.000012 -0.370300
143.929500 37.201500 0.000000 -0.370300
143.881900 37.025400 0.000000 -0.370300
143.834300 36.849400 0.000038 -0.370300
143.786800 36.673300 0.000038 -0.370300
144.328800 39.526800 0.000014 3.787900
144.281300 39.350700 0.000014 3.787900
144.233700 39.174700 0.000000 3.787900
144.186200 38.998600 0.000000 3.787900
144.138600 38.822500 0.000000 3.787900
144.091100 38.646500 0.000016 3.787900
144.043500 38.470400 0.000000 3.787900
143.995900 38.294400 0.000000 3.787900
143.948400 38.118300 0.000033 3.787900
143.900800 37.942300 0.000000 3.787900
143.853300 37.766200 0.000029 3.787900
143.805700 37.590200 0.000000 3.787900
143.758200 37.414100 0.000010 3.787900
143.710600 37.238100 0.000000 3.787900
143.663000 37.062000 0.000038 3.787900
143.615500 36.886000 0.000038 3.787900
143.567900 36.709900 0.000000 3.787900
144.110000 39.563400 0.000389 7.946200
144.062400 39.387300 0.000287 7.946200
144.014900 39.211300 0.002598 7.946200
143.967300 39.035200 0.003134 7.946200
143.919800 38.859200 0.003105 7.946200
143.872200 38.683100 0.002816 7.946200
143.824700 38.507000 0.000130 7.946200
143.777100 38.331000 0.003006 7.946200
143.729500 38.154900 0.000852 7.946200
143.682000 37.978900 0.000000 7.946200
143.634400 37.802800 0.000029 7.946200
143.586900 37.626800 0.000012 7.946200
143.539300 37.450700 0.000010 7.946200
143.491700 37.274700 0.000000 7.946200
143.444200 37.098600 0.000038 7.946200
143.396600 36.922600 0.000000 7.946200
143.349100 36.746500 0.000013 7.946200
143.891100 39.600000 0.028318 12.104400
143.843600 39.423900 0.025870 12.104400
143.796000 39.247900 0.026396 12.104400
143.748500 39.071800 0.026103 12.104400
143.700900 38.895800 0.027476 12.104400
143.653400 38.719700 0.027134 12.104400
143.605800 38.543600 0.018168 12.104400
143.558200 38.367600 0.031606 12.104400
143.510700 38.191500 0.018485 12.104400
143.463100 38.015500 0.027953 12.104400
143.415600 37.839400 0.027512 12.104400
143.368000 37.663400 0.010124 12.104400
143.320500 37.487300 0.011790 12.104400
143.272900 37.311300 0.006082 12.104400
143.225300 37.135200 0.003284 12.104400
143.177800 36.959200 0.000446 12.104400
143.130200 36.783100 0.000017 12.104400
143.672300 39.636600 0.075666 16.262600
143.624700 39.460500 0.064018 16.262600
143.577200 39.284500 0.061634 16.262600
143.529600 39.108400 0.063039 16.262600
143.482100 38.932400 0.066379 16.262600
143.434500 38.756300 0.071550 16.262600
143.386900 38.580300 0.082932 16.262600
143.339400 38.404200 0.064828 16.262600
143.291800 38.228100 0.065130 16.262600
143.244300 38.052100 0.080910 16.262600
143.196700 37.876000 0.061542 16.262600
143.149200 37.700000 0.044435 16.262600
143.101600 37.523900 0.047314 16.262600
143.054000 37.347900 0.055791 16.262600
143.006500 37.171800 0.028915 16.262600
142.958900 36.995800 0.011768 16.262600
142.911400 36.819700 0.005226 16.262600
143.453400 39.673200 0.111058 20.420900
143.405900 39.497100 0.110959 20.420900
143.358300 39.321100 0.136751 20.420900
143.310800 39.145000 0.139616 20.420900
143.263200 38.969000 0.139829 20.420900
143.215700 38.792900 0.157137 20.420900
143.168100 38.616900 0.136504 20.420900
143.120500 38.440800 0.148427 20.420900
143.073000 38.264800 0.153251 20.420900
143.025400 38.088700 0.142499 20.420900
142.977900 37.912600 0.157442 20.420900
142.930300 37.736600 0.125633 20.420900
142.882800 37.560500 0.129723 20.420900
142.835200 37.384500 0.083350 20.420900
142.787600 37.208400 0.098592 20.420900
142.740100 37.032400 0.090089 20.420900
142.692500 36.856300 0.086395 20.420900
143.234600 39.709800 0.206680 24.579100
143.187000 39.533700 0.223194 24.579100
143.139500 39.357700 0.203207 24.579100
143.091900 39.181600 0.206019 24.579100
143.044400 39.005600 0.218017 24.579100
142.996800 38.829500 0.209798 24.579100
142.949200 38.653500 0.217751 24.579100
142.901700 38.477400 0.223275 24.579100
142.854100 38.301400 0.227108 24.579100
142.806600 38.125300 0.271847 24.579100
142.759000 37.949200 0.236793 24.579100
142.711500 37.773200 0.219559 24.579100
142.663900 37.597100 0.193645 24.579100
142.616300 37.421100 0.183079 24.579100
142.568800 37.245000 0.193757 24.579100
142.521200 37.069000 0.135323 24.579100
142.473700 36.892900 0.139669 24.579100
143.015700 39.746400 0.263124 28.737300
142.968200 39.570300 0.298934 28.737300
142.920600 39.394300 0.273357 28.737300
142.873100 39.218200 0.287156 28.737300
142.825500 39.042200 0.291080 28.737300
142.778000 38.866100 0.288983 28.737300
142.730400 38.690100 0.293425 28.737300
142.682800 38.514000 0.320648 28.737300
142.635300 38.338000 0.311954 28.737300
142.587700 38.161900 0.367628 28.737300
142.540200 37.985900 0.331090 28.737300
142.492600 37.809800 0.292546 28.737300
142.445100 37.633700 0.279894 28.737300
142.397500 37.457700 0.260155 28.737300
142.349900 37.281600 0.256871 28.737300
142.302400 37.105600 0.243269 28.737300
142.254800 36.929500 0.218613 28.737300
142.796900 39.783000 0.377232 32.895600
142.749300 39.606900 0.378635 32.895600
142.701800 39.430900 0.386105 32.895600
142.654200 39.254800 0.390142 32.895600
142.606700 39.078800 0.347047 32.895600
142.559100 38.902700 0.366843 32.895600
142.511500 38.726700 0.371598 32.895600
142.464000 38.550600 0.423376 32.895600
142.416400 38.374600 0.464009 32.895600
142.368900 38.198500 0.457065 32.895600
142.321300 38.022500 0.399420 32.895600
142.273800 37.846400 0.369384 32.895600
142.226200 37.670400 0.341726 32.895600
142.178600 37.494300 0.345914 32.895600
142.131100 37.318200 0.326745 32.895600
142.083500 37.142200 0.290518 32.895600
142.036000 36.966100 0.277962 32.895600
142.578000 39.819600 0.424119 37.053800
142.530500 39.643500 0.433060 37.053800
142.482900 39.467500 0.438627 37.053800
142.435400 39.291400 0.431957 37.053800
142.387800 39.115400 0.420006 37.053800
142.340300 38.939300 0.441550 37.053800
142.292700 38.763300 0.442452 37.053800
142.245100 38.587200 0.498852 37.053800
142.197600 38.411200 0.553731 37.053800
142.150000 38.235100 0.566231 37.053800
142.102500 38.059100 0.543106 37.053800
142.054900 37.883000 0.408822 37.053800
142.007300 37.707000 0.368062 37.053800
141.959800 37.530900 0.369296 37.053800
141.912200 37.354800 0.373891 37.053800
141.864700 37.178800 0.356880 37.053800
141.817100 37.002700 0.313297 37.053800
