144.762100 42.152200 0.600234 23.300000
144.669600 42.094400 0.587404 23.300000
144.577200 42.036500 0.562584 23.300000
144.484700 41.978700 0.613232 23.300000
144.392300 41.920800 0.584987 23.300000
144.299800 41.863000 0.570689 23.300000
144.207400 41.805200 0.616694 23.300000
144.114900 41.747300 0.534190 23.300000
144.022500 41.689500 0.508651 23.300000
143.930100 41.631600 0.462548 23.300000
143.837600 41.573800 0.510747 23.300000
143.745200 41.515900 0.469939 23.300000
144.689200 42.217000 0.622254 26.720200
144.596700 42.159200 0.625362 26.720200
144.504300 42.101300 0.638521 26.720200
144.411800 42.043500 0.617218 26.720200
144.319400 41.985600 0.648871 26.720200
144.226900 41.927800 0.648040 26.720200
144.134500 41.869900 0.616694 26.720200
144.042100 41.812100 0.599848 26.720200
143.949600 41.754200 0.508651 26.720200
143.857200 41.696400 0.543256 26.720200
143.764700 41.638600 0.519691 26.720200
143.672300 41.580700 0.469939 26.720200
144.616300 42.281800 0.634574 30.140400
144.523800 42.223900 0.634937 30.140400
144.431400 42.166100 0.654015 30.140400
144.338900 42.108300 0.660664 30.140400
144.246500 42.050400 0.663595 30.140400
144.154100 41.992600 0.648040 30.140400
144.061600 41.934700 0.673638 30.140400
143.969200 41.876900 0.646037 30.140400
143.876700 41.819000 0.633951 30.140400
143.784300 41.761200 0.614149 30.140400
143.691800 41.703300 0.580502 30.140400
143.599400 41.645500 0.590343 30.140400
144.543400 42.346600 0.579873 33.560600
144.450900 42.288700 0.593331 33.560600
144.358500 42.230900 0.598566 33.560600
144.266100 42.173000 0.639020 33.560600
144.173600 42.115200 0.672975 33.560600
144.081200 42.057300 0.671724 33.560600
143.988700 41.999500 0.673638 33.560600
143.896300 41.941700 0.687349 33.560600
143.803800 41.883800 0.662290 33.560600
143.711400 41.826000 0.651306 33.560600
143.618900 41.768100 0.666501 33.560600
143.526500 41.710300 0.626879 33.560600
144.470500 42.411400 0.502741 36.980800
144.378100 42.353500 0.540742 36.980800
144.285600 42.295700 0.598566 36.980800
144.193200 42.237800 0.639020 36.980800
144.100700 42.180000 0.644646 36.980800
144.008300 42.122100 0.679658 36.980800
143.915800 42.064300 0.679658 36.980800
143.823400 42.006400 0.679445 36.980800
143.730900 41.948600 0.679445 36.980800
143.638500 41.890700 0.666501 36.980800
143.546000 41.832900 0.666501 36.980800
143.453600 41.775000 0.655597 36.980800
144.397600 42.476100 0.380621 40.401000
144.305200 42.418300 0.487138 40.401000
144.212700 42.360400 0.536291 40.401000
144.120300 42.302600 0.511925 40.401000
144.027800 42.244800 0.585070 40.401000
143.935400 42.186900 0.593230 40.401000
143.842900 42.129100 0.647741 40.401000
143.750500 42.071200 0.667591 40.401000
143.658000 42.013400 0.657361 40.401000
143.565600 41.955500 0.662205 40.401000
143.473100 41.897700 0.649053 40.401000
143.380700 41.839800 0.656462 40.401000
144.324700 42.540900 0.325685 43.821200
144.232300 42.483100 0.393336 43.821200
144.139800 42.425200 0.361373 43.821200
144.047400 42.367400 0.417685 43.821200
143.954900 42.309500 0.593230 43.821200
143.862500 42.251700 0.593230 43.821200
143.770000 42.193800 0.643517 43.821200
143.677600 42.136000 0.593211 43.821200
143.585100 42.078100 0.631181 43.821200
143.492700 42.020300 0.631713 43.821200
143.400200 41.962500 0.645615 43.821200
143.307800 41.904600 0.655545 43.821200
144.251800 42.605700 0.241080 47.241400
144.159400 42.547900 0.220619 47.241400
144.066900 42.490000 0.303819 47.241400
143.974500 42.432200 0.368864 47.241400
143.882000 42.374300 0.404937 47.241400
143.789600 42.316500 0.498495 47.241400
143.697100 42.258600 0.526911 47.241400
143.604700 42.200800 0.598197 47.241400
143.512200 42.142900 0.554714 47.241400
143.419800 42.085100 0.608201 47.241400
143.327400 42.027200 0.620098 47.241400
143.234900 41.969400 0.641792 47.241400
144.178900 42.670500 0.201388 50.661600
144.086500 42.612600 0.251850 50.661600
143.994000 42.554800 0.244908 50.661600
143.901600 42.496900 0.279066 50.661600
143.809100 42.439100 0.344749 50.661600
143.716700 42.381200 0.344749 50.661600
143.624200 42.323400 0.468339 50.661600
143.531800 42.265600 0.498430 50.661600
143.439400 42.207700 0.566883 50.661600
143.346900 42.149900 0.530781 50.661600
143.254500 42.092000 0.594063 50.661600
143.162000 42.034200 0.617544 50.661600
144.106000 42.735300 0.000000 54.081800
144.013600 42.677400 0.000000 54.081800
143.921100 42.619600 0.226451 54.081800
143.828700 42.561700 0.296739 54.081800
143.736200 42.503900 0.344749 54.081800
143.643800 42.446000 0.365574 54.081800
143.551400 42.388200 0.407296 54.081800
143.458900 42.330300 0.498430 54.081800
143.366500 42.272500 0.479309 54.081800
143.274000 42.214600 0.542369 54.081800
143.181600 42.156800 0.490158 54.081800
143.089100 42.099000 0.462822 54.081800
