144.913000 39.952000 0.685988 9.918819
144.811000 39.742000 0.725435 10.088829
144.708000 39.532000 0.773654 10.380817
144.606000 39.322000 0.817951 10.875453
144.503000 39.112000 0.849811 10.994291
144.401000 38.902000 0.882298 10.311284
144.298000 38.692000 0.903336 9.987253
144.196000 38.482000 0.895418 9.987253
144.094000 38.272000 0.889224 9.775473
143.991000 38.062000 0.899194 9.776082
143.889000 37.852000 0.907499 9.777456
143.786000 37.641000 0.920112 9.861019
143.684000 37.431000 0.932725 10.412910
143.581000 37.221000 0.941759 10.601224
143.479000 37.011000 0.890847 11.104731
143.376000 36.801000 0.896571 11.542751
143.274000 36.591000 0.906112 11.848064
143.171000 36.381000 0.914598 12.030392
143.069000 36.171000 0.923083 12.569983
142.967000 35.961000 0.929996 12.955083
142.864000 35.751000 0.938481 12.741896
142.762000 35.541000 0.946966 12.586594
142.659000 35.331000 0.955451 12.368556
144.600000 39.806000 0.683853 10.853842
144.497000 39.596000 0.669375 10.318028
144.395000 39.386000 0.692887 9.977967
144.292000 39.175000 0.700305 10.255462
144.190000 38.965000 0.741751 10.656404
144.088000 38.755000 0.790978 10.994291
143.985000 38.545000 0.838870 10.678292
143.883000 38.335000 0.880520 10.311284
143.780000 38.125000 0.925071 9.987253
143.678000 37.915000 0.966975 9.962604
143.575000 37.705000 0.975690 10.009483
143.473000 37.495000 0.960246 10.200067
143.370000 37.285000 0.929194 10.833794
143.268000 37.075000 0.878150 11.466861
143.165000 36.865000 0.822949 12.079156
143.063000 36.655000 0.799902 12.654886
142.961000 36.445000 0.815565 13.141366
142.858000 36.235000 0.835982 13.526441
142.756000 36.025000 0.854823 13.765313
142.653000 35.815000 0.871214 13.853186
142.551000 35.605000 0.887522 13.730871
142.448000 35.395000 0.901949 13.315090
144.389000 39.869000 0.690141 12.649236
144.286000 39.659000 0.646181 12.486506
144.184000 39.449000 0.623335 11.449015
144.082000 39.239000 0.621703 10.353068
143.979000 39.029000 0.655537 9.999857
143.877000 38.819000 0.718602 10.088829
143.774000 38.609000 0.795031 10.380817
143.672000 38.399000 0.865458 10.875453
143.569000 38.189000 0.921092 10.994291
143.467000 37.979000 0.962286 10.797846
143.364000 37.769000 0.969007 10.403813
143.262000 37.559000 0.951731 10.761585
143.159000 37.349000 0.914198 11.180208
143.057000 37.139000 0.866400 11.706292
142.955000 36.929000 0.802487 12.336434
142.852000 36.719000 0.737123 13.005979
142.750000 36.509000 0.673799 13.694342
142.647000 36.299000 0.586244 14.348254
142.545000 36.089000 0.458325 14.959431
142.442000 35.879000 0.338659 15.474899
142.340000 35.668000 0.310899 15.884606
142.237000 35.458000 0.424049 16.138669
144.178000 39.933000 0.713574 16.223533
144.076000 39.723000 0.653866 16.112505
143.973000 39.513000 0.609874 15.702693
143.871000 39.303000 0.588995 14.896306
143.768000 39.093000 0.615198 13.649497
143.666000 38.883000 0.674371 12.202956
143.563000 38.673000 0.758444 10.934614
143.461000 38.463000 0.838767 10.173793
143.358000 38.253000 0.906293 10.255462
143.256000 38.043000 0.947551 10.741724
143.153000 37.833000 0.955148 11.010816
143.051000 37.623000 0.931733 11.610468
142.949000 37.412000 0.894464 12.100826
142.846000 37.202000 0.838565 12.514800
142.744000 36.992000 0.770547 12.936044
142.641000 36.782000 0.713372 13.452633
142.539000 36.572000 0.647132 14.057148
142.436000 36.362000 0.561532 14.746893
142.334000 36.152000 0.444901 15.465368
142.231000 35.942000 0.324961 16.205641
142.129000 35.732000 0.280743 16.915599
142.026000 35.522000 0.367539 17.586914
143.967000 39.997000 0.709744 18.157927
143.865000 39.787000 0.639422 18.599199
143.762000 39.577000 0.576015 18.899225
143.660000 39.367000 0.540546 19.004970
143.557000 39.157000 0.555271 18.911992
143.455000 38.946000 0.607944 18.527387
143.352000 38.736000 0.698154 17.752407
143.250000 38.526000 0.793315 16.482442
143.148000 38.316000 0.883740 14.890169
143.045000 38.106000 0.930072 13.374930
142.943000 37.896000 0.935322 12.392860
142.840000 37.686000 0.911233 12.200322
142.738000 37.476000 0.864902 12.740297
142.635000 37.266000 0.786860 13.371081
142.533000 37.056000 0.723941 13.976242
142.430000 36.846000 0.673598 14.478536
142.328000 36.636000 0.606777 14.948360
142.225000 36.426000 0.531565 15.442840
142.123000 36.216000 0.409869 16.033359
142.020000 36.006000 0.281492 16.699174
141.918000 35.796000 0.206316 17.452496
141.816000 35.586000 -0.000003 18.240531
143.654000 39.850000 0.593975 19.047912
143.551000 39.640000 0.524819 19.854953
143.449000 39.430000 0.480974 20.593652
143.346000 39.220000 0.473830 21.248518
143.244000 39.010000 0.511664 21.749680
143.142000 38.800000 0.598380 22.093090
143.039000 38.590000 0.725569 22.228623
142.937000 38.380000 0.845047 22.165466
142.834000 38.170000 0.896563 21.823906
142.732000 37.960000 0.905592 21.112891
142.629000 37.750000 0.884131 19.878740
142.527000 37.540000 0.822052 18.226825
142.424000 37.330000 0.739444 16.543858
142.322000 37.120000 0.669667 15.347867
142.219000 36.910000 0.606760 15.148601
142.117000 36.700000 0.547185 15.653274
142.015000 36.490000 0.479962 16.202481
141.912000 36.280000 0.373754 16.734842
141.810000 36.070000 0.224357 17.211793
141.707000 35.860000 0.085364 17.712144
141.605000 35.650000 0.000000 18.268800
143.443000 39.914000 0.550283 18.936475
143.340000 39.704000 0.463500 19.688182
143.238000 39.494000 0.403226 20.520905
143.136000 39.284000 0.372855 21.424385
143.033000 39.074000 0.410041 22.334718
142.931000 38.864000 0.523712 23.240971
142.828000 38.654000 0.652320 24.064686
142.726000 38.444000 0.794987 24.791357
142.623000 38.234000 0.859253 25.347218
142.521000 38.024000 0.876632 25.734688
142.418000 37.814000 0.853053 25.904400
142.316000 37.604000 0.781451 25.878954
142.213000 37.394000 0.699618 25.592028
142.111000 37.183000 0.622733 24.957455
142.009000 36.973000 0.542665 23.855255
141.906000 36.763000 0.485887 22.286999
141.804000 36.553000 0.435007 20.650088
141.701000 36.343000 0.328689 19.379546
141.599000 36.133000 0.151242 18.751227
141.496000 35.923000 0.017912 19.089626
141.394000 35.713000 0.000000 19.468317
143.232000 39.978000 0.494546 19.886796
143.130000 39.768000 0.398143 20.329201
143.027000 39.558000 0.325607 20.864340
142.925000 39.348000 0.284241 21.494797
142.822000 39.138000 0.318636 22.244463
142.720000 38.928000 0.433264 23.120755
142.617000 38.717000 0.586174 24.069469
142.515000 38.507000 0.723415 25.091005
142.412000 38.297000 0.812820 26.108991
142.310000 38.087000 0.835586 27.110823
142.207000 37.877000 0.818509 28.010961
142.105000 37.667000 0.753152 28.799864
142.003000 37.457000 0.667545 29.403042
141.900000 37.247000 0.576858 29.831682
141.798000 37.037000 0.490654 30.029529
141.695000 36.827000 0.428322 30.029175
141.593000 36.617000 0.377756 29.825388
141.490000 36.407000 0.266395 29.312749
141.388000 36.197000 0.098957 28.423981
141.285000 35.987000 0.000022 27.139655
141.183000 35.777000 0.000000 25.757681
142.919000 39.831000 0.319939 24.542766
142.816000 39.621000 0.242262 22.785043
142.714000 39.411000 0.179223 22.896535
142.611000 39.201000 0.202011 23.106519
142.509000 38.991000 0.318034 23.443212
142.406000 38.781000 0.478076 23.885435
142.304000 38.571000 0.640000 24.465402
142.201000 38.361000 0.730543 25.207734
142.099000 38.151000 0.777631 26.071725
141.997000 37.941000 0.764947 27.073425
141.894000 37.731000 0.709270 28.144713
141.792000 37.521000 0.629394 29.277968
141.689000 37.311000 0.541242 30.393770
141.587000 37.101000 0.429818 31.476629
141.484000 36.891000 0.363250 32.437107
141.382000 36.681000 0.326631 33.273594
141.279000 36.471000 0.203930 33.913093
141.177000 36.261000 0.053213 34.356704
141.074000 36.051000 0.000000 34.618764
140.972000 35.841000 0.000000 34.664871
142.708000 39.895000 0.267143 34.537345
142.605000 39.685000 0.168938 34.168580
142.503000 39.475000 0.092809 33.547788
142.400000 39.265000 0.090578 32.640429
142.298000 39.055000 0.202568 31.604277
142.195000 38.845000 0.354482 30.498497
142.093000 38.635000 0.503123 27.080737
141.991000 38.425000 0.603646 27.008413
141.888000 38.215000 0.675087 27.115217
141.786000 38.005000 0.686941 27.421175
141.683000 37.795000 0.650736 27.929486
141.581000 37.585000 0.589365 28.598891
141.478000 37.375000 0.507205 29.457208
141.376000 37.165000 0.398738 30.446228
141.273000 36.955000 0.327473 31.576415
141.171000 36.744000 0.266980 32.765413
141.068000 36.535000 0.157232 34.007237
140.966000 36.325000 -0.000762 35.205065
140.864000 36.114000 0.000000 36.351485
140.761000 35.904000 0.000000 37.355567
142.497000 39.959000 0.136206 38.203249
142.394000 39.749000 0.000000 38.891579
142.292000 39.539000 0.000000 39.363008
142.189000 39.329000 0.012832 39.661626
142.087000 39.119000 0.078157 39.754668
141.985000 38.909000 0.222605 39.702503
141.882000 38.699000 0.340220 39.467944
141.780000 38.488000 0.428081 39.085643
141.677000 38.278000 0.497901 38.497845
141.575000 38.069000 0.563703 37.737653
141.472000 37.858000 0.564392 36.741746
141.370000 37.648000 0.547420 31.608579
141.267000 37.438000 0.470758 31.426932
141.165000 37.228000 0.392530 31.547956
141.062000 37.018000 0.311219 31.899003
140.960000 36.808000 0.235169 32.495797
140.858000 36.598000 0.160222 33.277845
140.755000 36.388000 0.000000 34.265271
140.653000 36.178000 0.000000 35.384370
140.550000 35.968000 0.000000 36.640619
142.184000 39.812000 0.000000 37.938512
142.081000 39.602000 0.000000 39.271112
141.979000 39.392000 0.000000 40.534749
141.876000 39.182000 0.013367 41.703511
141.774000 38.972000 0.094688 42.760930
141.671000 38.762000 0.124929 43.628066
141.569000 38.552000 0.201693 44.335795
141.466000 38.342000 0.282709 44.828875
141.364000 38.132000 0.366717 45.159986
141.261000 37.922000 0.432402 45.296524
141.159000 37.712000 0.437718 45.311571
141.056000 37.502000 0.391763 45.171138
140.954000 37.292000 0.344044 44.970801
140.852000 37.082000 0.280166 44.586692
140.749000 36.872000 0.245175 43.946880
140.647000 36.662000 0.253221 43.066687
140.544000 36.452000 -0.000339 36.444176
140.442000 36.242000 0.000000 36.246494
140.339000 36.032000 0.036028 36.412831
141.973000 39.876000 0.000000 36.849844
141.870000 39.666000 0.000000 37.563705
141.768000 39.456000 0.000000 38.478097
141.665000 39.246000 0.000000 39.606620
141.563000 39.036000 0.000000 40.860765
141.460000 38.826000 0.000231 42.241444
141.358000 38.616000 0.012556 43.641515
141.255000 38.406000 0.073891 45.028178
141.153000 38.196000 0.169410 46.373261
141.051000 37.986000 0.253638 47.569021
140.948000 37.776000 0.292163 48.648018
140.846000 37.566000 0.273158 49.536265
140.743000 37.356000 0.271020 50.248188
140.641000 37.146000 0.247752 50.757186
140.538000 36.936000 0.273826 51.115050
140.436000 36.726000 0.367935 51.288711
140.333000 36.516000 0.241898 51.361031
140.231000 36.306000 0.301434 51.316907
140.128000 36.096000 0.547415 51.197955
141.762000 39.940000 0.000000 50.972555
141.659000 39.730000 0.000000 50.443111
141.557000 39.520000 0.000000 49.615943
141.454000 39.310000 0.000000 41.607820
141.352000 39.100000 0.000000 41.439139
141.249000 38.890000 0.000000 41.685437
141.147000 38.680000 0.000000 42.236945
141.045000 38.470000 0.000000 43.091447
140.942000 38.260000 0.071662 44.150162
140.840000 38.049000 0.109075 45.406973
140.737000 37.840000 0.122027 46.831317
140.635000 37.630000 0.136984 48.311557
140.532000 37.419000 0.157518 49.841710
140.430000 37.209000 0.177668 51.304947
140.327000 36.999000 0.246170 52.704968
140.225000 36.789000 0.381836 53.941793
140.122000 36.579000 0.529543 55.043634
140.020000 36.369000 0.571680 55.936150
139.918000 36.159000 0.557613 56.670666
