145.024600 39.787300 0.000000 3.166500
144.922300 39.577300 0.000014 3.166500
144.819900 39.367200 0.000014 3.166500
144.717500 39.157200 0.000005 3.166500
144.615200 38.947100 0.000000 3.166500
144.512800 38.737100 0.000000 3.166500
144.410400 38.527100 0.000016 3.166500
144.308000 38.317000 0.000000 3.166500
144.205700 38.107000 0.000033 3.166500
144.103300 37.897000 0.000000 3.166500
144.000900 37.686900 0.000029 3.166500
143.898600 37.476900 0.000012 3.166500
143.796200 37.266800 0.000000 3.166500
143.693800 37.056800 0.000038 3.166500
143.591500 36.846800 0.000038 3.166500
143.489100 36.636700 0.000013 3.166500
143.386700 36.426700 0.000017 3.166500
143.284400 36.216600 0.000000 3.166500
143.182000 36.006600 0.000002 3.166500
143.079600 35.796600 0.000012 3.166500
142.977300 35.586500 0.000029 3.166500
144.813900 39.851000 0.000000 6.295200
144.711500 39.641000 0.000027 6.295200
144.609200 39.430900 0.000014 6.295200
144.506800 39.220900 0.000005 6.295200
144.404400 39.010900 0.000000 6.295200
144.302100 38.800800 0.000000 6.295200
144.199700 38.590800 0.000016 6.295200
144.097300 38.380700 0.000000 6.295200
143.995000 38.170700 0.000033 6.295200
143.892600 37.960700 0.000000 6.295200
143.790200 37.750600 0.000029 6.295200
143.687900 37.540600 0.000012 6.295200
143.585500 37.330500 0.000000 6.295200
143.483100 37.120500 0.000038 6.295200
143.380800 36.910500 0.000000 6.295200
143.278400 36.700400 0.000017 6.295200
143.176000 36.490400 0.000000 6.295200
143.073600 36.280300 0.000002 6.295200
142.971300 36.070300 0.000022 6.295200
142.868900 35.860300 0.000022 6.295200
142.766500 35.650200 0.000029 6.295200
144.603200 39.914700 0.000000 9.423900
144.500800 39.704700 0.000027 9.423900
144.398500 39.494600 0.000014 9.423900
144.296100 39.284600 0.000005 9.423900
144.193700 39.074600 0.000000 9.423900
144.091300 38.864500 0.000000 9.423900
143.989000 38.654500 0.000016 9.423900
143.886600 38.444400 0.000130 9.423900
143.784200 38.234400 0.000033 9.423900
143.681900 38.024400 0.000672 9.423900
143.579500 37.814300 0.007824 9.423900
143.477100 37.604300 0.000504 9.423900
143.374800 37.394200 0.005688 9.423900
143.272400 37.184200 0.005347 9.423900
143.170000 36.974200 0.000446 9.423900
143.067700 36.764100 0.000017 9.423900
142.965300 36.554100 0.000000 9.423900
142.862900 36.344100 0.000002 9.423900
142.760600 36.134000 0.000012 9.423900
142.658200 35.924000 0.000022 9.423900
142.555800 35.713900 0.000029 9.423900
144.392500 39.978400 0.000000 12.552500
144.290100 39.768400 0.000000 12.552500
144.187700 39.558300 0.000014 12.552500
144.085400 39.348300 0.000287 12.552500
143.983000 39.138300 0.005609 12.552500
143.880600 38.928200 0.002826 12.552500
143.778300 38.718200 0.006624 12.552500
143.675900 38.508100 0.006984 12.552500
143.573500 38.298100 0.031606 12.552500
143.471200 38.088100 0.034513 12.552500
143.368800 37.878000 0.027512 12.552500
143.266400 37.668000 0.030257 12.552500
143.164100 37.458000 0.047314 12.552500
143.061700 37.247900 0.032663 12.552500
142.959300 37.037900 0.053148 12.552500
142.856900 36.827800 0.014355 12.552500
142.754600 36.617800 0.019170 12.552500
142.652200 36.407800 0.013431 12.552500
142.549800 36.197700 0.002103 12.552500
142.447500 35.987700 0.001199 12.552500
142.345100 35.777600 0.001276 12.552500
144.181800 40.042100 0.000758 15.681200
144.079400 39.832100 0.010072 15.681200
143.977000 39.622000 0.014029 15.681200
143.874700 39.412000 0.025870 15.681200
143.772300 39.202000 0.026396 15.681200
143.669900 38.991900 0.027476 15.681200
143.567500 38.781900 0.033128 15.681200
143.465200 38.571900 0.035694 15.681200
143.362800 38.361800 0.064828 15.681200
143.260400 38.151800 0.080910 15.681200
143.158100 37.941700 0.081182 15.681200
143.055700 37.731700 0.105748 15.681200
142.953300 37.521700 0.085827 15.681200
142.851000 37.311600 0.083350 15.681200
142.748600 37.101600 0.103864 15.681200
142.646200 36.891500 0.086395 15.681200
142.543900 36.681500 0.069146 15.681200
142.441500 36.471500 0.044041 15.681200
142.339100 36.261400 0.054010 15.681200
142.236800 36.051400 0.033836 15.681200
142.134400 35.841400 0.061450 15.681200
143.971000 40.105800 0.027353 18.809900
143.868700 39.895800 0.049967 18.809900
143.766300 39.685800 0.059926 18.809900
143.663900 39.475700 0.064018 18.809900
143.561600 39.265700 0.060470 18.809900
143.459200 39.055600 0.092418 18.809900
143.356800 38.845600 0.115310 18.809900
143.254500 38.635600 0.104445 18.809900
143.152100 38.425500 0.148427 18.809900
143.049700 38.215500 0.153251 18.809900
142.947400 38.005400 0.157442 18.809900
142.845000 37.795400 0.173529 18.809900
142.742600 37.585400 0.170885 18.809900
142.640300 37.375300 0.183079 18.809900
142.537900 37.165300 0.149121 18.809900
142.435500 36.955300 0.152034 18.809900
142.333100 36.745200 0.155633 18.809900
142.230800 36.535200 0.121822 18.809900
142.128400 36.325100 0.131226 18.809900
142.026000 36.115100 0.123819 18.809900
141.923700 35.905100 0.099826 18.809900
143.760300 40.169500 0.073129 21.938600
143.658000 39.959500 0.106033 21.938600
143.555600 39.749500 0.098954 21.938600
143.453200 39.539400 0.110959 21.938600
143.350900 39.329400 0.138195 21.938600
143.248500 39.119300 0.139616 21.938600
143.146100 38.909300 0.177316 21.938600
143.043700 38.699300 0.173985 21.938600
142.941400 38.489200 0.223275 21.938600
142.839000 38.279200 0.227108 21.938600
142.736600 38.069200 0.271847 21.938600
142.634300 37.859100 0.242396 21.938600
142.531900 37.649100 0.241647 21.938600
142.429500 37.439000 0.260155 21.938600
142.327200 37.229000 0.256871 21.938600
142.224800 37.019000 0.243347 21.938600
142.122400 36.808900 0.260269 21.938600
142.020100 36.598900 0.218178 21.938600
141.917700 36.388800 0.216970 21.938600
141.815300 36.178800 0.193073 21.938600
141.713000 35.968800 0.186273 21.938600
143.549600 40.233200 0.131116 25.067300
143.447200 40.023200 0.159395 25.067300
143.344900 39.813200 0.152757 25.067300
143.242500 39.603100 0.178784 25.067300
143.140100 39.393100 0.203207 25.067300
143.037800 39.183100 0.226069 25.067300
142.935400 38.973000 0.242715 25.067300
142.833000 38.763000 0.280167 25.067300
142.730700 38.552900 0.297867 25.067300
142.628300 38.342900 0.370169 25.067300
142.525900 38.132900 0.367628 25.067300
142.423600 37.922800 0.369727 25.067300
142.321200 37.712800 0.346423 25.067300
142.218800 37.502700 0.312056 25.067300
142.116500 37.292700 0.324601 25.067300
142.014100 37.082700 0.323238 25.067300
141.911700 36.872600 0.290287 25.067300
141.809300 36.662600 0.272896 25.067300
141.707000 36.452600 0.266387 25.067300
141.604600 36.242500 0.245450 25.067300
141.502200 36.032500 0.218870 25.067300
143.338900 40.297000 0.231986 28.196000
143.236500 40.086900 0.229552 28.196000
143.134200 39.876900 0.259348 28.196000
143.031800 39.666800 0.263124 28.196000
142.929400 39.456800 0.320853 28.196000
142.827100 39.246800 0.287156 28.196000
142.724700 39.036700 0.310998 28.196000
142.622300 38.826700 0.329124 28.196000
142.519900 38.616600 0.423376 28.196000
142.417600 38.406600 0.464009 28.196000
142.315200 38.196600 0.501777 28.196000
142.212800 37.986500 0.455711 28.196000
142.110500 37.776500 0.375713 28.196000
142.008100 37.566500 0.365192 28.196000
141.905700 37.356400 0.373891 28.196000
141.803400 37.146400 0.336963 28.196000
141.701000 36.936300 0.298189 28.196000
141.598600 36.726300 0.274047 28.196000
141.496300 36.516300 0.283540 28.196000
141.393900 36.306200 0.277539 28.196000
141.291500 36.096200 0.216003 28.196000
143.128200 40.360700 0.300937 31.324700
143.025800 40.150600 0.291542 31.324700
142.923400 39.940600 0.330825 31.324700
142.821100 39.730500 0.377232 31.324700
142.718700 39.520500 0.397039 31.324700
142.616300 39.310500 0.390142 31.324700
142.514000 39.100400 0.420404 31.324700
142.411600 38.890400 0.406771 31.324700
142.309200 38.680400 0.479227 31.324700
142.206900 38.470300 0.518488 31.324700
142.104500 38.260300 0.566231 31.324700
142.002100 38.050200 0.525685 31.324700
141.899800 37.840200 0.387605 31.324700
141.797400 37.630200 0.343068 31.324700
141.695000 37.420100 0.360650 31.324700
141.592700 37.210100 0.311665 31.324700
141.490300 37.000000 0.202815 31.324700
141.387900 36.790000 0.178044 31.324700
141.285500 36.580000 0.161761 31.324700
141.183200 36.369900 0.190064 31.324700
141.080800 36.159900 0.140550 31.324700
142.917500 40.424400 0.362786 34.453400
142.815100 40.214300 0.378103 34.453400
142.712700 40.004300 0.395063 34.453400
142.610400 39.794300 0.408236 34.453400
142.508000 39.584200 0.433060 34.453400
142.405600 39.374200 0.441869 34.453400
142.303200 39.164100 0.463737 34.453400
142.200900 38.954100 0.447102 34.453400
142.098500 38.744100 0.493571 34.453400
141.996100 38.534000 0.545164 34.453400
141.893800 38.324000 0.602563 34.453400
141.791400 38.113900 0.538947 34.453400
141.689000 37.903900 0.353424 34.453400
141.586700 37.693900 0.269861 34.453400
141.484300 37.483800 0.264129 34.453400
141.381900 37.273800 0.226943 34.453400
141.279600 37.063700 0.126392 34.453400
141.177200 36.853700 0.095487 34.453400
141.074800 36.643700 0.034654 34.453400
140.972500 36.433600 0.076466 34.453400
140.870100 36.223600 0.044869 34.453400
142.706700 40.488100 0.410497 37.582100
142.604400 40.278000 0.409229 37.582100
142.502000 40.068000 0.409377 37.582100
142.399600 39.858000 0.420660 37.582100
142.297300 39.647900 0.409939 37.582100
142.194900 39.437900 0.427190 37.582100
142.092500 39.227800 0.434049 37.582100
141.990200 39.017800 0.430322 37.582100
141.887800 38.807800 0.415699 37.582100
141.785400 38.597700 0.464714 37.582100
141.683100 38.387700 0.526734 37.582100
141.580700 38.177600 0.513160 37.582100
141.478300 37.967600 0.383982 37.582100
141.376000 37.757600 0.214361 37.582100
141.273600 37.547500 0.201623 37.582100
141.171200 37.337500 0.170296 37.582100
141.068800 37.127500 0.070989 37.582100
140.966500 36.917400 0.000000 37.582100
140.864100 36.707400 0.000000 37.582100
140.761700 36.497300 0.000000 37.582100
140.659400 36.287300 0.000000 37.582100
