144.259700 39.732500 0.669956 11.029102
144.171100 39.518500 0.623943 10.687585
144.082500 39.304600 0.616322 10.923784
143.993900 39.090600 0.640084 11.185170
143.905300 38.876600 0.697778 11.547926
143.816700 38.662700 0.776537 12.004300
143.728000 38.448700 0.851624 12.517233
143.639400 38.234700 0.907505 13.043832
143.550800 38.020700 0.956230 13.551162
143.462200 37.806800 0.973564 14.009825
143.373600 37.592800 0.963203 14.389488
143.284900 37.378800 0.935193 14.661385
143.196300 37.164900 0.886769 14.797454
143.107700 36.950900 0.833882 14.776350
143.019100 36.736900 0.775100 14.568134
142.930500 36.523000 0.723764 14.103752
142.841900 36.309000 0.761558 13.275537
142.753200 36.095000 0.799599 12.486506
142.664600 35.881000 0.837805 12.100394
142.576000 35.667100 0.875368 10.853842
144.044900 39.787300 0.666591 12.575225
143.956200 39.573300 0.615089 12.858266
143.867600 39.359300 0.584519 13.132251
143.779000 39.145400 0.603475 13.471194
143.690400 38.931400 0.655429 13.900205
143.601800 38.717400 0.741667 14.403838
143.513200 38.503500 0.826830 14.949853
143.424500 38.289500 0.892993 15.506800
143.335900 38.075500 0.945078 16.042989
143.247300 37.861500 0.962361 16.528653
143.158700 37.647600 0.946522 16.930257
143.070100 37.433600 0.914420 17.213068
142.981500 37.219600 0.870190 17.347510
142.892800 37.005700 0.806482 17.312365
142.804200 36.791700 0.742957 17.077214
142.715600 36.577700 0.685074 16.579975
142.627000 36.363800 0.608303 15.704937
142.538400 36.149800 0.493839 14.377927
142.449800 35.935800 0.354538 12.758010
142.361100 35.721800 0.302970 11.241518
143.830000 39.842100 0.643653 15.055248
143.741400 39.628100 0.580376 15.353830
143.652800 39.414100 0.536397 15.676574
143.564100 39.200100 0.544854 16.073389
143.475500 38.986200 0.594050 16.552851
143.386900 38.772200 0.686582 17.100300
143.298300 38.558200 0.781415 17.690809
143.209700 38.344300 0.874065 18.296295
143.121100 38.130300 0.930651 18.884230
143.032400 37.916300 0.943989 19.419303
142.943800 37.702400 0.926815 19.859240
142.855200 37.488400 0.887627 20.166185
142.766600 37.274400 0.834202 20.308668
142.678000 37.060400 0.765967 20.264693
142.589400 36.846500 0.715678 20.014185
142.500700 36.632500 0.653568 19.505412
142.412100 36.418500 0.577888 18.621453
142.323500 36.204600 0.466484 17.251119
142.234900 35.990600 0.343002 15.480509
142.146300 35.776600 0.279961 13.708155
143.615100 39.896800 0.594125 17.899250
143.526500 39.682900 0.524440 18.194453
143.437900 39.468900 0.477510 18.555685
143.349300 39.254900 0.465434 19.007123
143.260600 39.040900 0.501340 19.549483
143.172000 38.827000 0.590105 20.163860
143.083400 38.613000 0.716487 20.825618
142.994800 38.399000 0.840166 21.502872
142.906200 38.185100 0.901350 22.157590
142.817600 37.971100 0.917684 22.746340
142.728900 37.757100 0.898702 23.227361
142.640300 37.543200 0.851519 23.558393
142.551700 37.329200 0.770913 23.709287
142.463100 37.115200 0.711210 23.661597
142.374500 36.901200 0.663033 23.402040
142.285900 36.687300 0.601211 22.893234
142.197200 36.473300 0.534251 22.026959
142.108600 36.259300 0.426364 20.656633
142.020000 36.045400 0.296122 18.808861
141.931400 35.831400 0.216971 16.854536
143.400200 39.951600 0.546778 21.133754
143.311600 39.737600 0.459339 21.435265
143.223000 39.523700 0.398967 21.845947
143.134400 39.309700 0.370460 22.368013
143.045800 39.095700 0.400220 22.990468
142.957200 38.881800 0.516610 23.691162
142.868500 38.667800 0.646029 24.439706
142.779900 38.453800 0.796460 25.194223
142.691300 38.239800 0.865447 25.912384
142.602700 38.025900 0.885726 26.548790
142.514100 37.811900 0.870627 27.058757
142.425500 37.597900 0.816803 27.405085
142.336800 37.384000 0.728170 27.563024
142.248200 37.170000 0.655333 27.513315
142.159600 36.956000 0.592768 27.252180
142.071000 36.742000 0.535202 26.754755
141.982400 36.528100 0.478153 25.930883
141.893800 36.314100 0.385431 24.632774
141.805100 36.100100 0.235815 22.849359
141.716500 35.886200 0.110679 20.898955
143.096800 39.792400 0.389113 24.817353
143.008100 39.578400 0.320395 25.155388
142.919500 39.364500 0.279504 25.635948
142.830900 39.150500 0.313394 26.244124
142.742300 38.936500 0.431251 26.959143
142.653700 38.722600 0.589191 27.750659
142.565100 38.508600 0.731390 28.580190
142.476400 38.294600 0.823149 29.402160
142.387800 38.080600 0.851797 30.171684
142.299200 37.866700 0.836670 30.838853
142.210600 37.652700 0.769260 31.365183
142.122000 37.438700 0.690414 31.716506
142.033400 37.224800 0.615424 31.871360
141.944700 37.010800 0.527135 31.821116
141.856100 36.796800 0.475005 31.566542
141.767500 36.582800 0.429317 31.094371
141.678900 36.368900 0.333896 30.345713
141.590300 36.154900 0.160940 29.211893
141.501700 35.940900 0.021999 27.668674
142.881900 39.847200 0.309913 25.936716
142.793300 39.633200 0.233085 29.006578
142.704600 39.419200 0.173756 29.411385
142.616000 39.205300 0.202850 29.976463
142.527400 38.991300 0.325295 30.681151
142.438800 38.777300 0.492592 31.491012
142.350200 38.563400 0.658847 32.368015
142.261600 38.349400 0.758729 33.267099
142.172900 38.135400 0.800752 34.140035
142.084300 37.921400 0.790954 34.937839
141.995700 37.707500 0.737026 35.619727
141.907100 37.493500 0.652861 36.145264
141.818500 37.279500 0.563536 36.490674
141.729900 37.065600 0.473491 36.638619
141.641200 36.851600 0.410674 36.585646
141.552600 36.637600 0.373432 36.339058
141.464000 36.423700 0.265304 35.903528
141.375400 36.209700 0.102245 35.252510
141.286800 35.995700 0.000263 34.332603
142.667000 39.902000 0.258699 33.120806
142.578400 39.688000 0.140132 31.706671
142.489800 39.474000 0.088786 33.716739
142.401200 39.260000 0.093099 34.213986
142.312500 39.046100 0.214127 34.880055
142.223900 38.832100 0.373302 35.683607
142.135300 38.618100 0.530637 36.585181
142.046700 38.404200 0.646236 37.541368
141.958100 38.190200 0.724493 38.495821
141.869500 37.976200 0.723327 39.400916
141.780800 37.762200 0.676061 40.210985
141.692200 37.548300 0.609764 40.886005
141.603600 37.334300 0.530224 41.397130
141.515000 37.120300 0.412535 41.727112
141.426400 36.906400 0.349016 41.862697
141.337800 36.692400 0.309586 41.805371
141.249100 36.478400 0.194039 41.567111
141.160500 36.264500 0.047258 41.165659
141.071900 36.050500 0.000000 40.606041
142.452100 39.956700 0.033644 39.876128
142.363500 39.742800 0.000000 38.943422
142.274900 39.528800 0.000000 37.780931
142.186300 39.314800 0.013216 38.927299
142.097700 39.100800 0.098661 39.540427
142.009100 38.886900 0.253786 40.322612
141.920400 38.672900 0.385325 41.233565
141.831800 38.458900 0.487544 42.226395
141.743200 38.245000 0.570512 43.248754
141.654600 38.031000 0.620722 44.247793
141.566000 37.817000 0.608975 45.174844
141.477400 37.603100 0.567988 45.982623
141.388700 37.389100 0.486357 46.641843
141.300100 37.175100 0.393597 47.128755
141.211500 36.961100 0.318423 47.431709
141.122900 36.747200 0.254747 47.548331
141.034300 36.533200 0.148162 47.484716
140.945700 36.319200 0.000191 47.252137
140.857000 36.105300 0.000000 46.877761
142.148600 39.797500 0.000000 46.387865
142.060000 39.583600 0.000000 45.782514
141.971400 39.369600 0.000000 45.012861
141.882800 39.155600 0.025723 43.984426
141.794200 38.941600 0.119464 44.599376
141.705600 38.727700 0.168240 45.346654
141.616900 38.513700 0.271892 46.262645
141.528300 38.299700 0.368229 47.291565
141.439700 38.085800 0.465254 48.379547
141.351100 37.871800 0.501992 49.470265
141.262500 37.657800 0.498206 50.509096
141.173900 37.443900 0.439505 51.448996
141.085200 37.229900 0.378780 52.253592
140.996600 37.015900 0.294291 52.891667
140.908000 36.801900 0.226118 53.351717
140.819400 36.588000 0.159418 53.625971
140.730800 36.374000 0.000000 53.717586
140.642200 36.160000 0.000000 53.638140
