144.541300 39.183200 0.840171 10.311284
144.455500 39.016400 0.864201 9.987253
144.369800 38.849500 0.888386 9.775473
144.284100 38.682600 0.905896 9.775473
144.198300 38.515700 0.905142 9.776082
144.112600 38.348800 0.900656 9.842221
144.026900 38.182000 0.895542 10.059399
143.941100 38.015100 0.902347 9.861019
143.855400 37.848200 0.910652 10.390616
143.769700 37.681300 0.920112 10.791141
143.683900 37.514400 0.929572 11.231292
143.598200 37.347600 0.939032 11.639300
143.512500 37.180700 0.923838 11.921341
143.426700 37.013800 0.886679 12.117262
143.341000 36.846900 0.896571 12.251383
143.255300 36.680000 0.902970 12.356236
143.169500 36.513200 0.906992 12.847199
143.083800 36.346300 0.916884 13.039475
142.998000 36.179400 0.924654 12.741896
144.332300 39.249600 0.710979 10.221025
144.246600 39.082800 0.713492 9.987253
144.160800 38.915900 0.749645 9.866675
144.075100 38.749000 0.785660 10.009483
143.989400 38.582100 0.821167 10.244541
143.903600 38.415200 0.855615 10.765664
143.817900 38.248400 0.900536 11.304486
143.732100 38.081500 0.941221 11.850764
143.646400 37.914600 0.967386 12.383207
143.560700 37.747700 0.974561 12.884943
143.474900 37.580800 0.967597 13.339738
143.389200 37.414000 0.947732 13.729408
143.303500 37.247100 0.912114 14.039557
143.217700 37.080200 0.873470 14.259077
143.132000 36.913300 0.828682 14.373842
143.046300 36.746400 0.780910 14.365646
142.960500 36.579600 0.727586 14.198827
142.874800 36.412700 0.729510 13.812676
142.789100 36.245800 0.737800 13.152941
144.123300 39.316000 0.618204 10.569757
144.037600 39.149200 0.633146 10.929906
143.951800 38.982300 0.667522 11.329731
143.866100 38.815400 0.719641 11.806209
143.780400 38.648500 0.780085 12.344518
143.694600 38.481600 0.841395 12.921763
143.608900 38.314800 0.887684 13.513329
143.523200 38.147900 0.932550 14.101740
143.437400 37.981000 0.962216 14.673126
143.351700 37.814100 0.969220 15.210237
143.266000 37.647200 0.958662 15.697981
143.180200 37.480400 0.934345 16.120917
143.094500 37.313500 0.900397 16.459845
143.008800 37.146600 0.861002 16.702010
142.923000 36.979700 0.807058 16.835822
142.837300 36.812800 0.753277 16.842183
142.751600 36.646000 0.706480 16.690467
142.665800 36.479100 0.648608 16.324612
142.580100 36.312200 0.579422 15.680776
143.914300 39.382400 0.590589 12.721590
143.828600 39.215600 0.596865 13.133741
143.742900 39.048700 0.622992 13.611316
143.657100 38.881800 0.673925 14.153649
143.571400 38.714900 0.740706 14.743599
143.485700 38.548000 0.805911 15.364644
143.399900 38.381200 0.866394 16.002578
143.314200 38.214300 0.918561 16.640659
143.228500 38.047400 0.946655 17.265492
143.142700 37.880500 0.953043 17.861056
143.057000 37.713600 0.938331 18.405294
142.971300 37.546800 0.915068 18.879572
142.885500 37.379900 0.879073 19.265482
142.799800 37.213000 0.828204 19.545019
142.714100 37.046100 0.772988 19.707412
142.628300 36.879200 0.728748 19.741221
142.542600 36.712400 0.682369 19.620415
142.456900 36.545500 0.621568 19.295962
142.371100 36.378600 0.550952 18.700270
143.705400 39.448800 0.549517 15.176687
143.619600 39.282000 0.543196 15.655266
143.533900 39.115100 0.562273 16.193399
143.448200 38.948200 0.605391 16.790015
143.362400 38.781300 0.676990 17.436502
143.276700 38.614400 0.750392 18.118320
143.191000 38.447600 0.829590 18.823660
143.105200 38.280700 0.893831 19.537855
143.019500 38.113800 0.926747 20.239716
142.933800 37.946900 0.932991 20.908857
142.848000 37.780000 0.919837 21.523536
142.762300 37.613200 0.888542 22.058624
142.676600 37.446300 0.845012 22.494793
142.590800 37.279400 0.772930 22.818428
142.505100 37.112500 0.722212 23.016515
142.419300 36.945600 0.680525 23.083992
142.333600 36.778800 0.629285 23.003121
142.247900 36.611900 0.578750 22.734407
142.162100 36.445000 0.515893 22.209838
143.496400 39.515200 0.496098 17.953811
143.410700 39.348400 0.473544 18.493008
143.324900 39.181500 0.477388 19.100403
143.239200 39.014600 0.507243 19.770785
143.153400 38.847700 0.573669 20.498363
143.067700 38.680800 0.663546 21.267925
142.982000 38.514000 0.778175 22.065052
142.896200 38.347100 0.855721 22.870738
142.810500 38.180200 0.891637 23.659060
142.724800 38.013300 0.900597 24.406689
142.639000 37.846400 0.891804 25.090409
142.553300 37.679600 0.859169 25.684588
142.467600 37.512700 0.801498 26.170898
142.381800 37.345800 0.730649 26.537899
142.296100 37.178900 0.672896 26.774720
142.210400 37.012000 0.616054 26.879533
142.124600 36.845200 0.565931 26.847030
142.038900 36.678300 0.516745 26.644572
141.953200 36.511400 0.465210 26.215784
143.287400 39.581600 0.428056 21.115335
143.201700 39.414800 0.389557 21.730370
143.115900 39.247900 0.370265 22.425562
143.030200 39.081000 0.405355 23.191995
142.944500 38.914100 0.493905 24.019536
142.858700 38.747200 0.587551 24.893544
142.773000 38.580400 0.703263 25.790372
142.687300 38.413500 0.803898 26.687017
142.601500 38.246600 0.854778 27.559802
142.515800 38.079700 0.873216 28.379009
142.430100 37.912800 0.863061 29.121927
142.344300 37.746000 0.828920 29.769784
142.258600 37.579100 0.761358 30.301087
142.172900 37.412200 0.694680 30.707440
142.087100 37.245300 0.634288 30.985939
142.001400 37.078400 0.557337 31.133299
141.915700 36.911600 0.504994 31.151707
141.829900 36.744700 0.461310 31.027677
141.744200 36.577800 0.423996 30.722220
143.078400 39.648000 0.360385 24.747532
142.992700 39.481200 0.307518 25.455375
142.907000 39.314300 0.282300 26.251851
142.821200 39.147400 0.312479 27.127943
142.735500 38.980500 0.397152 28.063452
142.649800 38.813600 0.510358 29.039174
142.564000 38.646800 0.630506 30.032958
142.478300 38.479900 0.732528 31.013269
142.392600 38.313000 0.801726 31.955481
142.306800 38.146100 0.828257 32.836066
142.221100 37.979200 0.824904 33.628224
142.135400 37.812400 0.794806 34.316233
142.049600 37.645500 0.734637 34.887466
141.963900 37.478600 0.665030 35.330823
141.878200 37.311700 0.592777 35.646513
141.792400 37.144800 0.513680 35.840153
141.706700 36.978000 0.449085 35.914172
141.621000 36.811100 0.400756 35.869047
141.535200 36.644200 0.369418 35.696461
142.869500 39.714400 0.281100 28.905341
142.783700 39.547600 0.209866 29.719763
142.698000 39.380700 0.179413 30.626198
142.612300 39.213800 0.196513 31.610412
142.526500 39.046900 0.277893 32.653154
142.440800 38.880000 0.400033 33.724913
142.355100 38.713200 0.522374 34.800803
142.269300 38.546300 0.644090 35.853915
142.183600 38.379400 0.714321 36.853408
142.097900 38.212500 0.762026 37.777631
142.012100 38.045600 0.765489 38.609071
141.926400 37.878800 0.738645 39.329038
141.840600 37.711900 0.687117 39.930871
141.754900 37.545000 0.623153 40.406326
141.669200 37.378100 0.558720 40.758585
141.583400 37.211200 0.468772 40.995704
141.497700 37.044400 0.389988 41.124141
141.412000 36.877500 0.342773 41.154368
141.326200 36.710600 0.306811 41.096379
142.660500 39.780800 0.220309 33.607106
142.574700 39.614000 0.143382 34.533949
142.489000 39.447100 0.086588 35.552928
142.403300 39.280200 0.085081 36.645042
142.317500 39.113300 0.162821 37.786923
142.231800 38.946400 0.286290 38.945240
142.146100 38.779600 0.395527 40.093534
142.060300 38.612700 0.504806 41.204765
141.974600 38.445800 0.580339 42.249002
141.888900 38.278900 0.641243 43.207476
141.803100 38.112000 0.673331 44.066357
141.717400 37.945200 0.662656 44.810383
141.631700 37.778300 0.633137 45.434221
141.545900 37.611400 0.586430 45.939611
141.460200 37.444500 0.520617 46.324780
141.374500 37.277600 0.441189 46.599757
141.288700 37.110800 0.371928 46.780635
141.203000 36.943900 0.313052 46.876175
141.117300 36.777000 0.258568 46.905863
