144.574000 39.595000 0.712971 10.678292
144.471000 39.385000 0.694683 10.311284
144.369000 39.175000 0.744969 9.987253
144.266000 38.965000 0.793271 9.962604
144.164000 38.755000 0.842285 10.009483
144.061000 38.544000 0.876377 9.776082
143.958000 38.334000 0.908483 10.161925
143.856000 38.124000 0.941003 10.767952
143.753000 37.914000 0.964915 11.373949
143.651000 37.704000 0.959919 11.935212
143.548000 37.494000 0.951760 12.434355
143.445000 37.284000 0.931263 12.828477
143.343000 37.074000 0.885479 13.081282
143.240000 36.864000 0.879459 13.187193
143.138000 36.654000 0.882828 13.091983
143.035000 36.444000 0.885192 13.039475
142.933000 36.234000 0.889259 12.741896
142.830000 36.024000 0.892300 12.586594
142.727000 35.814000 0.894997 12.100394
142.625000 35.604000 0.898574 10.853842
142.522000 35.394000 0.911387 9.999857
144.363000 39.658000 0.658060 10.797846
144.261000 39.448000 0.639899 10.311284
144.158000 39.238000 0.627896 10.165917
144.056000 39.028000 0.659241 10.486172
143.953000 38.818000 0.717978 10.981611
143.850000 38.608000 0.794569 11.578266
143.748000 38.398000 0.865799 12.226472
143.645000 38.188000 0.918839 12.900699
143.543000 37.978000 0.961859 13.545031
143.440000 37.768000 0.972433 14.149265
143.338000 37.558000 0.958323 14.661656
143.235000 37.348000 0.924099 15.072185
143.132000 37.138000 0.875744 15.343037
143.030000 36.928000 0.816546 15.439974
142.927000 36.718000 0.751814 15.347157
142.825000 36.508000 0.685500 14.964967
142.722000 36.298000 0.598284 14.196940
142.619000 36.088000 0.546680 12.977833
142.517000 35.877000 0.519596 11.623998
142.414000 35.667000 0.488256 10.414086
142.312000 35.458000 0.451768 9.999857
144.153000 39.722000 0.658672 11.379895
144.050000 39.512000 0.617951 11.773807
143.948000 39.302000 0.602298 12.161293
143.845000 39.092000 0.626346 12.640333
143.742000 38.882000 0.684511 13.224927
143.640000 38.672000 0.762846 13.881040
143.537000 38.461000 0.844084 14.590210
143.435000 38.251000 0.903757 15.300572
143.332000 38.041000 0.949703 16.004006
143.230000 37.831000 0.962712 16.647120
143.127000 37.621000 0.940485 17.218917
143.024000 37.411000 0.905415 17.671945
142.922000 37.201000 0.856368 17.962434
142.819000 36.991000 0.788295 18.089321
142.717000 36.781000 0.726308 17.998454
142.614000 36.571000 0.662537 17.645127
142.511000 36.361000 0.585758 16.897260
142.409000 36.151000 0.466481 15.667485
142.306000 35.941000 0.335704 14.125343
142.204000 35.731000 0.286182 12.655005
142.101000 35.521000 0.372695 11.692753
143.942000 39.785000 0.651735 13.632086
143.840000 39.575000 0.595397 14.078374
143.737000 39.365000 0.558047 14.557040
143.635000 39.155000 0.574275 15.104961
143.532000 38.945000 0.625785 15.756139
143.429000 38.735000 0.713078 16.480839
143.327000 38.525000 0.800750 17.239962
143.224000 38.315000 0.887429 18.031330
143.122000 38.105000 0.934084 18.798387
143.019000 37.895000 0.942406 19.530285
142.916000 37.685000 0.922740 20.172164
142.814000 37.475000 0.878436 20.669166
142.711000 37.265000 0.813502 21.014980
142.609000 37.055000 0.743551 21.158657
142.506000 36.845000 0.695511 21.106135
142.404000 36.635000 0.626866 20.778382
142.301000 36.425000 0.550824 20.086255
142.198000 36.215000 0.434523 18.893379
142.096000 36.005000 0.308350 17.258317
141.993000 35.794000 0.235416 15.587353
141.891000 35.584000 0.144596 14.387339
143.732000 39.849000 0.621065 16.240552
143.629000 39.639000 0.546259 16.729882
143.527000 39.429000 0.505487 17.258679
143.424000 39.219000 0.500184 17.890392
143.321000 39.009000 0.536185 18.617341
143.219000 38.799000 0.621923 19.410875
143.116000 38.589000 0.740227 20.275037
143.014000 38.379000 0.850644 21.150491
142.911000 38.168000 0.905348 22.024619
142.808000 37.958000 0.916696 22.844401
142.706000 37.748000 0.894563 23.544424
142.603000 37.538000 0.840757 24.113754
142.501000 37.328000 0.758396 24.488454
142.398000 37.118000 0.691371 24.680528
142.296000 36.908000 0.635041 24.646258
142.193000 36.698000 0.573345 24.381382
142.090000 36.488000 0.502391 23.767456
141.988000 36.278000 0.396897 22.648099
141.885000 36.068000 0.258146 21.071963
141.783000 35.858000 0.165224 19.367720
141.680000 35.648000 0.000000 18.069892
143.521000 39.912000 0.573258 19.225040
143.419000 39.702000 0.491385 19.725554
143.316000 39.492000 0.434563 20.333989
143.213000 39.282000 0.401633 21.054920
143.111000 39.072000 0.433651 21.868805
143.008000 38.862000 0.538260 22.787636
142.906000 38.652000 0.661496 23.750400
142.803000 38.442000 0.805830 24.751231
142.701000 38.232000 0.868335 25.710503
142.598000 38.022000 0.885585 26.613842
142.495000 37.812000 0.867231 27.396858
142.393000 37.602000 0.808644 28.001595
142.290000 37.392000 0.718859 28.435108
142.188000 37.182000 0.640573 28.647662
142.085000 36.972000 0.568774 28.670275
141.982000 36.762000 0.504870 28.467013
141.880000 36.552000 0.452187 27.945544
141.777000 36.342000 0.360208 27.021504
141.675000 36.132000 0.185763 25.658820
141.572000 35.922000 0.033512 24.170674
141.470000 35.711000 0.000000 22.880374
143.311000 39.976000 0.522904 22.613740
143.208000 39.766000 0.426331 23.174890
143.105000 39.556000 0.356615 23.870903
143.003000 39.346000 0.313881 24.684593
142.900000 39.136000 0.343602 25.635047
142.798000 38.926000 0.453107 26.659962
142.695000 38.716000 0.600233 27.757885
142.593000 38.506000 0.735469 28.845274
142.490000 38.296000 0.824337 29.910176
142.387000 38.085000 0.851092 30.878219
142.285000 37.875000 0.834552 31.694975
142.182000 37.665000 0.769110 32.359952
142.080000 37.455000 0.685103 32.811059
141.977000 37.245000 0.601125 33.078751
141.874000 37.035000 0.510890 33.146540
141.772000 36.825000 0.453194 32.993563
141.669000 36.615000 0.405795 32.622188
141.567000 36.405000 0.300495 31.924279
141.464000 36.195000 0.129195 30.939066
141.362000 35.985000 0.007538 29.775561
141.259000 35.775000 0.000000 28.651060
142.997000 39.829000 0.355190 26.485114
142.895000 39.619000 0.275406 27.125350
142.792000 39.409000 0.216106 27.911091
142.690000 39.199000 0.238282 28.865403
142.587000 38.989000 0.351713 29.923988
142.485000 38.779000 0.503439 31.090214
142.382000 38.569000 0.661853 32.276899
142.279000 38.359000 0.759910 33.474751
142.177000 38.149000 0.798163 34.610489
142.074000 37.939000 0.789139 35.614190
141.972000 37.729000 0.734236 36.489880
141.869000 37.519000 0.647871 37.165338
141.767000 37.309000 0.559111 37.667706
141.664000 37.099000 0.453863 37.950792
141.561000 36.889000 0.386397 38.066360
141.459000 36.679000 0.349708 38.005877
141.356000 36.469000 0.238645 37.747236
141.254000 36.259000 0.080071 37.313577
141.151000 36.049000 0.000000 36.652739
141.048000 35.839000 0.000000 35.832223
142.787000 39.893000 0.288626 34.840506
142.684000 39.683000 0.194344 30.852385
142.582000 39.473000 0.123421 31.597533
142.479000 39.263000 0.114480 32.525509
142.377000 39.053000 0.227338 33.588564
142.274000 38.843000 0.379559 34.794614
142.171000 38.633000 0.531729 36.053191
142.069000 38.423000 0.643584 37.357862
141.966000 38.213000 0.722946 38.630819
141.864000 38.002000 0.719167 39.796282
141.761000 37.792000 0.673529 40.858216
141.659000 37.582000 0.610890 41.727931
141.556000 37.372000 0.529261 42.446315
141.453000 37.162000 0.409785 42.949414
141.351000 36.952000 0.339319 43.286205
141.248000 36.742000 0.289190 43.446465
141.146000 36.532000 0.181567 43.429367
141.043000 36.322000 0.004963 43.303882
140.940000 36.112000 0.000000 43.030189
140.838000 35.902000 0.000000 42.630622
142.576000 39.956000 0.250588 42.012226
142.474000 39.746000 0.000026 41.100430
142.371000 39.536000 -0.000307 35.738124
142.269000 39.326000 0.024149 36.610774
142.166000 39.116000 0.102348 37.652144
142.064000 38.906000 0.257969 38.873017
141.961000 38.696000 0.391373 40.179970
141.858000 38.486000 0.482375 41.569392
141.756000 38.276000 0.561162 42.933344
141.653000 38.066000 0.606358 44.267483
141.551000 37.856000 0.603208 45.497024
141.448000 37.646000 0.565400 46.557563
141.345000 37.436000 0.491447 47.474855
141.243000 37.226000 0.405215 48.182829
141.140000 37.016000 0.324312 48.729031
141.038000 36.806000 0.247190 49.094076
140.935000 36.596000 0.164490 49.269584
140.833000 36.386000 -0.000093 49.334422
140.730000 36.176000 0.000000 49.272171
140.627000 35.966000 0.000000 49.151418
142.263000 39.810000 0.000000 48.876238
142.161000 39.600000 0.000000 48.373751
142.058000 39.390000 0.000000 47.554948
141.956000 39.180000 0.038856 41.104524
141.853000 38.970000 0.119634 42.098291
141.750000 38.760000 0.174901 43.312602
141.648000 38.550000 0.273491 44.649996
141.545000 38.340000 0.345019 46.109015
141.443000 38.130000 0.446718 47.576162
141.340000 37.919000 0.478057 49.046413
141.237000 37.709000 0.477542 50.437244
141.135000 37.499000 0.430329 51.675326
141.032000 37.289000 0.371071 52.784444
140.930000 37.079000 0.293532 53.688716
140.827000 36.869000 0.236803 54.425036
140.725000 36.659000 0.208663 54.986693
140.622000 36.449000 -0.001942 55.347113
140.519000 36.239000 0.000000 55.582090
140.417000 36.029000 0.000000 55.670498
142.053000 39.873000 0.000000 55.709802
141.950000 39.663000 0.000000 55.669075
141.848000 39.453000 0.000000 55.545152
141.745000 39.243000 0.000000 55.137260
141.642000 39.033000 0.001616 54.321763
141.540000 38.823000 0.031768 46.860680
141.437000 38.613000 0.049926 48.044997
141.335000 38.403000 0.139148 49.397656
141.232000 38.193000 0.216571 50.916425
141.130000 37.983000 0.295093 52.482161
141.027000 37.773000 0.347070 54.088371
140.924000 37.563000 0.320093 55.644622
140.822000 37.353000 0.303734 57.067485
140.719000 37.143000 0.262950 58.376635
140.617000 36.933000 0.265355 59.484321
140.514000 36.723000 0.321149 60.436293
140.411000 36.513000 0.090825 61.168367
140.309000 36.303000 0.007106 61.746000
140.206000 36.093000 0.293587 62.154286
141.842000 39.937000 0.000000 62.390500
141.740000 39.727000 0.000000 62.555083
141.637000 39.517000 0.000000 62.641649
141.534000 39.307000 0.000000 62.744665
141.432000 39.097000 0.000000 62.770467
141.329000 38.887000 0.000000 62.467126
141.227000 38.677000 -0.000001 61.735751
141.124000 38.467000 0.007035 53.022573
141.022000 38.257000 0.091356 54.364896
140.919000 38.047000 0.151067 55.930454
140.816000 37.836000 0.176777 57.592382
140.714000 37.626000 0.184110 59.340494
140.611000 37.416000 0.196523 61.075720
140.509000 37.206000 0.205698 62.703393
140.406000 36.996000 0.259819 64.236824
140.303000 36.786000 0.379591 65.574194
140.201000 36.576000 0.530591 66.756899
140.098000 36.366000 0.593448 67.708636
139.996000 36.156000 0.590835 68.493778
