144.120800 39.545000 0.625568 12.151503
143.992200 39.106500 0.636474 15.367038
143.863600 38.668100 0.778537 17.392083
143.734900 38.229700 0.907389 26.592234
143.606300 37.791200 0.974788 38.920688
143.477700 37.352800 0.943104 11.220195
143.845000 39.595100 0.600592 11.238554
143.716300 39.156600 0.590567 11.552169
143.587700 38.718200 0.740552 12.071954
143.459100 38.279800 0.895578 12.532093
143.330400 37.841300 0.967434 12.722307
143.201800 37.402900 0.926521 14.087568
143.702000 39.620100 0.565571 14.186279
143.573400 39.181600 0.551643 14.565157
143.444800 38.743200 0.711308 15.088335
143.316100 38.304800 0.891615 15.517560
143.187500 37.866400 0.958348 15.614833
143.058900 37.427900 0.912200 15.785635
143.146800 39.720000 0.397188 15.907262
143.018100 39.281600 0.326955 16.306961
142.889500 38.843200 0.531131 16.838024
142.760900 38.404700 0.819184 17.261952
142.632200 37.966300 0.892527 17.323070
142.503600 37.527900 0.813464 23.946871
142.591600 39.819900 0.215910 24.161222
142.463000 39.381500 0.077533 24.706317
142.334300 38.943000 0.312492 25.340675
142.205700 38.504600 0.643771 25.761968
142.077100 38.066200 0.781717 25.662249
141.948400 37.627700 0.699187 35.380102
143.198300 36.941100 0.844021 35.795806
142.922400 36.991200 0.809544 36.472961
142.788100 37.016200 0.785476 37.074652
142.244200 37.116200 0.639572 37.286757
141.700400 37.216000 0.510101 36.872970
142.869300 36.536100 0.700290 13.878532
142.593400 36.586200 0.662735 16.902685
142.461400 36.611200 0.635785 18.604691
141.920400 36.711200 0.485080 27.159424
141.379500 36.811000 0.329725 38.474241
142.540400 36.131100 0.484757 14.747629
142.264500 36.181200 0.437092 18.004779
142.134500 36.206300 0.409034 19.821752
141.596400 36.306200 0.256100 29.021750
141.058300 36.406000 0.075594 41.103680
142.305400 35.711100 0.302278 14.153696
142.029500 35.761200 0.255010 17.644063
141.901800 35.786300 0.188042 19.595089
141.366500 35.886200 0.000000 29.905037
140.831300 35.986000 0.000000 43.446102
