143.841300 40.546400 0.090925 13.650000
143.752700 40.332400 0.104380 13.650000
143.664000 40.118400 0.089071 13.650000
143.575400 39.904500 0.108240 13.650000
143.486800 39.690500 0.111058 13.650000
143.398200 39.476500 0.104306 13.650000
143.309600 39.262600 0.136751 13.650000
143.221000 39.048600 0.139829 13.650000
143.132400 38.834600 0.178042 13.650000
143.043700 38.620600 0.217751 13.650000
142.955100 38.406700 0.209068 13.650000
142.866500 38.192700 0.227108 13.650000
142.777900 37.978700 0.203966 13.650000
142.689300 37.764800 0.242396 13.650000
142.600700 37.550800 0.193645 13.650000
142.512100 37.336800 0.215645 13.650000
142.423400 37.122800 0.193197 13.650000
142.334800 36.908900 0.186970 13.650000
142.246200 36.694900 0.187361 13.650000
142.157600 36.480900 0.149977 13.650000
142.069000 36.267000 0.131226 13.650000
141.980400 36.053000 0.119504 13.650000
141.891800 35.839000 0.100082 13.650000
141.803100 35.625100 0.054585 13.650000
141.714500 35.411100 0.000000 13.650000
143.666400 40.591000 0.159761 17.946400
143.577700 40.377000 0.153251 17.946400
143.489100 40.163000 0.168705 17.946400
143.400500 39.949100 0.160525 17.946400
143.311900 39.735100 0.163778 17.946400
143.223300 39.521100 0.178784 17.946400
143.134700 39.307100 0.196765 17.946400
143.046100 39.093200 0.218017 17.946400
142.957400 38.879200 0.238821 17.946400
142.868800 38.665200 0.278094 17.946400
142.780200 38.451300 0.292480 17.946400
142.691600 38.237300 0.311954 17.946400
142.603000 38.023300 0.331090 17.946400
142.514400 37.809400 0.292546 17.946400
142.425800 37.595400 0.281289 17.946400
142.337100 37.381400 0.266242 17.946400
142.248500 37.167400 0.288185 17.946400
142.159900 36.953500 0.273946 17.946400
142.071300 36.739500 0.256269 17.946400
141.982700 36.525500 0.218178 17.946400
141.894100 36.311600 0.210893 17.946400
141.805500 36.097600 0.180710 17.946400
141.716800 35.883600 0.157853 17.946400
141.628200 35.669600 0.061793 17.946400
141.539600 35.455700 0.000000 17.946400
143.491400 40.635600 0.222724 22.242800
143.402800 40.421600 0.198478 22.242800
143.314200 40.207600 0.203208 22.242800
143.225600 39.993600 0.210812 22.242800
143.137000 39.779700 0.259348 22.242800
143.048400 39.565700 0.252738 22.242800
142.959700 39.351700 0.273357 22.242800
142.871100 39.137800 0.300108 22.242800
142.782500 38.923800 0.304141 22.242800
142.693900 38.709800 0.337343 22.242800
142.605300 38.495900 0.377233 22.242800
142.516700 38.281900 0.421926 22.242800
142.428100 38.067900 0.390329 22.242800
142.339400 37.853900 0.369384 22.242800
142.250800 37.640000 0.341726 22.242800
142.162200 37.426000 0.326745 22.242800
142.073600 37.212000 0.352436 22.242800
141.985000 36.998100 0.301933 22.242800
141.896400 36.784100 0.287194 22.242800
141.807800 36.570100 0.264242 22.242800
141.719100 36.356100 0.270995 22.242800
141.630500 36.142200 0.225272 22.242800
141.541900 35.928200 0.187552 22.242800
141.453300 35.714200 0.092954 22.242800
141.364700 35.500300 0.000000 22.242800
143.316500 40.680100 0.284399 26.539200
143.227900 40.466200 0.269876 26.539200
143.139300 40.252200 0.262434 26.539200
143.050700 40.038200 0.300613 26.539200
142.962100 39.824300 0.330825 26.539200
142.873400 39.610300 0.332342 26.539200
142.784800 39.396300 0.345436 26.539200
142.696200 39.182400 0.341881 26.539200
142.607600 38.968400 0.356555 26.539200
142.519000 38.754400 0.371598 26.539200
142.430400 38.540400 0.461311 26.539200
142.341800 38.326500 0.499764 26.539200
142.253100 38.112500 0.499812 26.539200
142.164500 37.898500 0.400940 26.539200
142.075900 37.684600 0.368062 26.539200
141.987300 37.470600 0.369296 26.539200
141.898700 37.256600 0.356880 26.539200
141.810100 37.042600 0.323684 26.539200
141.721500 36.828700 0.290956 26.539200
141.632800 36.614700 0.277490 26.539200
141.544200 36.400700 0.291833 26.539200
141.455600 36.186800 0.257864 26.539200
141.367000 35.972800 0.183034 26.539200
141.278400 35.758800 0.120809 26.539200
141.189800 35.544900 0.000000 26.539200
143.141600 40.724700 0.354628 30.835600
143.053000 40.510800 0.326459 30.835600
142.964400 40.296800 0.347078 30.835600
142.875700 40.082800 0.340066 30.835600
142.787100 39.868900 0.361733 30.835600
142.698500 39.654900 0.393522 30.835600
142.609900 39.440900 0.386105 30.835600
142.521300 39.226900 0.402806 30.835600
142.432700 39.013000 0.412018 30.835600
142.344100 38.799000 0.434388 30.835600
142.255400 38.585000 0.498852 30.835600
142.166800 38.371100 0.578574 30.835600
142.078200 38.157100 0.543106 30.835600
141.989600 37.943100 0.438645 30.835600
141.901000 37.729200 0.367133 30.835600
141.812400 37.515200 0.367675 30.835600
141.723800 37.301200 0.363891 30.835600
141.635100 37.087200 0.285312 30.835600
141.546500 36.873300 0.233795 30.835600
141.457900 36.659300 0.242973 30.835600
141.369300 36.445300 0.264587 30.835600
141.280700 36.231400 0.246191 30.835600
141.192100 36.017400 0.160391 30.835600
141.103500 35.803400 0.106309 30.835600
141.014800 35.589400 0.000000 30.835600
144.764700 40.318400 0.000010 2.100000
144.676000 40.104400 0.000000 2.100000
144.587400 39.890500 0.000000 2.100000
144.498800 39.676500 0.000027 2.100000
144.410200 39.462500 0.000014 2.100000
144.321600 39.248600 0.000005 2.100000
144.233000 39.034600 0.000000 2.100000
144.144400 38.820600 0.000000 2.100000
144.055700 38.606700 0.000016 2.100000
143.967100 38.392700 0.000000 2.100000
143.878500 38.178700 0.000033 2.100000
143.789900 37.964700 0.000000 2.100000
143.701300 37.750800 0.000000 2.100000
143.612700 37.536800 0.000012 2.100000
143.524100 37.322800 0.000000 2.100000
143.435400 37.108900 0.000038 2.100000
143.346800 36.894900 0.000000 2.100000
143.258200 36.680900 0.000017 2.100000
143.169600 36.466900 0.000000 2.100000
143.081000 36.253000 0.000002 2.100000
142.992400 36.039000 0.000022 2.100000
142.903800 35.825000 0.000022 2.100000
142.815100 35.611100 0.000029 2.100000
142.726500 35.397100 0.000008 2.100000
142.637900 35.183100 0.000004 2.100000
144.585300 40.364100 0.000010 4.410300
144.496700 40.150200 0.000000 4.410300
144.408100 39.936200 0.000000 4.410300
144.319500 39.722200 0.000027 4.410300
144.230900 39.508200 0.000014 4.410300
144.142300 39.294300 0.000005 4.410300
144.053600 39.080300 0.000190 4.410300
143.965000 38.866300 0.000303 4.410300
143.876400 38.652400 0.002816 4.410300
143.787800 38.438400 0.002509 4.410300
143.699200 38.224400 0.007111 4.410300
143.610600 38.010500 0.009402 4.410300
143.522000 37.796500 0.011995 4.410300
143.433300 37.582500 0.006188 4.410300
143.344700 37.368500 0.006082 4.410300
143.256100 37.154600 0.005347 4.410300
143.167500 36.940600 0.000446 4.410300
143.078900 36.726600 0.000017 4.410300
142.990300 36.512700 0.000000 4.410300
142.901700 36.298700 0.000002 4.410300
142.813000 36.084700 0.000012 4.410300
142.724400 35.870700 0.000022 4.410300
142.635800 35.656800 0.000029 4.410300
142.547200 35.442800 0.000008 4.410300
142.458600 35.228800 0.000004 4.410300
144.406000 40.409800 0.000010 6.720500
144.317400 40.195900 0.000000 6.720500
144.228800 39.981900 0.000000 6.720500
144.140200 39.767900 0.001008 6.720500
144.051500 39.554000 0.005331 6.720500
143.962900 39.340000 0.010917 6.720500
143.874300 39.126000 0.005609 6.720500
143.785700 38.912100 0.018558 6.720500
143.697100 38.698100 0.012003 6.720500
143.608500 38.484100 0.018168 6.720500
143.519900 38.270100 0.032939 6.720500
143.431200 38.056200 0.034513 6.720500
143.342600 37.842200 0.027512 6.720500
143.254000 37.628200 0.030257 6.720500
143.165400 37.414300 0.039759 6.720500
143.076800 37.200300 0.032663 6.720500
142.988200 36.986300 0.011768 6.720500
142.899600 36.772300 0.014355 6.720500
142.810900 36.558400 0.000776 6.720500
142.722300 36.344400 0.001511 6.720500
142.633700 36.130400 0.000012 6.720500
142.545100 35.916500 0.000002 6.720500
142.456500 35.702500 0.000029 6.720500
142.367900 35.488500 0.000008 6.720500
142.279300 35.274600 0.000004 6.720500
144.226700 40.455600 0.004342 9.030800
144.138100 40.241600 0.009236 9.030800
144.049400 40.027600 0.014885 9.030800
143.960800 39.813600 0.014765 9.030800
143.872200 39.599700 0.028318 9.030800
143.783600 39.385700 0.031432 9.030800
143.695000 39.171700 0.026103 9.030800
143.606400 38.957800 0.053771 9.030800
143.517800 38.743800 0.058361 9.030800
143.429100 38.529800 0.054969 9.030800
143.340500 38.315900 0.064828 9.030800
143.251900 38.101900 0.080910 9.030800
143.163300 37.887900 0.061542 9.030800
143.074700 37.673900 0.079913 9.030800
142.986100 37.460000 0.085827 9.030800
142.897500 37.246000 0.070930 9.030800
142.808800 37.032000 0.056021 9.030800
142.720200 36.818100 0.038585 9.030800
142.631600 36.604100 0.046856 9.030800
142.543000 36.390100 0.022769 9.030800
142.454400 36.176100 0.017967 9.030800
142.365800 35.962200 0.020632 9.030800
142.277200 35.748200 0.001276 9.030800
142.188500 35.534200 0.009466 9.030800
142.099900 35.320300 0.000000 9.030800
144.047300 40.501300 0.042638 11.341100
143.958700 40.287300 0.045678 11.341100
143.870100 40.073300 0.044738 11.341100
143.781500 39.859400 0.049967 11.341100
143.692900 39.645400 0.075666 11.341100
143.604300 39.431400 0.064018 11.341100
143.515700 39.217400 0.092687 11.341100
143.427000 39.003500 0.092418 11.341100
143.338400 38.789500 0.099136 11.341100
143.249800 38.575500 0.110252 11.341100
143.161200 38.361600 0.107757 11.341100
143.072600 38.147600 0.133314 11.341100
142.984000 37.933600 0.123070 11.341100
142.895400 37.719700 0.125633 11.341100
142.806700 37.505700 0.117570 11.341100
142.718100 37.291700 0.118947 11.341100
142.629500 37.077700 0.149121 11.341100
142.540900 36.863800 0.102088 11.341100
142.452300 36.649800 0.092649 11.341100
142.363700 36.435800 0.071964 11.341100
142.275100 36.221900 0.053917 11.341100
142.186400 36.007900 0.061698 11.341100
142.097800 35.793900 0.061450 11.341100
142.009200 35.579900 0.020968 11.341100
141.920600 35.366000 0.000000 11.341100
142.961600 40.767000 0.422576 36.790000
142.873000 40.553100 0.395054 36.790000
142.784400 40.339100 0.393696 36.790000
142.695800 40.125100 0.400254 36.790000
142.607200 39.911200 0.407146 36.790000
142.518600 39.697200 0.429405 36.790000
142.430000 39.483200 0.438627 36.790000
142.341300 39.269200 0.463737 36.790000
142.252700 39.055300 0.447267 36.790000
142.164100 38.841300 0.465054 36.790000
142.075500 38.627300 0.512254 36.790000
141.986900 38.413400 0.595997 36.790000
141.898300 38.199400 0.588081 36.790000
141.809700 37.985400 0.449568 36.790000
141.721000 37.771500 0.319876 36.790000
141.632400 37.557500 0.332133 36.790000
141.543800 37.343500 0.309521 36.790000
141.455200 37.129500 0.209348 36.790000
141.366600 36.915600 0.150492 36.790000
141.278000 36.701600 0.115508 36.790000
141.189400 36.487600 0.164498 36.790000
141.100700 36.273700 0.153278 36.790000
141.012100 36.059700 0.095487 36.790000
140.923500 35.845700 0.000000 36.790000
140.834900 35.631700 0.000000 36.790000
142.792600 40.810100 0.437154 42.738900
142.704000 40.596200 0.425192 42.738900
142.615300 40.382200 0.409695 42.738900
142.526700 40.168200 0.408415 42.738900
142.438100 39.954300 0.414985 42.738900
142.349500 39.740300 0.425119 42.738900
142.260900 39.526300 0.424860 42.738900
142.172300 39.312300 0.443188 42.738900
142.083700 39.098400 0.451316 42.738900
141.995000 38.884400 0.450643 42.738900
141.906400 38.670400 0.497481 42.738900
141.817800 38.456500 0.594459 42.738900
141.729200 38.242500 0.574695 42.738900
141.640600 38.028500 0.445673 42.738900
141.552000 37.814500 0.318548 42.738900
141.463400 37.600600 0.232372 42.738900
141.374700 37.386600 0.250601 42.738900
141.286100 37.172600 0.161747 42.738900
141.197500 36.958700 0.051888 42.738900
141.108900 36.744700 0.034654 42.738900
141.020300 36.530700 0.076466 42.738900
140.931700 36.316800 0.060239 42.738900
140.843100 36.102800 0.000000 42.738900
140.754400 35.888800 0.000000 42.738900
140.665800 35.674800 0.000000 42.738900
142.623500 40.853200 0.461104 48.687800
142.534900 40.639300 0.431150 48.687800
142.446300 40.425300 0.404516 48.687800
142.357700 40.211300 0.399714 48.687800
142.269100 39.997400 0.357364 48.687800
142.180400 39.783400 0.364823 48.687800
142.091800 39.569400 0.353028 48.687800
142.003200 39.355400 0.360823 48.687800
141.914600 39.141500 0.333070 48.687800
141.826000 38.927500 0.395401 48.687800
141.737400 38.713500 0.411724 48.687800
141.648800 38.499600 0.481988 48.687800
141.560100 38.285600 0.539147 48.687800
141.471500 38.071600 0.443316 48.687800
141.382900 37.857600 0.283187 48.687800
141.294300 37.643700 0.186824 48.687800
141.205700 37.429700 0.178552 48.687800
141.117100 37.215700 0.101608 48.687800
141.028500 37.001800 0.000000 48.687800
140.939800 36.787800 0.000000 48.687800
140.851200 36.573800 0.000000 48.687800
140.762600 36.359900 0.000000 48.687800
140.674000 36.145900 0.000000 48.687800
140.585400 35.931900 0.000000 48.687800
140.496800 35.717900 0.000000 48.687800
