144.541300 39.183200 0.000005 1.371600
144.455500 39.016400 0.000000 1.371600
144.369800 38.849500 0.000000 1.371600
144.284100 38.682600 0.000010 1.371600
144.198300 38.515700 0.000016 1.371600
144.112600 38.348800 0.000000 1.371600
144.026900 38.182000 0.000033 1.371600
143.941100 38.015100 0.000000 1.371600
143.855400 37.848200 0.000000 1.371600
143.769700 37.681300 0.000000 1.371600
143.683900 37.514400 0.000012 1.371600
143.598200 37.347600 0.000000 1.371600
143.512500 37.180700 0.000028 1.371600
143.426700 37.013800 0.000038 1.371600
143.341000 36.846900 0.000000 1.371600
143.255300 36.680000 0.000017 1.371600
143.169500 36.513200 0.000000 1.371600
143.083800 36.346300 0.000000 1.371600
142.998000 36.179400 0.000002 1.371600
144.332300 39.249600 0.000005 4.844600
144.246600 39.082800 0.000000 4.844600
144.160800 38.915900 0.000000 4.844600
144.075100 38.749000 0.000010 4.844600
143.989400 38.582100 0.000016 4.844600
143.903600 38.415200 0.000130 4.844600
143.817900 38.248400 0.000033 4.844600
143.732100 38.081500 0.000000 4.844600
143.646400 37.914600 0.000632 4.844600
143.560700 37.747700 0.000658 4.844600
143.474900 37.580800 0.000504 4.844600
143.389200 37.414000 0.005688 4.844600
143.303500 37.247100 0.000682 4.844600
143.217700 37.080200 0.003284 4.844600
143.132000 36.913300 0.000446 4.844600
143.046300 36.746400 0.000533 4.844600
142.960500 36.579600 0.000950 4.844600
142.874800 36.412700 0.000002 4.844600
142.789100 36.245800 0.000022 4.844600
144.123300 39.316000 0.000287 8.317500
144.037600 39.149200 0.002598 8.317500
143.951800 38.982300 0.002826 8.317500
143.866100 38.815400 0.003105 8.317500
143.780400 38.648500 0.006520 8.317500
143.694600 38.481600 0.006984 8.317500
143.608900 38.314800 0.018011 8.317500
143.523200 38.147900 0.017630 8.317500
143.437400 37.981000 0.027953 8.317500
143.351700 37.814100 0.027512 8.317500
143.266000 37.647200 0.030257 8.317500
143.180200 37.480400 0.033598 8.317500
143.094500 37.313500 0.039759 8.317500
143.008800 37.146600 0.028915 8.317500
142.923000 36.979700 0.039812 8.317500
142.837300 36.812800 0.014355 8.317500
142.751600 36.646000 0.019170 8.317500
142.665800 36.479100 0.020028 8.317500
142.580100 36.312200 0.015705 8.317500
143.914300 39.382400 0.010917 11.790500
143.828600 39.215600 0.018561 11.790500
143.742900 39.048700 0.018558 11.790500
143.657100 38.881800 0.027476 11.790500
143.571400 38.714900 0.027134 11.790500
143.485700 38.548000 0.035694 11.790500
143.399900 38.381200 0.049944 11.790500
143.314200 38.214300 0.065130 11.790500
143.228500 38.047400 0.080910 11.790500
143.142700 37.880500 0.099459 11.790500
143.057000 37.713600 0.105748 11.790500
142.971300 37.546800 0.087011 11.790500
142.885500 37.379900 0.075822 11.790500
142.799800 37.213000 0.098592 11.790500
142.714100 37.046100 0.090089 11.790500
142.628300 36.879200 0.086395 11.790500
142.542600 36.712400 0.069146 11.790500
142.456900 36.545500 0.065576 11.790500
142.371100 36.378600 0.071964 11.790500
143.705400 39.448800 0.053033 15.263500
143.619600 39.282000 0.051310 15.263500
143.533900 39.115100 0.063039 15.263500
143.448200 38.948200 0.066379 15.263500
143.362400 38.781300 0.099136 15.263500
143.276700 38.614400 0.104445 15.263500
143.191000 38.447600 0.114857 15.263500
143.105200 38.280700 0.145508 15.263500
143.019500 38.113800 0.142499 15.263500
142.933800 37.946900 0.157442 15.263500
142.848000 37.780000 0.173529 15.263500
142.762300 37.613200 0.170885 15.263500
142.676600 37.446300 0.183079 15.263500
142.590800 37.279400 0.193757 15.263500
142.505100 37.112500 0.193197 15.263500
142.419300 36.945600 0.183332 15.263500
142.333600 36.778800 0.155633 15.263500
142.247900 36.611900 0.156305 15.263500
142.162100 36.445000 0.113432 15.263500
143.496400 39.515200 0.110959 18.736400
143.410700 39.348400 0.104306 18.736400
143.324900 39.181500 0.139616 18.736400
143.239200 39.014600 0.139829 18.736400
143.153400 38.847700 0.157137 18.736400
143.067700 38.680800 0.173985 18.736400
142.982000 38.514000 0.206772 18.736400
142.896200 38.347100 0.232901 18.736400
142.810500 38.180200 0.271998 18.736400
142.724800 38.013300 0.236793 18.736400
142.639000 37.846400 0.242396 18.736400
142.553300 37.679600 0.241647 18.736400
142.467600 37.512700 0.245206 18.736400
142.381800 37.345800 0.266242 18.736400
142.296100 37.178900 0.288185 18.736400
142.210400 37.012000 0.243347 18.736400
142.124600 36.845200 0.260269 18.736400
142.038900 36.678300 0.226425 18.736400
141.953200 36.511400 0.244963 18.736400
143.287400 39.581600 0.178784 22.209400
143.201700 39.414800 0.171451 22.209400
143.115900 39.247900 0.217293 22.209400
143.030200 39.081000 0.218017 22.209400
142.944500 38.914100 0.242715 22.209400
142.858700 38.747200 0.242462 22.209400
142.773000 38.580400 0.297867 22.209400
142.687300 38.413500 0.320648 22.209400
142.601500 38.246600 0.370169 22.209400
142.515800 38.079700 0.390329 22.209400
142.430100 37.912800 0.369727 22.209400
142.344300 37.746000 0.346423 22.209400
142.258600 37.579100 0.310667 22.209400
142.172900 37.412200 0.326745 22.209400
142.087100 37.245300 0.324601 22.209400
142.001400 37.078400 0.323238 22.209400
141.915700 36.911600 0.300799 22.209400
141.829900 36.744700 0.287194 22.209400
141.744200 36.577800 0.271045 22.209400
143.078400 39.648000 0.230025 25.682400
142.992700 39.481200 0.252738 25.682400
142.907000 39.314300 0.287156 25.682400
142.821200 39.147400 0.300108 25.682400
142.735500 38.980500 0.304141 25.682400
142.649800 38.813600 0.329124 25.682400
142.564000 38.646800 0.371598 25.682400
142.478300 38.479900 0.423263 25.682400
142.392600 38.313000 0.461842 25.682400
142.306800 38.146100 0.501777 25.682400
142.221100 37.979200 0.455711 25.682400
142.135400 37.812400 0.390856 25.682400
142.049600 37.645500 0.365192 25.682400
141.963900 37.478600 0.369296 25.682400
141.878200 37.311700 0.373891 25.682400
141.792400 37.144800 0.336963 25.682400
141.706700 36.978000 0.298189 25.682400
141.621000 36.811100 0.274348 25.682400
141.535200 36.644200 0.261607 25.682400
142.869500 39.714400 0.334563 29.155300
142.783700 39.547600 0.378635 29.155300
142.698000 39.380700 0.386105 29.155300
142.612300 39.213800 0.394399 29.155300
142.526500 39.046900 0.398739 29.155300
142.440800 38.880000 0.406771 29.155300
142.355100 38.713200 0.442452 29.155300
142.269300 38.546300 0.496036 29.155300
142.183600 38.379400 0.553731 29.155300
142.097900 38.212500 0.567679 29.155300
142.012100 38.045600 0.525685 29.155300
141.926400 37.878800 0.387605 29.155300
141.840600 37.711900 0.338106 29.155300
141.754900 37.545000 0.367675 29.155300
141.669200 37.378100 0.360650 29.155300
141.583400 37.211200 0.311665 29.155300
141.497700 37.044400 0.209348 29.155300
141.412000 36.877500 0.178044 29.155300
141.326200 36.710600 0.173724 29.155300
142.660500 39.780800 0.408236 32.628300
142.574700 39.614000 0.433060 32.628300
142.489000 39.447100 0.438627 32.628300
142.403300 39.280200 0.441869 32.628300
142.317500 39.113300 0.447267 32.628300
142.231800 38.946400 0.447102 32.628300
142.146100 38.779600 0.465054 32.628300
142.060300 38.612700 0.512254 32.628300
141.974600 38.445800 0.587432 32.628300
141.888900 38.278900 0.602563 32.628300
141.803100 38.112000 0.538947 32.628300
141.717400 37.945200 0.353424 32.628300
141.631700 37.778300 0.269861 32.628300
141.545900 37.611400 0.270553 32.628300
141.460200 37.444500 0.264129 32.628300
141.374500 37.277600 0.226943 32.628300
141.288700 37.110800 0.161747 32.628300
141.203000 36.943900 0.051888 32.628300
141.117300 36.777000 0.034654 32.628300
