145.747500 41.741600 0.016436 1.720000
145.580200 41.669600 0.000000 1.720000
145.412900 41.597600 0.000004 1.720000
145.245600 41.525700 0.005071 1.720000
145.078300 41.453700 0.021189 1.720000
144.911000 41.381700 0.000055 1.720000
144.743700 41.309700 0.035717 1.720000
144.576400 41.237700 0.031093 1.720000
144.409100 41.165700 0.064491 1.720000
144.241800 41.093700 0.090423 1.720000
144.074500 41.021700 0.119502 1.720000
143.907200 40.949700 0.121628 1.720000
143.739900 40.877700 0.187317 1.720000
143.572600 40.805700 0.253530 1.720000
143.405300 40.733700 0.290388 1.720000
143.238000 40.661700 0.352506 1.720000
143.070700 40.589700 0.359185 1.720000
145.694900 41.809500 0.016436 4.380600
145.527600 41.737500 0.038486 4.380600
145.360300 41.665500 0.070980 4.380600
145.193000 41.593500 0.032359 4.380600
145.025700 41.521500 0.021189 4.380600
144.858400 41.449500 0.063247 4.380600
144.691100 41.377500 0.050920 4.380600
144.523800 41.305500 0.052539 4.380600
144.356500 41.233500 0.116395 4.380600
144.189200 41.161500 0.128745 4.380600
144.022000 41.089500 0.150907 4.380600
143.854700 41.017500 0.175544 4.380600
143.687400 40.945500 0.241977 4.380600
143.520100 40.873500 0.253530 4.380600
143.352800 40.801500 0.319732 4.380600
143.185500 40.729500 0.380836 4.380600
143.018200 40.657600 0.400738 4.380600
145.642400 41.877300 0.082589 7.041200
145.475100 41.805300 0.038486 7.041200
145.307800 41.733300 0.070980 7.041200
145.140500 41.661300 0.104613 7.041200
144.973200 41.589300 0.134733 7.041200
144.805900 41.517300 0.064377 7.041200
144.638600 41.445300 0.107348 7.041200
144.471300 41.373300 0.132770 7.041200
144.304000 41.301300 0.136406 7.041200
144.136700 41.229300 0.193827 7.041200
143.969400 41.157300 0.150907 7.041200
143.802100 41.085300 0.208689 7.041200
143.634800 41.013400 0.269122 7.041200
143.467500 40.941400 0.338366 7.041200
143.300200 40.869400 0.379035 7.041200
143.132900 40.797400 0.380836 7.041200
142.965600 40.725400 0.409514 7.041200
145.589900 41.945100 0.124351 9.701700
145.422600 41.873100 0.148885 9.701700
145.255300 41.801100 0.124751 9.701700
145.088000 41.729100 0.166565 9.701700
144.920700 41.657100 0.134733 9.701700
144.753400 41.585100 0.165324 9.701700
144.586100 41.513100 0.140779 9.701700
144.418800 41.441100 0.132770 9.701700
144.251500 41.369200 0.207235 9.701700
144.084200 41.297200 0.193827 9.701700
143.916900 41.225200 0.247783 9.701700
143.749600 41.153200 0.320560 9.701700
143.582300 41.081200 0.307924 9.701700
143.415000 41.009200 0.338366 9.701700
143.247700 40.937200 0.412999 9.701700
143.080400 40.865200 0.474201 9.701700
142.913100 40.793200 0.488029 9.701700
145.537300 42.012900 0.202567 12.362300
145.370000 41.940900 0.148885 12.362300
145.202700 41.868900 0.241374 12.362300
145.035400 41.796900 0.238757 12.362300
144.868100 41.725000 0.208998 12.362300
144.700800 41.653000 0.244903 12.362300
144.533500 41.581000 0.229237 12.362300
144.366200 41.509000 0.199910 12.362300
144.198900 41.437000 0.207235 12.362300
144.031600 41.365000 0.292620 12.362300
143.864300 41.293000 0.247783 12.362300
143.697000 41.221000 0.328765 12.362300
143.529700 41.149000 0.339373 12.362300
143.362400 41.077000 0.431580 12.362300
143.195200 41.005000 0.477795 12.362300
143.027900 40.933000 0.474201 12.362300
142.860600 40.861000 0.514398 12.362300
145.484800 42.080800 0.202567 15.022900
145.317500 42.008800 0.274343 15.022900
145.150200 41.936800 0.241374 15.022900
144.982900 41.864800 0.327942 15.022900
144.815600 41.792800 0.364145 15.022900
144.648300 41.720800 0.336919 15.022900
144.481000 41.648800 0.311445 15.022900
144.313700 41.576800 0.250255 15.022900
144.146400 41.504800 0.367432 15.022900
143.979100 41.432800 0.292620 15.022900
143.811800 41.360800 0.361971 15.022900
143.644500 41.288800 0.328765 15.022900
143.477200 41.216800 0.400934 15.022900
143.309900 41.144800 0.431580 15.022900
143.142600 41.072800 0.477795 15.022900
142.975300 41.000800 0.502821 15.022900
142.808000 40.928800 0.514398 15.022900
145.432300 42.148600 0.323201 17.683500
145.265000 42.076600 0.351648 17.683500
145.097700 42.004600 0.373367 17.683500
144.930400 41.932600 0.361780 17.683500
144.763100 41.860600 0.364145 17.683500
144.595800 41.788600 0.420719 17.683500
144.428500 41.716600 0.311445 17.683500
144.261200 41.644600 0.441114 17.683500
144.093900 41.572600 0.396268 17.683500
143.926600 41.500600 0.420236 17.683500
143.759300 41.428600 0.359248 17.683500
143.592000 41.356600 0.418381 17.683500
143.424700 41.284600 0.433183 17.683500
143.257400 41.212600 0.466280 17.683500
143.090100 41.140700 0.506589 17.683500
142.922800 41.068700 0.534559 17.683500
142.755500 40.996700 0.547090 17.683500
145.379700 42.216400 0.323201 20.344100
145.212400 42.144400 0.490148 20.344100
145.045100 42.072400 0.434271 20.344100
144.877800 42.000400 0.466275 20.344100
144.710500 41.928400 0.511812 20.344100
144.543200 41.856400 0.420719 20.344100
144.375900 41.784400 0.505775 20.344100
144.208600 41.712400 0.441114 20.344100
144.041300 41.640400 0.462592 20.344100
143.874000 41.568400 0.462548 20.344100
143.706700 41.496500 0.469939 20.344100
143.539400 41.424500 0.508205 20.344100
143.372100 41.352500 0.454568 20.344100
143.204800 41.280500 0.505145 20.344100
143.037500 41.208500 0.538131 20.344100
142.870200 41.136500 0.554959 20.344100
142.702900 41.064500 0.561625 20.344100
145.327200 42.284200 0.533276 23.004700
145.159900 42.212200 0.534775 23.004700
144.992600 42.140200 0.487815 23.004700
144.825300 42.068200 0.466275 23.004700
144.658000 41.996200 0.511812 23.004700
144.490700 41.924200 0.546783 23.004700
144.323400 41.852300 0.570689 23.004700
144.156100 41.780300 0.599848 23.004700
143.988800 41.708300 0.508651 23.004700
143.821500 41.636300 0.510747 23.004700
143.654200 41.564300 0.460741 23.004700
143.486900 41.492300 0.508205 23.004700
143.319600 41.420300 0.522539 23.004700
143.152300 41.348300 0.534790 23.004700
142.985000 41.276300 0.566051 23.004700
142.817700 41.204300 0.583093 23.004700
142.650400 41.132300 0.580931 23.004700
145.274700 42.352000 0.588259 25.665200
145.107400 42.280000 0.615036 25.665200
144.940100 42.208100 0.603523 25.665200
144.772800 42.136100 0.600234 25.665200
144.605500 42.064100 0.625362 25.665200
144.438200 41.992100 0.613232 25.665200
144.270900 41.920100 0.570689 25.665200
144.103600 41.848100 0.599848 25.665200
143.936300 41.776100 0.543256 25.665200
143.769000 41.704100 0.614149 25.665200
143.601700 41.632100 0.590343 25.665200
143.434400 41.560100 0.577220 25.665200
143.267100 41.488100 0.556701 25.665200
143.099800 41.416100 0.534790 25.665200
142.932500 41.344100 0.589902 25.665200
142.765200 41.272100 0.594887 25.665200
142.597900 41.200100 0.586325 25.665200
145.222100 42.419900 0.588336 28.325800
145.054800 42.347900 0.628267 28.325800
144.887500 42.275900 0.625101 28.325800
144.720200 42.203900 0.622254 28.325800
144.552900 42.131900 0.638521 28.325800
144.385600 42.059900 0.617218 28.325800
144.218300 41.987900 0.648040 28.325800
144.051000 41.915900 0.673638 28.325800
143.883700 41.843900 0.633951 28.325800
143.716400 41.771900 0.614149 28.325800
143.549100 41.699900 0.590343 28.325800
143.381800 41.627900 0.577220 28.325800
143.214500 41.555900 0.585538 28.325800
143.047200 41.483900 0.584948 28.325800
142.879900 41.411900 0.599313 28.325800
142.712600 41.340000 0.607570 28.325800
142.545300 41.268000 0.601111 28.325800
145.169600 42.487700 0.603643 30.986400
145.002300 42.415700 0.628267 30.986400
144.835000 42.343700 0.625101 30.986400
144.667700 42.271700 0.620507 30.986400
144.500400 42.199700 0.634937 30.986400
144.333100 42.127700 0.660664 30.986400
144.165800 42.055700 0.672975 30.986400
143.998500 41.983700 0.673638 30.986400
143.831200 41.911700 0.662290 30.986400
143.663900 41.839700 0.651306 30.986400
143.496600 41.767700 0.655597 30.986400
143.329300 41.695800 0.620888 30.986400
143.162000 41.623800 0.607391 30.986400
142.994700 41.551800 0.616043 30.986400
142.827400 41.479800 0.610634 30.986400
142.660100 41.407800 0.612328 30.986400
142.492800 41.335800 0.601111 30.986400
145.117100 42.555500 0.609037 33.647000
144.949800 42.483500 0.534430 33.647000
144.782500 42.411500 0.577799 33.647000
144.615200 42.339500 0.620507 33.647000
144.447900 42.267500 0.634937 33.647000
144.280600 42.195500 0.639020 33.647000
144.113300 42.123500 0.671724 33.647000
143.946000 42.051600 0.679658 33.647000
143.778700 41.979600 0.679445 33.647000
143.611400 41.907600 0.666501 33.647000
143.444100 41.835600 0.655597 33.647000
143.276800 41.763600 0.638056 33.647000
143.109500 41.691600 0.623632 33.647000
142.942200 41.619600 0.626820 33.647000
142.774900 41.547600 0.636083 33.647000
142.607600 41.475600 0.612328 33.647000
142.440300 41.403600 0.596727 33.647000
145.064500 42.623300 0.484470 36.307600
144.897200 42.551300 0.534430 36.307600
144.729900 42.479300 0.536412 36.307600
144.562600 42.407400 0.579873 36.307600
144.395300 42.335400 0.593331 36.307600
144.228000 42.263400 0.639020 36.307600
144.060700 42.191400 0.585070 36.307600
143.893400 42.119400 0.647741 36.307600
143.726100 42.047400 0.667591 36.307600
143.558800 41.975400 0.662205 36.307600
143.391500 41.903400 0.645615 36.307600
143.224200 41.831400 0.635373 36.307600
143.056900 41.759400 0.632977 36.307600
142.889600 41.687400 0.624718 36.307600
142.722300 41.615400 0.609954 36.307600
142.555000 41.543400 0.598113 36.307600
142.387700 41.471400 0.574785 36.307600
145.012000 42.691200 0.484470 38.968200
144.844700 42.619200 0.384195 38.968200
144.677400 42.547200 0.446174 38.968200
144.510100 42.475200 0.502741 38.968200
144.342800 42.403200 0.540742 38.968200
144.175500 42.331200 0.536291 38.968200
144.008200 42.259200 0.585070 38.968200
143.840900 42.187200 0.647741 38.968200
143.673600 42.115200 0.593211 38.968200
143.506300 42.043200 0.631713 38.968200
143.339000 41.971200 0.645615 38.968200
143.171700 41.899200 0.641792 38.968200
143.004400 41.827200 0.632977 38.968200
142.837100 41.755200 0.624718 38.968200
142.669800 41.683200 0.618919 38.968200
142.502500 41.611200 0.607129 38.968200
142.335200 41.539200 0.552059 38.968200
144.959400 42.759000 0.341582 41.628700
144.792100 42.687000 0.384195 41.628700
144.624800 42.615000 0.290281 41.628700
144.457600 42.543000 0.380621 41.628700
144.290300 42.471000 0.325685 41.628700
144.123000 42.399000 0.361373 41.628700
143.955700 42.327000 0.368864 41.628700
143.788400 42.255000 0.498495 41.628700
143.621100 42.183000 0.598197 41.628700
143.453800 42.111000 0.608201 41.628700
143.286500 42.039000 0.594063 41.628700
143.119200 41.967000 0.617544 41.628700
142.951900 41.895000 0.613240 41.628700
142.784600 41.823100 0.603561 41.628700
142.617300 41.751100 0.595213 41.628700
142.450000 41.679100 0.575752 41.628700
142.282700 41.607100 0.500481 41.628700
144.906900 42.826800 0.341582 44.289300
144.739600 42.754800 0.254845 44.289300
144.572300 42.682800 0.231655 44.289300
144.405000 42.610800 0.242771 44.289300
144.237700 42.538800 0.241080 44.289300
144.070400 42.466800 0.303819 44.289300
143.903100 42.394800 0.368864 44.289300
143.735800 42.322800 0.526911 44.289300
143.568500 42.250800 0.554714 44.289300
143.401200 42.178900 0.566883 44.289300
143.233900 42.106900 0.594063 44.289300
143.066600 42.034900 0.592237 44.289300
142.899300 41.962900 0.590160 44.289300
142.732000 41.890900 0.585302 44.289300
142.564700 41.818900 0.568205 44.289300
142.397400 41.746900 0.502004 44.289300
142.230100 41.674900 0.500481 44.289300
144.854400 42.894600 0.000000 46.949900
144.687100 42.822600 0.000000 46.949900
144.519800 42.750600 0.000000 46.949900
144.352500 42.678600 0.210552 46.949900
144.185200 42.606600 0.220619 46.949900
144.017900 42.534700 0.244908 46.949900
143.850600 42.462700 0.296739 46.949900
143.683300 42.390700 0.365574 46.949900
143.516000 42.318700 0.498430 46.949900
143.348700 42.246700 0.530781 46.949900
143.181400 42.174700 0.490158 46.949900
143.014100 42.102700 0.526547 46.949900
142.846800 42.030700 0.489087 46.949900
142.679500 41.958700 0.503064 46.949900
142.512200 41.886700 0.525792 46.949900
142.344900 41.814700 0.502004 46.949900
142.177600 41.742700 0.382078 46.949900
144.801800 42.962400 0.000000 49.610500
144.634500 42.890500 0.000000 49.610500
144.467200 42.818500 0.000000 49.610500
144.299900 42.746500 0.000000 49.610500
144.132600 42.674500 0.201388 49.610500
143.965300 42.602500 0.244908 49.610500
143.798000 42.530500 0.296739 49.610500
143.630800 42.458500 0.365574 49.610500
143.463500 42.386500 0.393715 49.610500
143.296200 42.314500 0.479309 49.610500
143.128900 42.242500 0.490158 49.610500
142.961600 42.170500 0.374312 49.610500
142.794300 42.098500 0.378779 49.610500
142.627000 42.026500 0.397226 49.610500
142.459700 41.954500 0.434698 49.610500
142.292400 41.882500 0.314399 49.610500
142.125100 41.810500 0.382078 49.610500
144.749300 43.030300 0.000000 52.271100
144.582000 42.958300 0.000000 52.271100
144.414700 42.886300 0.000000 52.271100
144.247400 42.814300 0.000000 52.271100
144.080100 42.742300 0.000000 52.271100
143.912800 42.670300 0.226451 52.271100
143.745500 42.598300 0.282132 52.271100
143.578200 42.526300 0.345822 52.271100
143.410900 42.454300 0.414479 52.271100
143.243600 42.382300 0.388574 52.271100
143.076300 42.310300 0.343203 52.271100
142.909000 42.238300 0.319726 52.271100
142.741700 42.166300 0.378779 52.271100
142.574400 42.094300 0.343990 52.271100
142.407100 42.022400 0.265244 52.271100
142.239800 41.950400 0.314399 52.271100
142.072500 41.878400 0.200872 52.271100
144.696800 43.098100 0.000000 54.931700
144.529500 43.026100 0.000000 54.931700
144.362200 42.954100 0.000000 54.931700
144.194900 42.882100 0.000000 54.931700
144.027600 42.810100 0.000000 54.931700
143.860300 42.738100 0.000000 54.931700
143.693000 42.666100 0.312694 54.931700
143.525700 42.594100 0.286883 54.931700
143.358400 42.522100 0.366560 54.931700
143.191100 42.450100 0.368964 54.931700
143.023800 42.378200 0.268327 54.931700
142.856500 42.306200 0.248298 54.931700
142.689200 42.234200 0.128477 54.931700
142.521900 42.162200 0.261319 54.931700
142.354600 42.090200 0.265244 54.931700
142.187300 42.018200 0.118235 54.931700
142.020000 41.946200 0.200872 54.931700
144.644200 43.165900 0.000000 57.592200
144.476900 43.093900 0.000000 57.592200
144.309600 43.021900 0.000000 57.592200
144.142300 42.949900 0.000000 57.592200
143.975000 42.877900 0.000000 57.592200
143.807700 42.805900 0.000000 57.592200
143.640400 42.734000 0.000000 57.592200
143.473100 42.662000 0.314549 57.592200
143.305800 42.590000 0.366560 57.592200
143.138500 42.518000 0.307773 57.592200
142.971200 42.446000 0.268327 57.592200
142.804000 42.374000 0.150566 57.592200
142.636700 42.302000 0.128477 57.592200
142.469400 42.230000 0.028213 57.592200
142.302100 42.158000 0.067531 57.592200
142.134800 42.086000 0.074851 57.592200
141.967500 42.014000 0.114086 57.592200
144.591700 43.233700 0.000000 60.252800
144.424400 43.161700 0.000000 60.252800
144.257100 43.089800 0.000000 60.252800
144.089800 43.017800 0.000000 60.252800
143.922500 42.945800 0.000000 60.252800
143.755200 42.873800 0.000000 60.252800
143.587900 42.801800 0.000000 60.252800
143.420600 42.729800 0.171073 60.252800
143.253300 42.657800 0.264237 60.252800
143.086000 42.585800 0.307773 60.252800
142.918700 42.513800 0.194729 60.252800
142.751400 42.441800 0.150566 60.252800
142.584100 42.369800 0.050876 60.252800
142.416800 42.297800 0.028213 60.252800
142.249500 42.225800 0.067531 60.252800
142.082200 42.153800 0.025660 60.252800
141.914900 42.081800 0.061340 60.252800
144.539200 43.301600 0.000000 62.913400
144.371900 43.229600 0.000000 62.913400
144.204600 43.157600 0.000000 62.913400
144.037300 43.085600 0.000000 62.913400
143.870000 43.013600 0.000000 62.913400
143.702700 42.941600 0.000000 62.913400
143.535400 42.869600 0.000000 62.913400
143.368100 42.797600 0.098965 62.913400
143.200800 42.725600 0.103453 62.913400
143.033500 42.653600 0.167316 62.913400
142.866200 42.581600 0.194729 62.913400
142.698900 42.509600 0.096561 62.913400
142.531600 42.437600 0.000000 62.913400
142.364300 42.365600 0.000000 62.913400
142.197000 42.293600 0.000000 62.913400
142.029700 42.221600 0.025660 62.913400
141.862400 42.149700 0.061340 62.913400
144.486600 43.369400 0.000000 65.574000
144.319300 43.297400 0.000000 65.574000
144.152000 43.225400 0.000000 65.574000
143.984700 43.153400 0.000000 65.574000
143.817400 43.081400 0.000000 65.574000
143.650100 43.009400 0.000000 65.574000
143.482800 42.937400 0.000000 65.574000
143.315500 42.865400 0.098965 65.574000
143.148200 42.793400 0.103453 65.574000
142.980900 42.721400 0.087461 65.574000
142.813600 42.649400 0.037032 65.574000
142.646300 42.577400 0.000000 65.574000
142.479000 42.505500 0.000000 65.574000
142.311700 42.433500 0.000000 65.574000
142.144400 42.361500 0.000000 65.574000
141.977200 42.289500 0.000000 65.574000
141.809900 42.217500 0.000000 65.574000
