144.453200 39.348700 0.000014 1.000000
144.388800 39.223500 0.000005 1.000000
144.324400 39.098300 0.000000 1.000000
144.259900 38.973200 0.000000 1.000000
144.195500 38.848000 0.000000 1.000000
144.131000 38.722900 0.000010 1.000000
144.066600 38.597700 0.000016 1.000000
144.002200 38.472500 0.000000 1.000000
143.937700 38.347400 0.000000 1.000000
143.873300 38.222200 0.000033 1.000000
143.808900 38.097100 0.000000 1.000000
143.744400 37.971900 0.000000 1.000000
143.680000 37.846700 0.000029 1.000000
143.615600 37.721600 0.000000 1.000000
143.551100 37.596400 0.000012 1.000000
143.486700 37.471300 0.000010 1.000000
143.422300 37.346100 0.000000 1.000000
143.357800 37.220900 0.000028 1.000000
143.293400 37.095800 0.000280 1.000000
143.228900 36.970600 0.000000 1.000000
143.164500 36.845500 0.000013 1.000000
143.100100 36.720300 0.000017 1.000000
143.035600 36.595100 0.000000 1.000000
142.971200 36.470000 0.000000 1.000000
142.906800 36.344800 0.000002 1.000000
142.842300 36.219700 0.000022 1.000000
142.777900 36.094500 0.000012 1.000000
142.713500 35.969300 0.000022 1.000000
142.649000 35.844200 0.000002 1.000000
142.584600 35.719000 0.000029 1.000000
142.520100 35.593900 0.000017 1.000000
142.455700 35.468700 0.000008 1.000000
142.391300 35.343500 0.000021 1.000000
142.326800 35.218400 0.000004 1.000000
142.262400 35.093200 0.000007 1.000000
142.198000 34.968100 0.000000 1.000000
142.133500 34.842900 0.000353 1.000000
142.069100 34.717700 0.005197 1.000000
142.004700 34.592600 0.012062 1.000000
141.940200 34.467400 0.013333 1.000000
144.297200 39.398100 0.000014 4.118700
144.232800 39.273000 0.000005 4.118700
144.168400 39.147800 0.000000 4.118700
144.103900 39.022600 0.000000 4.118700
144.039500 38.897500 0.000000 4.118700
143.975000 38.772300 0.000010 4.118700
143.910600 38.647200 0.002816 4.118700
143.846200 38.522000 0.000000 4.118700
143.781700 38.396800 0.002509 4.118700
143.717300 38.271700 0.008017 4.118700
143.652900 38.146500 0.007111 4.118700
143.588400 38.021400 0.009402 4.118700
143.524000 37.896200 0.007824 4.118700
143.459600 37.771000 0.011995 4.118700
143.395100 37.645900 0.010124 4.118700
143.330700 37.520700 0.011790 4.118700
143.266300 37.395600 0.006082 4.118700
143.201800 37.270400 0.016788 4.118700
143.137400 37.145200 0.010324 4.118700
143.072900 37.020100 0.005839 4.118700
143.008500 36.894900 0.011768 4.118700
142.944100 36.769800 0.005226 4.118700
142.879600 36.644600 0.009245 4.118700
142.815200 36.519400 0.000776 4.118700
142.750800 36.394300 0.001511 4.118700
142.686300 36.269100 0.000022 4.118700
142.621900 36.144000 0.000012 4.118700
142.557500 36.018800 0.000022 4.118700
142.493000 35.893600 0.000002 4.118700
142.428600 35.768500 0.000029 4.118700
142.364100 35.643300 0.000017 4.118700
142.299700 35.518200 0.000008 4.118700
142.235300 35.393000 0.000000 4.118700
142.170800 35.267800 0.000000 4.118700
142.106400 35.142700 0.000000 4.118700
142.042000 35.017500 0.000000 4.118700
141.977500 34.892400 0.000000 4.118700
141.913100 34.767200 0.000000 4.118700
141.848700 34.642000 0.025025 4.118700
141.784200 34.516900 0.026491 4.118700
144.141200 39.447600 0.000498 7.237400
144.076800 39.322400 0.000287 7.237400
144.012400 39.197300 0.002598 7.237400
143.947900 39.072100 0.003134 7.237400
143.883500 38.946900 0.002826 7.237400
143.819000 38.821800 0.008178 7.237400
143.754600 38.696600 0.012003 7.237400
143.690200 38.571500 0.006984 7.237400
143.625700 38.446300 0.018168 7.237400
143.561300 38.321100 0.031606 7.237400
143.496900 38.196000 0.032939 7.237400
143.432400 38.070800 0.034513 7.237400
143.368000 37.945700 0.035359 7.237400
143.303600 37.820500 0.037992 7.237400
143.239100 37.695300 0.030257 7.237400
143.174700 37.570200 0.033598 7.237400
143.110300 37.445000 0.047314 7.237400
143.045800 37.319900 0.055791 7.237400
142.981400 37.194700 0.052020 7.237400
142.916900 37.069500 0.053148 7.237400
142.852500 36.944400 0.039812 7.237400
142.788100 36.819200 0.038585 7.237400
142.723600 36.694100 0.019170 7.237400
142.659200 36.568900 0.011674 7.237400
142.594800 36.443700 0.020028 7.237400
142.530300 36.318600 0.015705 7.237400
142.465900 36.193400 0.017967 7.237400
142.401500 36.068300 0.020632 7.237400
142.337000 35.943100 0.028494 7.237400
142.272600 35.817900 0.018489 7.237400
142.208100 35.692800 0.017220 7.237400
142.143700 35.567600 0.009115 7.237400
142.079300 35.442500 0.004398 7.237400
142.014800 35.317300 0.000000 7.237400
141.950400 35.192100 0.000000 7.237400
141.886000 35.067000 0.000000 7.237400
141.821500 34.941800 0.000000 7.237400
141.757100 34.816700 0.000000 7.237400
141.692700 34.691500 0.000000 7.237400
141.628200 34.566300 0.000000 7.237400
143.985200 39.497000 0.004633 10.356000
143.920800 39.371900 0.010917 10.356000
143.856400 39.246700 0.023469 10.356000
143.791900 39.121600 0.018561 10.356000
143.727500 38.996400 0.018558 10.356000
143.663000 38.871200 0.022293 10.356000
143.598600 38.746100 0.033128 10.356000
143.534200 38.620900 0.040912 10.356000
143.469700 38.495800 0.054969 10.356000
143.405300 38.370600 0.049944 10.356000
143.340900 38.245400 0.065130 10.356000
143.276400 38.120300 0.080910 10.356000
143.212000 37.995100 0.081182 10.356000
143.147600 37.870000 0.099459 10.356000
143.083100 37.744800 0.105748 10.356000
143.018700 37.619600 0.087011 10.356000
142.954300 37.494500 0.085827 10.356000
142.889800 37.369300 0.075822 10.356000
142.825400 37.244200 0.072869 10.356000
142.760900 37.119000 0.103864 10.356000
142.696500 36.993800 0.100305 10.356000
142.632100 36.868700 0.086395 10.356000
142.567600 36.743500 0.087074 10.356000
142.503200 36.618400 0.069146 10.356000
142.438800 36.493200 0.044041 10.356000
142.374300 36.368000 0.071964 10.356000
142.309900 36.242900 0.053917 10.356000
142.245500 36.117700 0.033836 10.356000
142.181000 35.992600 0.061698 10.356000
142.116600 35.867400 0.061450 10.356000
142.052100 35.742200 0.047935 10.356000
141.987700 35.617100 0.039944 10.356000
141.923300 35.491900 0.013014 10.356000
141.858800 35.366800 0.000000 10.356000
141.794400 35.241600 0.000000 10.356000
141.730000 35.116400 0.000000 10.356000
141.665500 34.991300 0.000000 10.356000
141.601100 34.866100 0.000000 10.356000
141.536700 34.741000 0.000000 10.356000
141.472200 34.615800 0.000000 10.356000
143.829200 39.546500 0.033591 13.474700
143.764800 39.421300 0.031432 13.474700
143.700400 39.296200 0.051310 13.474700
143.635900 39.171000 0.060470 13.474700
143.571500 39.045900 0.063039 13.474700
143.507000 38.920700 0.066379 13.474700
143.442600 38.795500 0.071550 13.474700
143.378200 38.670400 0.084151 13.474700
143.313700 38.545200 0.082932 13.474700
143.249300 38.420100 0.114857 13.474700
143.184900 38.294900 0.107757 13.474700
143.120400 38.169700 0.133314 13.474700
143.056000 38.044600 0.119542 13.474700
142.991600 37.919400 0.123070 13.474700
142.927100 37.794300 0.150447 13.474700
142.862700 37.669100 0.125633 13.474700
142.798300 37.543900 0.129723 13.474700
142.733800 37.418800 0.134727 13.474700
142.669400 37.293600 0.118947 13.474700
142.604900 37.168500 0.134450 13.474700
142.540500 37.043300 0.135323 13.474700
142.476100 36.918100 0.139669 13.474700
142.411600 36.793000 0.162549 13.474700
142.347200 36.667800 0.122520 13.474700
142.282800 36.542700 0.121822 13.474700
142.218300 36.417500 0.113432 13.474700
142.153900 36.292300 0.082692 13.474700
142.089500 36.167200 0.080907 13.474700
142.025000 36.042000 0.119504 13.474700
141.960600 35.916900 0.099826 13.474700
141.896100 35.791700 0.100082 13.474700
141.831700 35.666500 0.054585 13.474700
141.767300 35.541400 0.019163 13.474700
141.702800 35.416200 0.000000 13.474700
141.638400 35.291100 0.000000 13.474700
141.574000 35.165900 0.000000 13.474700
141.509500 35.040700 0.000000 13.474700
141.445100 34.915600 0.000000 13.474700
141.380700 34.790400 0.000000 13.474700
141.316200 34.665300 0.000000 13.474700
143.673200 39.596000 0.076123 16.593400
143.608800 39.470800 0.064018 16.593400
143.544400 39.345600 0.091129 16.593400
143.479900 39.220500 0.092687 16.593400
143.415500 39.095300 0.103760 16.593400
143.351000 38.970200 0.107841 16.593400
143.286600 38.845000 0.115310 16.593400
143.222200 38.719800 0.104445 16.593400
143.157700 38.594700 0.135330 16.593400
143.093300 38.469500 0.148427 16.593400
143.028900 38.344400 0.164304 16.593400
142.964400 38.219200 0.189912 16.593400
142.900000 38.094000 0.182560 16.593400
142.835600 37.968900 0.203966 16.593400
142.771100 37.843700 0.219559 16.593400
142.706700 37.718600 0.181301 16.593400
142.642300 37.593400 0.193645 16.593400
142.577800 37.468200 0.214287 16.593400
142.513400 37.343100 0.215645 16.593400
142.448900 37.217900 0.212084 16.593400
142.384500 37.092800 0.203920 16.593400
142.320100 36.967600 0.186970 16.593400
142.255600 36.842400 0.220374 16.593400
142.191200 36.717300 0.187361 16.593400
142.126800 36.592100 0.149977 16.593400
142.062300 36.467000 0.180430 16.593400
141.997900 36.341800 0.172269 16.593400
141.933500 36.216700 0.163433 16.593400
141.869000 36.091500 0.180710 16.593400
141.804600 35.966300 0.127287 16.593400
141.740100 35.841200 0.157853 16.593400
141.675700 35.716000 0.102679 16.593400
141.611300 35.590900 0.000000 16.593400
141.546800 35.465700 0.000000 16.593400
141.482400 35.340500 0.000000 16.593400
141.418000 35.215400 0.000000 16.593400
141.353500 35.090200 0.000000 16.593400
141.289100 34.965100 0.000000 16.593400
141.224700 34.839900 0.000000 16.593400
141.160200 34.714700 0.000000 16.593400
143.517200 39.645400 0.111058 19.712100
143.452800 39.520300 0.110959 19.712100
143.388400 39.395100 0.138195 19.712100
143.323900 39.269900 0.136751 19.712100
143.259500 39.144800 0.164847 19.712100
143.195000 39.019600 0.175263 19.712100
143.130600 38.894500 0.177316 19.712100
143.066200 38.769300 0.178042 19.712100
143.001700 38.644100 0.217751 19.712100
142.937300 38.519000 0.223275 19.712100
142.872900 38.393800 0.262707 19.712100
142.808400 38.268700 0.271998 19.712100
142.744000 38.143500 0.271847 19.712100
142.679600 38.018400 0.326254 19.712100
142.615100 37.893200 0.303248 19.712100
142.550700 37.768000 0.292546 19.712100
142.486300 37.642900 0.279894 19.712100
142.421800 37.517700 0.245206 19.712100
142.357400 37.392600 0.266242 19.712100
142.292900 37.267400 0.256871 19.712100
142.228500 37.142200 0.275646 19.712100
142.164100 37.017100 0.273946 19.712100
142.099600 36.891900 0.260269 19.712100
142.035200 36.766800 0.266497 19.712100
141.970800 36.641600 0.218178 19.712100
141.906300 36.516400 0.244963 19.712100
141.841900 36.391300 0.240928 19.712100
141.777500 36.266100 0.242403 19.712100
141.713000 36.141000 0.197245 19.712100
141.648600 36.015800 0.186273 19.712100
141.584100 35.890600 0.161230 19.712100
141.519700 35.765500 0.092954 19.712100
141.455300 35.640300 0.000000 19.712100
141.390800 35.515200 0.000000 19.712100
141.326400 35.390000 0.000000 19.712100
141.262000 35.264800 0.000000 19.712100
141.197500 35.139700 0.000000 19.712100
141.133100 35.014500 0.000000 19.712100
141.068700 34.889400 0.000000 19.712100
141.004200 34.764200 0.000000 19.712100
143.361200 39.694900 0.163778 22.830700
143.296800 39.569700 0.178784 22.830700
143.232400 39.444600 0.171451 22.830700
143.167900 39.319400 0.196765 22.830700
143.103500 39.194300 0.206019 22.830700
143.039000 39.069100 0.218017 22.830700
142.974600 38.943900 0.242715 22.830700
142.910200 38.818800 0.238821 22.830700
142.845700 38.693600 0.280167 22.830700
142.781300 38.568500 0.297867 22.830700
142.716900 38.443300 0.320648 22.830700
142.652400 38.318100 0.311954 22.830700
142.588000 38.193000 0.367628 22.830700
142.523600 38.067800 0.331090 22.830700
142.459100 37.942700 0.315447 22.830700
142.394700 37.817500 0.301400 22.830700
142.330300 37.692300 0.346423 22.830700
142.265800 37.567200 0.312056 22.830700
142.201400 37.442000 0.295354 22.830700
142.136900 37.316900 0.326745 22.830700
142.072500 37.191700 0.352436 22.830700
142.008100 37.066500 0.323238 22.830700
141.943600 36.941400 0.301933 22.830700
141.879200 36.816200 0.287194 22.830700
141.814800 36.691100 0.272896 22.830700
141.750300 36.565900 0.271045 22.830700
141.685900 36.440700 0.270995 22.830700
141.621500 36.315600 0.291833 22.830700
141.557000 36.190400 0.281036 22.830700
141.492600 36.065300 0.218870 22.830700
141.428100 35.940100 0.201389 22.830700
141.363700 35.814900 0.120809 22.830700
141.299300 35.689800 0.018417 22.830700
141.234800 35.564600 0.000000 22.830700
141.170400 35.439500 0.000000 22.830700
141.106000 35.314300 0.000000 22.830700
141.041500 35.189100 0.000000 22.830700
140.977100 35.064000 0.000000 22.830700
140.912700 34.938800 0.060334 22.830700
140.848200 34.813700 0.064950 22.830700
143.205200 39.744400 0.206680 25.949400
143.140800 39.619200 0.223194 25.949400
143.076400 39.494000 0.252738 25.949400
143.011900 39.368900 0.273357 25.949400
142.947500 39.243700 0.287156 25.949400
142.883000 39.118600 0.291080 25.949400
142.818600 38.993400 0.304141 25.949400
142.754200 38.868200 0.288983 25.949400
142.689700 38.743100 0.337343 25.949400
142.625300 38.617900 0.341495 25.949400
142.560900 38.492800 0.377233 25.949400
142.496400 38.367600 0.423263 25.949400
142.432000 38.242400 0.461842 25.949400
142.367600 38.117300 0.457065 25.949400
142.303100 37.992100 0.399420 25.949400
142.238700 37.867000 0.369384 25.949400
142.174300 37.741800 0.351818 25.949400
142.109800 37.616600 0.351754 25.949400
142.045400 37.491500 0.357434 25.949400
141.980900 37.366300 0.362868 25.949400
141.916500 37.241200 0.348235 25.949400
141.852100 37.116000 0.356880 25.949400
141.787600 36.990800 0.313297 25.949400
141.723200 36.865700 0.290956 25.949400
141.658800 36.740500 0.274348 25.949400
141.594300 36.615400 0.261607 25.949400
141.529900 36.490200 0.283540 25.949400
141.465500 36.365000 0.294137 25.949400
141.401000 36.239900 0.257864 25.949400
141.336600 36.114700 0.216003 25.949400
141.272100 35.989600 0.195108 25.949400
141.207700 35.864400 0.132934 25.949400
141.143300 35.739200 0.000000 25.949400
141.078800 35.614100 0.000000 25.949400
141.014400 35.488900 0.000000 25.949400
140.950000 35.363800 0.000000 25.949400
140.885500 35.238600 0.000000 25.949400
140.821100 35.113400 0.011413 25.949400
140.756700 34.988300 0.076382 25.949400
140.692200 34.863100 0.125892 25.949400
143.049200 39.793800 0.259348 29.068100
142.984800 39.668700 0.300885 29.068100
142.920400 39.543500 0.298934 29.068100
142.855900 39.418300 0.320853 29.068100
142.791500 39.293200 0.334191 29.068100
142.727000 39.168000 0.341881 29.068100
142.662600 39.042900 0.347047 29.068100
142.598200 38.917700 0.331027 29.068100
142.533700 38.792500 0.366843 29.068100
142.469300 38.667400 0.415291 29.068100
142.404900 38.542200 0.461311 29.068100
142.340400 38.417100 0.498684 29.068100
142.276000 38.291900 0.499764 29.068100
142.211600 38.166700 0.499812 29.068100
142.147100 38.041600 0.429434 29.068100
142.082700 37.916400 0.438645 29.068100
142.018300 37.791300 0.408822 29.068100
141.953800 37.666100 0.365192 29.068100
141.889400 37.540900 0.361737 29.068100
141.824900 37.415800 0.367675 29.068100
141.760500 37.290600 0.363891 29.068100
141.696100 37.165500 0.310812 29.068100
141.631600 37.040300 0.285312 29.068100
141.567200 36.915100 0.233795 29.068100
141.502800 36.790000 0.245647 29.068100
141.438300 36.664800 0.206976 29.068100
141.373900 36.539700 0.253400 29.068100
141.309500 36.414500 0.264587 29.068100
141.245000 36.289300 0.248525 29.068100
141.180600 36.164200 0.168195 29.068100
141.116200 36.039000 0.141645 29.068100
141.051700 35.913900 0.135914 29.068100
140.987300 35.788700 0.000000 29.068100
140.922800 35.663500 0.000000 29.068100
140.858400 35.538400 0.000000 29.068100
140.794000 35.413200 0.000000 29.068100
140.729500 35.288100 0.001647 29.068100
140.665100 35.162900 0.104404 29.068100
140.600700 35.037700 0.146831 29.068100
140.536200 34.912600 0.221631 29.068100
142.893200 39.843300 0.330825 32.186800
142.828800 39.718100 0.377232 32.186800
142.764400 39.593000 0.378635 32.186800
142.699900 39.467800 0.386105 32.186800
142.635500 39.342600 0.390142 32.186800
142.571100 39.217500 0.394399 32.186800
142.506600 39.092300 0.420404 32.186800
142.442200 38.967200 0.412018 32.186800
142.377700 38.842000 0.434388 32.186800
142.313300 38.716800 0.442452 32.186800
142.248900 38.591700 0.498852 32.186800
142.184400 38.466500 0.553731 32.186800
142.120000 38.341400 0.578574 32.186800
142.055600 38.216200 0.567679 32.186800
141.991100 38.091000 0.525685 32.186800
141.926700 37.965900 0.483396 32.186800
141.862300 37.840700 0.406503 32.186800
141.797800 37.715600 0.338106 32.186800
141.733400 37.590400 0.343068 32.186800
141.668900 37.465200 0.332133 32.186800
141.604500 37.340100 0.336069 32.186800
141.540100 37.214900 0.265099 32.186800
141.475600 37.089800 0.209348 32.186800
141.411200 36.964600 0.202815 32.186800
141.346800 36.839400 0.178044 32.186800
141.282300 36.714300 0.115508 32.186800
141.217900 36.589100 0.161761 32.186800
141.153500 36.464000 0.190064 32.186800
141.089000 36.338800 0.153278 32.186800
141.024600 36.213600 0.140550 32.186800
140.960200 36.088500 0.095487 32.186800
140.895700 35.963300 0.121710 32.186800
140.831300 35.838200 0.000000 32.186800
140.766800 35.713000 0.000000 32.186800
140.702400 35.587800 0.000000 32.186800
140.638000 35.462700 0.000000 32.186800
140.573500 35.337500 0.013953 32.186800
140.509100 35.212400 0.211605 32.186800
140.444700 35.087200 0.250152 32.186800
140.380200 34.962000 0.425085 32.186800
142.737200 39.892700 0.384725 35.305400
142.672800 39.767600 0.384725 35.305400
142.608400 39.642400 0.424079 35.305400
142.543900 39.517300 0.428443 35.305400
142.479500 39.392100 0.432853 35.305400
142.415100 39.266900 0.431957 35.305400
142.350600 39.141800 0.463737 35.305400
142.286200 39.016600 0.441550 35.305400
142.221700 38.891500 0.447102 35.305400
142.157300 38.766300 0.478784 35.305400
142.092900 38.641100 0.512254 35.305400
142.028400 38.516000 0.545164 35.305400
141.964000 38.390800 0.595997 35.305400
141.899600 38.265700 0.602563 35.305400
141.835100 38.140500 0.538947 35.305400
141.770700 38.015300 0.492560 35.305400
141.706300 37.890200 0.353424 35.305400
141.641800 37.765000 0.269861 35.305400
141.577400 37.639900 0.270553 35.305400
141.512900 37.514700 0.264129 35.305400
141.448500 37.389500 0.262438 35.305400
141.384100 37.264400 0.226943 35.305400
141.319600 37.139200 0.161747 35.305400
141.255200 37.014100 0.126392 35.305400
141.190800 36.888900 0.095487 35.305400
141.126300 36.763700 0.034654 35.305400
141.061900 36.638600 0.027976 35.305400
140.997500 36.513400 0.076466 35.305400
140.933000 36.388300 0.060239 35.305400
140.868600 36.263100 0.044869 35.305400
140.804200 36.137900 0.000000 35.305400
140.739700 36.012800 0.000000 35.305400
140.675300 35.887600 0.000000 35.305400
140.610800 35.762500 0.000000 35.305400
140.546400 35.637300 0.000000 35.305400
140.482000 35.512100 0.001468 35.305400
140.417500 35.387000 0.173616 35.305400
140.353100 35.261800 0.340234 35.305400
140.288700 35.136700 0.497441 35.305400
140.224200 35.011500 0.669957 35.305400
142.581200 39.942200 0.412347 38.424100
142.516800 39.817000 0.424119 38.424100
142.452400 39.691900 0.435556 38.424100
142.387900 39.566700 0.443361 38.424100
142.323500 39.441600 0.447849 38.424100
142.259100 39.316400 0.463498 38.424100
142.194600 39.191200 0.464921 38.424100
142.130200 39.066100 0.451316 38.424100
142.065700 38.940900 0.445902 38.424100
142.001300 38.815800 0.450643 38.424100
141.936900 38.690600 0.497481 38.424100
141.872400 38.565400 0.531555 38.424100
141.808000 38.440300 0.594459 38.424100
141.743600 38.315100 0.574695 38.424100
141.679100 38.190000 0.557482 38.424100
141.614700 38.064800 0.479901 38.424100
141.550300 37.939600 0.318548 38.424100
141.485800 37.814500 0.268139 38.424100
141.421400 37.689300 0.214361 38.424100
141.356900 37.564200 0.201623 38.424100
141.292500 37.439000 0.208594 38.424100
141.228100 37.313800 0.181976 38.424100
141.163600 37.188700 0.115680 38.424100
141.099200 37.063500 0.059731 38.424100
141.034800 36.938400 0.000000 38.424100
140.970300 36.813200 0.000000 38.424100
140.905900 36.688000 0.000000 38.424100
140.841500 36.562900 0.000000 38.424100
140.777000 36.437700 0.000000 38.424100
140.712600 36.312600 0.000000 38.424100
140.648200 36.187400 0.000000 38.424100
140.583700 36.062300 0.000000 38.424100
140.519300 35.937100 0.000000 38.424100
140.454800 35.811900 0.177515 38.424100
140.390400 35.686800 0.150600 38.424100
140.326000 35.561600 0.000775 38.424100
140.261500 35.436500 0.142127 38.424100
140.197100 35.311300 0.316462 38.424100
140.132700 35.186100 0.664277 38.424100
140.068200 35.061000 0.907918 38.424100
142.425200 39.991700 0.402369 41.542800
142.360800 39.866500 0.401327 41.542800
142.296400 39.741300 0.425119 41.542800
142.231900 39.616200 0.424860 41.542800
142.167500 39.491000 0.427190 41.542800
142.103100 39.365900 0.417104 41.542800
142.038600 39.240700 0.434049 41.542800
141.974200 39.115500 0.374206 41.542800
141.909700 38.990400 0.403539 41.542800
141.845300 38.865200 0.395401 41.542800
141.780900 38.740100 0.395280 41.542800
141.716400 38.614900 0.484533 41.542800
141.652000 38.489700 0.526734 41.542800
141.587600 38.364600 0.527372 41.542800
141.523100 38.239400 0.508882 41.542800
141.458700 38.114300 0.460052 41.542800
141.394300 37.989100 0.383982 41.542800
141.329800 37.864000 0.283187 41.542800
141.265400 37.738800 0.188491 41.542800
141.200900 37.613600 0.167545 41.542800
141.136500 37.488500 0.178552 41.542800
141.072100 37.363300 0.170296 41.542800
141.007600 37.238200 0.201761 41.542800
140.943200 37.113000 0.000000 41.542800
140.878800 36.987800 0.000000 41.542800
140.814300 36.862700 0.000000 41.542800
140.749900 36.737500 0.000000 41.542800
140.685500 36.612400 0.000000 41.542800
140.621000 36.487200 0.000000 41.542800
140.556600 36.362000 0.000000 41.542800
140.492200 36.236900 0.000000 41.542800
140.427700 36.111700 0.000000 41.542800
140.363300 35.986600 0.000000 41.542800
140.298800 35.861400 0.191469 41.542800
140.234400 35.736200 0.245424 41.542800
140.170000 35.611100 0.001343 41.542800
140.105500 35.485900 0.246155 41.542800
140.041100 35.360800 0.566389 41.542800
139.976700 35.235600 0.850907 41.542800
139.912200 35.110400 0.966828 41.542800
