144.547700 39.490200 0.693489 10.434304
144.500100 39.314100 0.755657 10.311284
144.452600 39.138000 0.821808 9.987253
144.405000 38.962000 0.863733 9.987253
144.357500 38.785900 0.897688 9.775473
144.309900 38.609900 0.869266 9.776082
144.262400 38.433800 0.872813 9.776082
144.214800 38.257800 0.883427 9.777456
144.167200 38.081700 0.888579 9.926992
144.119700 37.905700 0.898039 9.861019
144.072100 37.729600 0.908654 10.066647
144.024600 37.553600 0.913805 10.517698
143.977000 37.377500 0.923265 10.764030
143.929500 37.201500 0.933880 10.994364
143.881900 37.025400 0.939032 11.389705
143.834300 36.849400 0.923838 11.547302
143.786800 36.673300 0.886679 11.926906
144.328800 39.526800 0.653109 10.556884
144.281300 39.350700 0.654593 10.311284
144.233700 39.174700 0.684253 9.987253
144.186200 38.998600 0.720100 10.063317
144.138600 38.822500 0.787290 9.775473
144.091100 38.646500 0.852433 9.850324
144.043500 38.470400 0.894490 9.975965
143.995900 38.294400 0.935624 9.794595
143.948400 38.118300 0.921364 9.958219
143.900800 37.942300 0.904345 10.121841
143.853300 37.766200 0.913805 10.265865
143.805700 37.590200 0.924420 10.855209
143.758200 37.414100 0.929572 10.994364
143.710600 37.238100 0.939032 11.389705
143.663000 37.062000 0.931119 11.547302
143.615500 36.886000 0.890847 11.674072
143.567900 36.709900 0.887077 12.030392
144.110000 39.563400 0.626594 11.364713
144.062400 39.387300 0.611420 11.319882
144.014900 39.211300 0.620961 11.288642
143.967300 39.035200 0.653272 11.303059
143.919800 38.859200 0.703444 11.373484
143.872200 38.683100 0.774633 11.495821
143.824700 38.507000 0.830211 11.652428
143.777100 38.331000 0.881917 11.826398
143.729500 38.154900 0.924616 11.999190
143.682000 37.978900 0.960034 12.155761
143.634400 37.802800 0.974670 12.285115
143.586900 37.626800 0.972474 12.373482
143.539300 37.450700 0.941497 12.410203
143.491700 37.274700 0.931119 12.383544
143.444200 37.098600 0.898147 12.283157
143.396600 36.922600 0.886944 12.074903
143.349100 36.746500 0.896703 12.224562
143.891100 39.600000 0.610031 13.609975
143.843600 39.423900 0.578567 13.574391
143.796000 39.247900 0.583863 13.568621
143.748500 39.071800 0.617422 13.609023
143.700900 38.895800 0.672953 13.701402
143.653400 38.719700 0.744610 13.834019
143.605800 38.543600 0.815080 13.994049
143.558200 38.367600 0.873125 14.164055
143.510700 38.191500 0.920234 14.326917
143.463100 38.015500 0.957482 14.470723
143.415600 37.839400 0.971140 14.578626
143.368000 37.663400 0.967358 14.639015
143.320500 37.487300 0.951612 14.635498
143.272900 37.311300 0.922362 14.558667
143.225300 37.135200 0.883501 14.397519
143.177800 36.959200 0.845279 14.144333
143.130200 36.783100 0.803398 13.788604
143.672300 39.636600 0.557904 16.195908
143.624700 39.460500 0.527551 16.162268
143.577200 39.284500 0.531919 16.169759
143.529600 39.108400 0.563245 16.226744
143.482100 38.932400 0.621539 16.328077
143.434500 38.756300 0.703709 16.465625
143.386900 38.580300 0.779188 16.625255
143.339400 38.404200 0.851931 16.790605
143.291800 38.228100 0.914760 16.949172
143.244300 38.052100 0.946316 17.082970
143.196700 37.876000 0.958675 17.177535
143.149200 37.700000 0.947687 17.214452
143.101600 37.523900 0.928561 17.179919
143.054000 37.347900 0.901199 17.060092
143.006500 37.171800 0.865447 16.843092
142.958900 36.995800 0.818375 16.524635
142.911400 36.819700 0.770115 16.090421
143.453400 39.673200 0.498688 19.131983
143.405900 39.497100 0.467163 19.091948
143.358300 39.321100 0.457923 19.109097
143.310800 39.145000 0.482691 19.177321
143.263200 38.969000 0.541107 19.292390
143.215700 38.792900 0.625030 19.439624
143.168100 38.616900 0.730378 19.608824
143.120500 38.440800 0.829249 19.782680
143.073000 38.264800 0.898211 19.943653
143.025400 38.088700 0.931373 20.076085
142.977900 37.912600 0.938779 20.158956
142.930300 37.736600 0.927646 20.177157
142.882800 37.560500 0.902604 20.110403
142.835200 37.384500 0.869724 19.948354
142.787600 37.208400 0.824226 19.678672
142.740100 37.032400 0.776907 19.294472
142.692500 36.856300 0.735844 18.787833
143.234600 39.709800 0.425226 22.486175
143.187000 39.533700 0.387442 22.447580
143.139500 39.357700 0.368618 22.474563
143.091900 39.181600 0.376022 22.560886
143.044400 39.005600 0.456702 22.692852
142.996800 38.829500 0.556700 22.859212
142.949200 38.653500 0.664646 23.043327
142.901700 38.477400 0.799887 23.225399
142.854100 38.301400 0.866257 23.390585
142.806600 38.125300 0.900330 23.515335
142.759000 37.949200 0.910583 23.583553
142.711500 37.773200 0.897489 23.573649
142.663900 37.597100 0.866518 23.471103
142.616300 37.421100 0.818358 23.261809
142.568800 37.245000 0.759230 22.933889
142.521200 37.069000 0.722139 22.486341
142.473700 36.892900 0.692735 21.908104
143.015700 39.746400 0.349347 26.340691
142.968200 39.570300 0.302459 26.310931
142.920600 39.394300 0.275363 26.356852
142.873100 39.218200 0.297553 26.461374
142.825500 39.042200 0.380825 26.614380
142.778000 38.866100 0.492128 26.794752
142.730400 38.690100 0.626547 26.988632
142.682800 38.514000 0.742892 27.173838
142.635300 38.338000 0.827486 27.329039
142.587700 38.161900 0.871678 27.436869
142.540200 37.985900 0.878729 27.474906
142.492600 37.809800 0.866568 27.427732
142.445100 37.633700 0.829865 27.276443
142.397500 37.457700 0.762029 27.013073
142.349900 37.281600 0.706939 26.626632
142.302400 37.105600 0.658623 26.113326
142.254800 36.929500 0.621348 25.470736
142.796900 39.783000 0.267113 30.737890
142.749300 39.606900 0.201914 30.731543
142.701800 39.430900 0.171691 30.797985
142.654200 39.254800 0.196037 30.924663
142.606700 39.078800 0.285988 31.090829
142.559100 38.902700 0.414644 31.280549
142.511500 38.726700 0.555408 31.472315
142.464000 38.550600 0.687160 31.642316
142.416400 38.374600 0.778042 31.775111
142.368900 38.198500 0.833231 31.845883
142.321300 38.022500 0.845361 31.841488
142.273800 37.846400 0.829051 31.740473
142.226200 37.670400 0.777763 31.534352
142.178600 37.494300 0.722728 31.209623
142.131100 37.318200 0.660227 30.758984
142.083500 37.142200 0.604713 30.185116
142.036000 36.966100 0.551114 29.480957
142.578000 39.819600 0.213005 35.687298
142.530500 39.643500 0.081126 35.711351
142.482900 39.467500 0.085587 35.807413
142.435400 39.291400 0.089398 35.951249
142.387800 39.115400 0.182113 36.128727
142.340300 38.939300 0.316997 36.313113
142.292700 38.763300 0.456471 36.488892
142.245100 38.587200 0.599567 36.631805
142.197600 38.411200 0.702077 36.721087
142.150000 38.235100 0.768974 36.742256
142.102500 38.059100 0.789096 36.676234
142.054900 37.883000 0.782050 36.512679
142.007300 37.707000 0.740438 36.239912
141.959800 37.530900 0.677090 35.846687
141.912200 37.354800 0.618108 35.333994
141.864700 37.178800 0.543328 34.698421
141.817100 37.002700 0.489215 33.943154
