144.450000 39.807100 0.674014 10.255462
144.378500 39.589200 0.662676 10.380817
144.307000 39.371300 0.655145 10.875453
144.235500 39.153400 0.693597 10.994291
144.164000 38.935500 0.740715 10.678292
144.092500 38.717600 0.814787 10.311284
144.021100 38.499700 0.876448 9.987253
143.949600 38.281900 0.922775 9.962604
143.878100 38.064000 0.944927 9.928013
143.806600 37.846100 0.915185 9.994300
143.735100 37.628200 0.923265 10.172001
143.663600 37.410300 0.932725 10.489437
143.592100 37.192400 0.941759 10.775633
143.520600 36.974600 0.890847 11.017505
143.449100 36.756700 0.896056 11.280867
143.377600 36.538800 0.904541 11.680340
143.306100 36.320900 0.911455 11.926906
143.234700 36.103000 0.919940 12.030392
143.163200 35.885100 0.926854 12.404896
143.091700 35.667300 0.933767 12.847199
143.020200 35.449400 0.942253 12.738440
142.948700 35.231500 0.949166 12.664496
144.231200 39.851200 0.692728 12.486506
144.159800 39.633300 0.639390 11.449015
144.088300 39.415400 0.615820 10.853842
144.016800 39.197500 0.623581 10.255462
143.945300 38.979700 0.668026 10.741724
143.873800 38.761800 0.742535 11.171777
143.802300 38.543900 0.817994 11.247406
143.730800 38.326000 0.884575 11.091839
143.659300 38.108100 0.936328 11.163769
143.587800 37.890200 0.970470 11.236395
143.516300 37.672400 0.973170 11.385298
143.444800 37.454500 0.954716 11.626015
143.373400 37.236600 0.918928 11.935489
143.301900 37.018700 0.870947 12.275617
143.230400 36.800800 0.887740 12.611019
143.158900 36.582900 0.906860 12.912356
143.087400 36.365000 0.916884 13.152843
143.015900 36.147200 0.924654 13.304961
142.944400 35.929300 0.931568 13.342918
142.872900 35.711400 0.940053 13.249070
142.801400 35.493500 0.946966 13.002572
142.729900 35.275600 0.955451 12.658287
144.012500 39.895300 0.689074 13.039475
143.941000 39.677500 0.629998 12.741896
143.869500 39.459600 0.584985 12.586594
143.798000 39.241700 0.585481 12.100394
143.726500 39.023800 0.629206 10.853842
143.655000 38.805900 0.708071 10.353068
143.583600 38.588000 0.796148 12.491426
143.512100 38.370100 0.871715 12.705917
143.440600 38.152300 0.930474 12.981325
143.369100 37.934400 0.965095 13.197253
143.297600 37.716500 0.965127 13.322588
143.226100 37.498600 0.942475 13.409037
143.154600 37.280700 0.903059 13.529853
143.083100 37.062800 0.855647 13.727785
143.011600 36.845000 0.795508 14.003894
142.940100 36.627100 0.735075 14.331739
142.868600 36.409200 0.723302 14.680944
142.797200 36.191300 0.788723 15.019750
142.725700 35.973400 0.854309 15.318304
142.654200 35.755500 0.887209 15.546765
142.582700 35.537600 0.896348 15.674556
142.511200 35.319800 0.931042 15.674336
143.793800 39.939500 0.661498 15.525250
143.722300 39.721600 0.591567 15.207977
143.650800 39.503700 0.536828 14.677579
143.579300 39.285800 0.532285 13.839517
143.507800 39.067900 0.569726 12.645841
143.436300 38.850100 0.653865 12.368556
143.364800 38.632200 0.752273 11.449015
143.293300 38.414300 0.847646 10.353068
143.221800 38.196400 0.922005 9.999857
143.150300 37.978500 0.948900 15.484543
143.078800 37.760600 0.943280 15.566211
143.007400 37.542800 0.919582 15.704318
142.935900 37.324900 0.880470 15.817122
142.864400 37.107000 0.822749 15.899722
142.792900 36.889100 0.761866 15.994831
142.721400 36.671200 0.706128 16.148394
142.649900 36.453300 0.638141 16.379393
142.578400 36.235400 0.545239 16.680149
142.506900 36.017600 0.407083 17.027239
142.435400 35.799700 0.395929 17.393122
142.363900 35.581800 0.450986 17.747460
142.292400 35.363900 0.525465 18.057508
143.575000 39.983600 0.613428 18.288053
143.503500 39.765700 0.534858 18.403304
143.432000 39.547900 0.475891 18.374949
143.360500 39.330000 0.457782 18.180032
143.289000 39.112100 0.483921 17.800581
143.217600 38.894200 0.565800 17.196806
143.146100 38.676300 0.683970 16.272114
143.074600 38.458400 0.816268 14.915792
143.003100 38.240500 0.901106 13.181925
142.931600 38.022700 0.926517 11.399892
142.860100 37.804800 0.923108 10.677028
142.788600 37.586900 0.889659 9.817271
142.717100 37.369000 0.839108 19.029052
142.645600 37.151100 0.770224 18.883009
142.574100 36.933200 0.723092 18.822374
142.502600 36.715400 0.674009 18.805684
142.431200 36.497500 0.605534 18.833533
142.359700 36.279600 0.509338 18.929368
142.288200 36.061700 0.387660 19.109760
142.216700 35.843800 0.293913 19.375452
142.145200 35.625900 0.316061 19.710301
142.073700 35.408000 0.352097 20.093620
143.284800 39.809900 0.466026 20.494525
143.213300 39.592000 0.402466 20.878950
143.141800 39.374100 0.368095 21.209509
143.070300 39.156200 0.376581 21.446158
142.998800 38.938300 0.490400 21.551859
142.927300 38.720500 0.613083 21.495655
142.855800 38.502600 0.775971 21.256478
142.784300 38.284700 0.862993 20.820119
142.712800 38.066800 0.895379 20.155573
142.641300 37.848900 0.892245 19.168352
142.569900 37.631000 0.853665 17.728290
142.498400 37.413100 0.779127 15.834767
142.426900 37.195300 0.712880 13.808840
142.355400 36.977400 0.662049 12.158197
142.283900 36.759500 0.611280 11.206656
142.212400 36.541600 0.554308 22.916210
142.140900 36.323700 0.463269 22.538701
142.069400 36.105800 0.336570 22.304748
141.997900 35.888000 0.241935 22.186973
141.926400 35.670100 0.219224 22.181181
141.855000 35.452200 -0.000130 22.287724
143.066000 39.854000 0.390858 22.503123
142.994500 39.636100 0.323100 22.814284
142.923000 39.418300 0.273149 23.199589
142.851500 39.200400 0.298281 23.630657
142.780100 38.982500 0.407173 24.072241
142.708600 38.764600 0.560771 24.485760
142.637100 38.546700 0.715767 24.829928
142.565600 38.328800 0.820451 25.063852
142.494100 38.110900 0.868191 25.148880
142.422600 37.893100 0.860707 25.059072
142.351100 37.675200 0.814414 24.774997
142.279600 37.457300 0.734099 24.285883
142.208100 37.239400 0.661121 23.569135
142.136600 37.021500 0.593740 22.540254
142.065100 36.803600 0.538372 21.048574
141.993700 36.585800 0.494263 19.040548
141.922200 36.367900 0.415203 16.800957
141.850700 36.150000 0.280647 14.874941
141.779200 35.932100 0.161527 13.665071
141.707700 35.714200 0.009248 27.047353
141.636200 35.496300 0.000000 26.514333
142.847300 39.898200 0.309437 26.183533
142.775800 39.680300 0.236099 26.025167
142.704300 39.462400 0.172642 26.021505
142.632800 39.244500 0.192615 26.158940
142.561300 39.026600 0.309293 26.421376
142.489800 38.808700 0.477790 26.785403
142.418300 38.590900 0.653191 27.220571
142.346800 38.373000 0.765963 27.695466
142.275300 38.155100 0.821478 28.168354
142.203900 37.937200 0.820101 28.596882
142.132400 37.719300 0.773618 28.938678
142.060900 37.501400 0.694613 29.154641
141.989400 37.283500 0.619845 29.209652
141.917900 37.065700 0.530771 29.078622
141.846400 36.847800 0.477939 28.746910
141.774900 36.629900 0.434019 28.209728
141.703400 36.412000 0.363766 27.452240
141.631900 36.194100 0.204378 26.401589
141.560400 35.976200 0.058040 24.909534
141.488900 35.758400 0.000000 22.891408
141.417500 35.540500 0.000000 20.579775
142.628500 39.942300 0.257741 18.491674
142.557000 39.724400 0.129759 17.029521
142.485500 39.506500 0.093682 31.467870
142.414100 39.288700 0.084795 30.870421
142.342600 39.070800 0.202749 30.515584
142.271100 38.852900 0.370037 30.368449
142.199600 38.635000 0.541677 30.400694
142.128100 38.417100 0.675835 30.587972
142.056600 38.199200 0.755727 30.905912
141.985100 37.981300 0.760814 31.324389
141.913600 37.763500 0.722692 31.807470
141.842100 37.545600 0.647401 32.314241
141.770600 37.327700 0.566288 32.801587
141.699100 37.109800 0.470258 33.225054
141.627700 36.891900 0.408996 33.544281
141.556200 36.674000 0.379330 33.721269
141.484700 36.456200 0.291094 33.731054
141.413200 36.238300 0.135199 33.551052
141.341700 36.020400 0.013960 33.171265
141.270200 35.802500 0.000000 32.592317
141.198700 35.584600 0.000000 31.806960
142.409800 39.986400 0.002880 30.765797
142.338300 39.768600 0.000000 29.350025
142.266800 39.550700 0.000000 27.478420
142.195300 39.332800 0.014225 25.309026
142.123800 39.114900 0.092546 23.220666
142.052300 38.897000 0.260971 21.509642
141.980800 38.679100 0.416644 36.242083
141.909300 38.461300 0.532468 35.649426
141.837900 38.243400 0.628350 35.328606
141.766400 38.025500 0.676673 35.233305
141.694900 37.807600 0.655320 35.328533
141.623400 37.589700 0.603104 35.583504
141.551900 37.371800 0.527936 35.965693
141.480400 37.153900 0.413238 36.436207
141.408900 36.936100 0.348267 36.956743
141.337400 36.718200 0.312719 37.480582
141.265900 36.500300 0.211685 37.962565
141.194400 36.282400 0.065164 38.360499
141.122900 36.064500 0.000000 38.637461
141.051500 35.846600 0.000000 38.763318
140.980000 35.628800 0.000000 38.716204
142.119500 39.812700 0.000000 38.480147
142.048000 39.594800 0.000000 38.050805
141.976600 39.376900 0.000000 37.432300
141.905100 39.159000 0.040947 36.627387
141.833600 38.941200 0.133516 35.619119
141.762100 38.723300 0.221852 34.338198
141.690600 38.505400 0.339786 32.722170
141.619100 38.287500 0.446272 30.834360
141.547600 38.069600 0.545794 28.848469
141.476100 37.851700 0.567368 26.937593
141.404600 37.633900 0.554564 41.392854
141.333100 37.416000 0.480694 40.849929
141.261600 37.198100 0.397582 40.599911
141.190200 36.980200 0.319266 40.590807
141.118700 36.762300 0.256308 40.776435
141.047200 36.544400 0.157777 41.118044
140.975700 36.326600 -0.000864 41.573919
140.904200 36.108700 0.000000 42.100910
140.832700 35.890800 0.000000 42.652367
140.761200 35.672900 0.000000 43.181100
141.900800 39.856800 0.000000 43.642763
141.829300 39.639000 0.000000 43.999456
141.757800 39.421100 0.000000 44.216246
141.686300 39.203200 0.000000 44.275844
141.614800 38.985300 -0.000073 44.160319
141.543300 38.767400 0.059748 43.861641
141.471800 38.549500 0.112536 43.379763
141.400400 38.331700 0.240953 42.723177
141.328900 38.113800 0.351355 41.907209
141.257400 37.895900 0.443514 40.934399
141.185900 37.678000 0.457127 39.781047
141.114400 37.460100 0.418999 38.400260
141.042900 37.242200 0.369679 36.763379
140.971400 37.024300 0.288192 34.884593
140.899900 36.806500 0.225983 32.912474
140.828400 36.588600 0.157353 46.892341
140.756900 36.370700 0.000000 46.435407
140.685400 36.152800 0.000000 46.296055
140.614000 35.934900 0.000000 46.404778
140.542500 35.717000 0.000000 46.707524
141.682000 39.901000 0.000000 47.154610
141.610600 39.683100 0.000000 47.696770
141.539100 39.465200 0.000000 48.280892
141.467600 39.247300 0.000000 48.862254
141.396100 39.029400 0.000000 49.391199
141.324600 38.811600 0.000000 49.824747
141.253100 38.593700 0.002868 50.130184
141.181600 38.375800 0.063044 50.283347
141.110100 38.157900 0.177678 50.268810
141.038600 37.940000 0.272362 50.078573
140.967100 37.722100 0.316404 49.712172
140.895600 37.504300 0.314998 49.172781
140.824200 37.286400 0.308451 48.474466
140.752700 37.068500 0.257529 47.636275
140.681200 36.850600 0.255572 46.684086
140.609700 36.632700 0.278533 45.611926
140.538200 36.414800 0.000000 44.366846
140.466700 36.196900 0.000000 42.853210
140.395200 35.979100 0.000022 41.042857
140.323700 35.761200 0.000000 39.176176
