144.363700 39.286400 0.709303 10.311284
144.302200 39.117400 0.731988 9.987253
144.240700 38.948400 0.785581 9.962604
144.179200 38.779400 0.838546 9.775473
144.117700 38.610400 0.875127 9.776082
144.056200 38.441300 0.908887 9.975965
143.994600 38.272300 0.938650 9.777456
143.933100 38.103300 0.925417 10.034154
143.871600 37.934300 0.907831 10.316985
143.810100 37.765300 0.913805 10.604479
143.748600 37.596300 0.923265 10.854235
143.687100 37.427200 0.932725 11.086810
143.625500 37.258200 0.943340 11.353027
143.564000 37.089200 0.916556 11.547302
143.502500 36.920200 0.886679 11.926906
143.441000 36.751200 0.896571 12.030392
143.379500 36.582200 0.902970 12.404896
143.318000 36.413100 0.906860 12.718092
143.256400 36.244100 0.916169 12.955083
143.194900 36.075100 0.921511 12.738440
143.133400 35.906100 0.926854 12.664496
143.071900 35.737100 0.933767 12.486506
143.010400 35.568100 0.940053 12.100394
142.948800 35.399000 0.945395 11.449015
142.887300 35.230000 0.952309 10.353068
144.194700 39.348000 0.627562 10.467440
144.133200 39.178900 0.631893 10.142235
144.071700 39.009900 0.663505 10.286660
144.010200 38.840900 0.710726 10.508428
143.948700 38.671900 0.774995 10.759421
143.887100 38.502900 0.829933 11.051478
143.825600 38.333800 0.879466 11.364644
143.764100 38.164800 0.921899 11.681740
143.702600 37.995800 0.957162 11.987205
143.641100 37.826800 0.974028 12.267547
143.579600 37.657800 0.974620 12.509461
143.518000 37.488800 0.961986 12.700311
143.456500 37.319700 0.939114 12.825012
143.395000 37.150700 0.901993 12.874068
143.333500 36.981700 0.886944 12.838115
143.272000 36.812700 0.896836 12.709604
143.210500 36.643700 0.906112 12.526147
143.148900 36.474700 0.911455 12.847199
143.087400 36.305600 0.918369 12.738440
143.025900 36.136600 0.924654 12.741896
142.964400 35.967600 0.929996 12.586594
142.902900 35.798600 0.936910 12.368556
142.841300 35.629600 0.942253 12.100394
142.779800 35.460600 0.948538 10.853842
142.718300 35.291500 0.955451 10.353068
144.025700 39.409500 0.606799 11.716652
143.964200 39.240500 0.612551 11.839155
143.902700 39.071400 0.637461 12.008710
143.841200 38.902400 0.685289 12.236343
143.779600 38.733400 0.751173 12.516278
143.718100 38.564400 0.811674 12.830229
143.656600 38.395400 0.866292 13.160634
143.595100 38.226300 0.910643 13.490520
143.533600 38.057300 0.950625 13.805671
143.472100 37.888300 0.968839 14.092258
143.410500 37.719300 0.970325 14.337524
143.349000 37.550300 0.958635 14.525247
143.287500 37.381300 0.935780 14.642985
143.226000 37.212200 0.896688 14.678742
143.164500 37.043200 0.860816 14.623882
143.103000 36.874200 0.815567 14.467952
143.041400 36.705200 0.770938 14.192712
142.979900 36.536200 0.783361 13.760360
142.918400 36.367200 0.821862 13.067719
142.856900 36.198100 0.842407 12.716955
142.795400 36.029100 0.854758 12.486506
142.733800 35.860100 0.877028 12.100394
142.672300 35.691100 0.902949 11.449015
142.610800 35.522100 0.929393 10.353068
142.549300 35.353100 0.956014 9.999857
143.856700 39.471000 0.583286 13.578111
143.795200 39.302000 0.576937 13.731326
143.733700 39.133000 0.599587 13.930317
143.672100 38.963900 0.640819 14.181939
143.610600 38.794900 0.708710 14.477150
143.549100 38.625900 0.778128 14.802846
143.487600 38.456900 0.842941 15.143602
143.426100 38.287900 0.893440 15.484709
143.364600 38.118800 0.939895 15.811865
143.303000 37.949800 0.960826 16.112184
143.241500 37.780800 0.962691 16.367724
143.180000 37.611800 0.946872 16.563774
143.118500 37.442800 0.922227 16.685276
143.057000 37.273800 0.889499 16.719173
142.995500 37.104700 0.849620 16.654874
142.933900 36.935700 0.799479 16.484893
142.872400 36.766700 0.750163 16.190512
142.810900 36.597700 0.704538 15.738203
142.749400 36.428700 0.650172 15.072206
142.687900 36.259700 0.575675 14.144225
142.626300 36.090600 0.555791 12.951423
142.564800 35.921600 0.565840 12.100394
142.503300 35.752600 0.625375 10.853842
142.441800 35.583600 0.688957 10.353068
142.380300 35.414600 0.752534 9.999857
143.687700 39.532500 0.547548 15.655927
143.626200 39.363500 0.534081 15.829524
143.564600 39.194500 0.546231 16.050856
143.503100 39.025500 0.583145 16.319833
143.441600 38.856400 0.651509 16.630487
143.380100 38.687400 0.727112 16.971764
143.318600 38.518400 0.802750 17.330247
143.257100 38.349400 0.876722 17.691969
143.195500 38.180400 0.925209 18.043253
143.134000 38.011300 0.946852 18.364820
143.072500 37.842300 0.947633 18.640998
143.011000 37.673300 0.930903 18.853764
142.949500 37.504300 0.906410 18.986388
142.888000 37.335300 0.873818 19.024617
142.826400 37.166300 0.825710 18.958949
142.764900 36.997200 0.776498 18.777908
142.703400 36.828200 0.732618 18.471631
142.641900 36.659200 0.691042 18.011322
142.580400 36.490200 0.633413 17.343551
142.518800 36.321200 0.571738 16.407994
142.457300 36.152200 0.479641 15.188920
142.395800 35.983100 0.369088 13.782416
142.334300 35.814100 0.304151 12.394701
142.272800 35.645100 0.321357 11.251199
142.211300 35.476100 0.410464 10.487577
143.518700 39.594000 0.508548 17.955345
143.457100 39.425000 0.483458 18.144528
143.395600 39.256000 0.480593 18.384590
143.334100 39.087000 0.509952 18.675644
143.272600 38.918000 0.573085 19.010505
143.211100 38.748900 0.653315 19.378097
143.149600 38.579900 0.752846 19.765948
143.088000 38.410900 0.841244 20.160208
143.026500 38.241900 0.902977 20.541158
142.965000 38.072900 0.926238 20.891873
142.903500 37.903800 0.930628 21.192646
142.842000 37.734800 0.916048 21.424999
142.780500 37.565800 0.885358 21.570924
142.718900 37.396800 0.845902 21.617113
142.657400 37.227800 0.787505 21.549841
142.595900 37.058800 0.740416 21.363466
142.534400 36.889700 0.708646 21.048886
142.472900 36.720700 0.667768 20.586475
142.411300 36.551700 0.612233 19.929566
142.349800 36.382700 0.549207 19.006530
142.288300 36.213700 0.458654 17.773720
142.226800 36.044700 0.364793 16.284512
142.165300 35.875600 0.291849 14.722866
142.103800 35.706600 0.277023 13.347376
142.042200 35.537600 0.356589 12.360078
143.349600 39.655500 0.459131 20.515271
143.288100 39.486500 0.422959 20.718071
143.226600 39.317500 0.404323 20.981906
143.165100 39.148500 0.413360 21.302166
143.103600 38.979500 0.485198 21.670062
143.042100 38.810500 0.575625 22.073614
142.980500 38.641400 0.677480 22.499447
142.919000 38.472400 0.804703 22.928224
142.857500 38.303400 0.866060 23.342430
142.796000 38.134400 0.897844 23.722058
142.734500 37.965400 0.905531 24.046732
142.673000 37.796300 0.894245 24.296269
142.611400 37.627300 0.861578 24.455401
142.549900 37.458300 0.807123 24.505960
142.488400 37.289300 0.746770 24.439138
142.426900 37.120300 0.700184 24.249080
142.365400 36.951300 0.664215 23.930793
142.303800 36.782200 0.620268 23.470710
142.242300 36.613200 0.577437 22.828327
142.180800 36.444200 0.522133 21.934189
142.119300 36.275200 0.437095 20.720577
142.057800 36.106200 0.332641 19.199278
141.996300 35.937200 0.251948 17.525486
141.934700 35.768100 0.182977 15.962319
141.873200 35.599100 0.101391 14.754721
143.180600 39.717100 0.408406 23.379894
143.119100 39.548000 0.361861 23.602042
143.057600 39.379000 0.334503 23.894886
142.996100 39.210000 0.339133 24.249912
142.934600 39.041000 0.406932 24.655770
142.873000 38.872000 0.510571 25.100047
142.811500 38.703000 0.614613 25.562468
142.750000 38.533900 0.735574 26.025511
142.688500 38.364900 0.825038 26.469614
142.627000 38.195900 0.866637 26.873416
142.565500 38.026900 0.881879 27.216272
142.503900 37.857900 0.872047 27.480554
142.442400 37.688800 0.841148 27.644955
142.380900 37.519800 0.776450 27.698714
142.319400 37.350800 0.715877 27.631881
142.257900 37.181800 0.662056 27.439635
142.196300 37.012800 0.611772 27.121376
142.134800 36.843800 0.569475 26.665509
142.073300 36.674700 0.529364 26.043189
142.011800 36.505700 0.482450 25.193137
141.950300 36.336700 0.409700 24.037959
141.888800 36.167700 0.303215 22.558409
141.827200 35.998700 0.207255 20.871312
141.765700 35.829700 0.164287 19.214984
141.704200 35.660600 -0.000086 17.839732
143.011600 39.778600 0.352815 26.585096
142.950100 39.609600 0.299511 26.833809
142.888600 39.440500 0.257072 27.159509
142.827100 39.271500 0.261906 27.551967
142.765500 39.102500 0.325536 27.998575
142.704000 38.933500 0.425235 28.478790
142.642500 38.764500 0.551079 28.975551
142.581000 38.595500 0.676205 29.468234
142.519500 38.426400 0.771518 29.935013
142.458000 38.257400 0.831229 30.355468
142.396400 38.088400 0.852898 30.710873
142.334900 37.919400 0.845972 30.978896
142.273400 37.750400 0.812035 31.145704
142.211900 37.581300 0.751879 31.198253
142.150400 37.412300 0.689007 31.129782
142.088800 37.243300 0.634156 30.937775
142.027300 37.074300 0.565599 30.618380
141.965800 36.905300 0.518223 30.170514
141.904300 36.736300 0.482948 29.575407
141.842800 36.567200 0.443841 28.783664
141.781300 36.398200 0.386946 27.728585
141.719700 36.229200 0.267850 26.376533
141.658200 36.060200 0.138754 24.795769
141.596700 35.891200 0.020775 23.175274
141.535200 35.722200 0.000000 21.723246
142.842600 39.840100 0.295377 30.147911
142.781100 39.671100 0.236511 30.429199
142.719600 39.502100 0.179719 30.792432
142.658000 39.333000 0.170051 31.225129
142.596500 39.164000 0.210826 31.707438
142.535000 38.995000 0.325297 32.221811
142.473500 38.826000 0.458009 32.747351
142.412000 38.657000 0.592184 33.262151
142.350500 38.488000 0.706236 33.744292
142.288900 38.318900 0.785424 34.174431
142.227400 38.149900 0.813177 34.530038
142.165900 37.980900 0.812805 34.795920
142.104400 37.811900 0.788895 34.958146
142.042900 37.642900 0.732409 35.006161
141.981300 37.473800 0.667812 34.934667
141.919800 37.304800 0.602746 34.738651
141.858300 37.135800 0.530971 34.420922
141.796800 36.966800 0.476479 33.982979
141.735300 36.797800 0.439517 33.416970
141.673800 36.628800 0.407852 32.693938
141.612200 36.459700 0.341520 31.765701
141.550700 36.290700 0.225995 30.596196
141.489200 36.121700 0.091505 29.218621
141.427700 35.952700 -0.000036 27.745044
141.366200 35.783700 0.000000 26.307530
