144.574000 39.595000 0.000014 10.678000
144.471000 39.385000 0.000014 10.311000
144.369000 39.175000 0.000005 9.987000
144.266000 38.965000 0.000000 9.963000
144.164000 38.755000 0.000010 10.009000
144.061000 38.544000 0.000016 9.776000
143.958000 38.334000 0.000000 10.162000
143.856000 38.124000 0.000000 10.768000
143.753000 37.914000 0.000000 11.374000
143.651000 37.704000 0.000000 11.935000
143.548000 37.494000 0.000010 12.434000
143.445000 37.284000 0.000000 12.828000
143.343000 37.074000 0.000038 13.081000
143.240000 36.864000 0.000013 13.187000
143.138000 36.654000 0.000017 13.092000
143.035000 36.444000 0.000000 13.039000
142.933000 36.234000 0.000002 12.742000
142.830000 36.024000 0.000012 12.587000
142.727000 35.814000 0.000002 12.100000
142.625000 35.604000 0.000017 10.854000
142.522000 35.394000 0.000021 10.000000
144.363000 39.658000 0.000027 10.798000
144.261000 39.448000 0.000014 10.311000
144.158000 39.238000 0.000005 10.166000
144.056000 39.028000 0.000000 10.486000
143.953000 38.818000 0.000303 10.982000
143.850000 38.608000 0.002519 11.578000
143.748000 38.398000 0.002509 12.226000
143.645000 38.188000 0.007111 12.901000
143.543000 37.978000 0.012969 13.545000
143.440000 37.768000 0.011995 14.149000
143.338000 37.558000 0.011790 14.662000
143.235000 37.348000 0.019393 15.072000
143.132000 37.138000 0.010324 15.343000
143.030000 36.928000 0.011768 15.440000
142.927000 36.718000 0.005226 15.347000
142.825000 36.508000 0.000776 14.965000
142.722000 36.298000 0.000022 14.197000
142.619000 36.088000 0.000022 12.978000
142.517000 35.877000 0.000002 11.624000
142.414000 35.667000 0.000017 10.414000
142.312000 35.458000 0.000401 10.000000
144.153000 39.722000 0.001008 11.380000
144.050000 39.512000 0.004633 11.774000
143.948000 39.302000 0.010917 12.161000
143.845000 39.092000 0.018561 12.640000
143.742000 38.882000 0.022293 13.225000
143.640000 38.672000 0.027134 13.881000
143.537000 38.461000 0.035694 14.590000
143.435000 38.251000 0.055304 15.301000
143.332000 38.041000 0.057758 16.004000
143.230000 37.831000 0.061542 16.647000
143.127000 37.621000 0.079913 17.219000
143.024000 37.411000 0.055791 17.672000
142.922000 37.201000 0.070930 17.962000
142.819000 36.991000 0.056021 18.089000
142.717000 36.781000 0.038585 17.998000
142.614000 36.571000 0.020028 17.645000
142.511000 36.361000 0.022769 16.897000
142.409000 36.151000 0.017967 15.667000
142.306000 35.941000 0.028494 14.125000
142.204000 35.731000 0.017220 12.655000
142.101000 35.521000 0.009115 11.693000
143.942000 39.785000 0.014765 13.632000
143.840000 39.575000 0.028318 14.078000
143.737000 39.365000 0.053033 14.557000
143.635000 39.155000 0.050481 15.105000
143.532000 38.945000 0.053771 15.756000
143.429000 38.735000 0.071550 16.481000
143.327000 38.525000 0.082932 17.240000
143.224000 38.315000 0.107757 18.031000
143.122000 38.105000 0.133314 18.798000
143.019000 37.895000 0.123070 19.530000
142.916000 37.685000 0.125633 20.172000
142.814000 37.475000 0.117570 20.669000
142.711000 37.265000 0.118947 21.015000
142.609000 37.055000 0.135323 21.159000
142.506000 36.845000 0.102088 21.106000
142.404000 36.635000 0.098139 20.778000
142.301000 36.425000 0.074830 20.086000
142.198000 36.215000 0.082692 18.893000
142.096000 36.005000 0.061698 17.258000
141.993000 35.794000 0.074491 15.587000
141.891000 35.584000 0.039944 14.387000
143.732000 39.849000 0.067782 16.241000
143.629000 39.639000 0.075666 16.730000
143.527000 39.429000 0.096257 17.259000
143.424000 39.219000 0.103865 17.890000
143.321000 39.009000 0.107841 18.617000
143.219000 38.799000 0.157137 19.411000
143.116000 38.589000 0.135330 20.275000
143.014000 38.379000 0.209068 21.150000
142.911000 38.168000 0.189912 22.025000
142.808000 37.958000 0.203966 22.844000
142.706000 37.748000 0.181301 23.544000
142.603000 37.538000 0.193645 24.114000
142.501000 37.328000 0.215645 24.488000
142.398000 37.118000 0.203920 24.681000
142.296000 36.908000 0.218613 24.646000
142.193000 36.698000 0.187361 24.381000
142.090000 36.488000 0.185587 23.767000
141.988000 36.278000 0.172269 22.648000
141.885000 36.068000 0.140518 21.072000
141.783000 35.858000 0.127287 19.368000
141.680000 35.648000 0.031994 18.070000
143.521000 39.912000 0.134376 19.225000
143.419000 39.702000 0.143704 19.726000
143.316000 39.492000 0.178784 20.334000
143.213000 39.282000 0.196765 21.055000
143.111000 39.072000 0.218017 21.869000
143.008000 38.862000 0.209798 22.788000
142.906000 38.652000 0.227824 23.750000
142.803000 38.442000 0.262707 24.751000
142.701000 38.232000 0.311954 25.711000
142.598000 38.022000 0.331090 26.614000
142.495000 37.812000 0.292546 27.397000
142.393000 37.602000 0.281289 28.002000
142.290000 37.392000 0.295354 28.435000
142.188000 37.182000 0.288185 28.648000
142.085000 36.972000 0.277962 28.670000
141.982000 36.762000 0.256269 28.467000
141.880000 36.552000 0.244963 27.946000
141.777000 36.342000 0.242403 27.022000
141.675000 36.132000 0.225272 25.659000
141.572000 35.922000 0.187552 24.171000
141.470000 35.711000 0.092954 22.880000
143.311000 39.976000 0.194254 22.614000
143.208000 39.766000 0.219033 23.175000
143.105000 39.556000 0.223194 23.871000
143.003000 39.346000 0.262524 24.685000
142.900000 39.136000 0.276845 25.635000
142.798000 38.926000 0.271561 26.660000
142.695000 38.716000 0.337343 27.758000
142.593000 38.506000 0.377233 28.845000
142.490000 38.296000 0.421926 29.910000
142.387000 38.085000 0.390329 30.878000
142.285000 37.875000 0.369384 31.695000
142.182000 37.665000 0.341726 32.360000
142.080000 37.455000 0.357434 32.811000
141.977000 37.245000 0.352436 33.079000
141.874000 37.035000 0.323684 33.147000
141.772000 36.825000 0.290956 32.994000
141.669000 36.615000 0.277100 32.622000
141.567000 36.405000 0.291833 31.924000
141.464000 36.195000 0.257864 30.939000
141.362000 35.985000 0.183034 29.776000
141.259000 35.775000 0.120809 28.651000
143.100000 40.039000 0.253838 26.485000
142.997000 39.829000 0.287320 27.125000
142.895000 39.619000 0.298934 27.911000
142.792000 39.409000 0.345436 28.865000
142.690000 39.199000 0.341881 29.924000
142.587000 38.989000 0.356555 31.090000
142.485000 38.779000 0.366843 32.277000
142.382000 38.569000 0.461311 33.475000
142.279000 38.359000 0.499764 34.610000
142.177000 38.149000 0.499812 35.614000
142.074000 37.939000 0.438645 36.490000
141.972000 37.729000 0.368062 37.165000
141.869000 37.519000 0.367675 37.668000
141.767000 37.309000 0.370536 37.951000
141.664000 37.099000 0.310812 38.066000
141.561000 36.889000 0.233795 38.006000
141.459000 36.679000 0.242973 37.747000
141.356000 36.469000 0.264587 37.314000
141.254000 36.259000 0.248525 36.653000
141.151000 36.049000 0.141645 35.832000
141.048000 35.839000 0.132448 34.841000
142.890000 40.103000 0.350359 30.852000
142.787000 39.893000 0.361733 31.598000
142.684000 39.683000 0.393522 32.526000
142.582000 39.473000 0.428443 33.589000
142.479000 39.263000 0.431957 34.795000
142.377000 39.053000 0.420006 36.053000
142.274000 38.843000 0.449836 37.358000
142.171000 38.633000 0.522561 38.631000
142.069000 38.423000 0.578574 39.796000
141.966000 38.213000 0.588081 40.858000
141.864000 38.002000 0.449568 41.728000
141.761000 37.792000 0.319876 42.446000
141.659000 37.582000 0.319363 42.949000
141.556000 37.372000 0.309521 43.286000
141.453000 37.162000 0.221049 43.446000
141.351000 36.952000 0.150492 43.429000
141.248000 36.742000 0.115508 43.304000
141.146000 36.532000 0.164498 43.030000
141.043000 36.322000 0.115581 42.631000
140.940000 36.112000 0.056040 42.012000
140.838000 35.902000 0.000000 41.100000
142.679000 40.166000 0.400254 35.738000
142.576000 39.956000 0.412347 36.611000
142.474000 39.746000 0.429405 37.652000
142.371000 39.536000 0.443361 38.873000
142.269000 39.326000 0.456723 40.180000
142.166000 39.116000 0.464921 41.569000
142.064000 38.906000 0.454790 42.933000
141.961000 38.696000 0.497481 44.267000
141.858000 38.486000 0.531555 45.497000
141.756000 38.276000 0.574695 46.558000
141.653000 38.066000 0.445673 47.475000
141.551000 37.856000 0.318548 48.183000
141.448000 37.646000 0.232372 48.729000
141.345000 37.436000 0.208594 49.094000
141.243000 37.226000 0.115680 49.270000
141.140000 37.016000 0.051888 49.334000
141.038000 36.806000 0.000000 49.272000
140.935000 36.596000 0.000000 49.151000
140.833000 36.386000 0.000000 48.876000
140.730000 36.176000 0.000000 48.374000
140.627000 35.966000 0.000000 47.555000
142.468000 40.230000 0.403134 41.105000
142.366000 40.020000 0.402369 42.098000
142.263000 39.810000 0.401327 43.313000
142.161000 39.600000 0.409299 44.650000
142.058000 39.390000 0.417104 46.109000
141.956000 39.180000 0.361862 47.576000
141.853000 38.970000 0.374723 49.046000
141.750000 38.760000 0.395280 50.437000
141.648000 38.550000 0.453863 51.675000
141.545000 38.340000 0.496104 52.784000
141.443000 38.130000 0.460052 53.689000
141.340000 37.919000 0.283187 54.425000
141.237000 37.709000 0.188491 54.987000
141.135000 37.499000 0.178552 55.347000
141.032000 37.289000 0.147954 55.582000
140.930000 37.079000 0.000000 55.670000
140.827000 36.869000 0.000000 55.710000
140.725000 36.659000 0.000000 55.669000
140.622000 36.449000 0.000000 55.545000
140.519000 36.239000 0.000000 55.137000
140.417000 36.029000 0.000000 54.322000
142.258000 40.293000 0.350612 46.861000
142.155000 40.083000 0.286383 48.045000
142.053000 39.873000 0.304109 49.398000
141.950000 39.663000 0.248823 50.916000
141.848000 39.453000 0.263699 52.482000
141.745000 39.243000 0.193118 54.088000
141.642000 39.033000 0.222052 55.645000
141.540000 38.823000 0.211570 57.067000
141.437000 38.613000 0.379064 58.377000
141.335000 38.403000 0.436724 59.484000
141.232000 38.193000 0.350920 60.436000
141.130000 37.983000 0.258630 61.168000
141.027000 37.773000 0.184410 61.746000
140.924000 37.563000 0.226104 62.154000
140.822000 37.353000 0.352175 62.391000
140.719000 37.143000 0.415644 62.555000
140.617000 36.933000 0.000000 62.642000
140.514000 36.723000 0.000000 62.745000
140.411000 36.513000 0.000000 62.770000
140.309000 36.303000 0.000000 62.467000
140.206000 36.093000 0.000000 61.736000
142.047000 40.357000 0.233636 53.023000
141.945000 40.147000 0.204077 54.365000
141.842000 39.937000 0.112953 55.930000
141.740000 39.727000 0.133250 57.592000
141.637000 39.517000 0.000000 59.340000
141.534000 39.307000 0.041980 61.076000
141.432000 39.097000 0.030677 62.703000
141.329000 38.887000 0.145911 64.237000
141.227000 38.677000 0.204811 65.574000
141.124000 38.467000 0.250623 66.757000
141.022000 38.257000 0.304069 67.709000
140.919000 38.047000 0.250797 68.494000
140.816000 37.836000 0.238530 69.076000
140.714000 37.626000 0.282057 69.472000
140.611000 37.416000 0.351147 69.768000
140.509000 37.206000 0.553581 69.952000
140.406000 36.996000 0.586167 70.156000
140.303000 36.786000 0.526367 70.397000
140.201000 36.576000 0.598609 70.585000
140.098000 36.366000 0.000000 70.534000
139.996000 36.156000 0.707476 69.933000
