145.118000 40.372000 0.000000 5.357000
145.016000 40.162000 0.000010 5.357000
144.913000 39.952000 0.000038 5.357000
144.811000 39.742000 0.000000 5.357000
144.708000 39.532000 0.000014 5.357000
144.606000 39.322000 0.000014 5.357000
144.503000 39.112000 0.000000 5.357000
144.401000 38.902000 0.000000 5.357000
144.298000 38.692000 0.000010 5.357000
144.196000 38.482000 0.000016 5.357000
144.094000 38.272000 0.000000 5.357000
143.991000 38.062000 0.000000 5.357000
143.889000 37.852000 0.000000 5.357000
143.786000 37.641000 0.000000 5.357000
143.684000 37.431000 0.000010 5.357000
143.581000 37.221000 0.000000 5.357000
143.479000 37.011000 0.000038 5.357000
143.376000 36.801000 0.000000 5.357000
143.274000 36.591000 0.000017 5.357000
143.171000 36.381000 0.000000 5.357000
143.069000 36.171000 0.000002 5.357000
142.967000 35.961000 0.000012 5.357000
142.864000 35.751000 0.000002 5.357000
142.762000 35.541000 0.000017 5.357000
142.659000 35.331000 0.000021 5.357000
144.907000 40.436000 0.000000 8.485000
144.805000 40.226000 0.000010 8.485000
144.702000 40.016000 0.000038 8.485000
144.600000 39.806000 0.000000 8.485000
144.497000 39.596000 0.000014 8.485000
144.395000 39.386000 0.000014 8.485000
144.292000 39.175000 0.000005 8.485000
144.190000 38.965000 0.000000 8.485000
144.088000 38.755000 0.000010 8.485000
143.985000 38.545000 0.000016 8.485000
143.883000 38.335000 0.000000 8.485000
143.780000 38.125000 0.000000 8.485000
143.678000 37.915000 0.000632 8.485000
143.575000 37.705000 0.000658 8.485000
143.473000 37.495000 0.000010 8.485000
143.370000 37.285000 0.000430 8.485000
143.268000 37.075000 0.000280 8.485000
143.165000 36.865000 0.000013 8.485000
143.063000 36.655000 0.000000 8.485000
142.961000 36.445000 0.000000 8.485000
142.858000 36.235000 0.000022 8.485000
142.756000 36.025000 0.000012 8.485000
142.653000 35.815000 0.000002 8.485000
142.551000 35.605000 0.000017 8.485000
142.448000 35.395000 0.000021 8.485000
144.696000 40.499000 0.000000 11.614000
144.594000 40.289000 0.000010 11.614000
144.491000 40.079000 0.000038 11.614000
144.389000 39.869000 0.000000 11.614000
144.286000 39.659000 0.000027 11.614000
144.184000 39.449000 0.000014 11.614000
144.082000 39.239000 0.000296 11.614000
143.979000 39.029000 0.003134 11.614000
143.877000 38.819000 0.003105 11.614000
143.774000 38.609000 0.006520 11.614000
143.672000 38.399000 0.018011 11.614000
143.569000 38.189000 0.018485 11.614000
143.467000 37.979000 0.012969 11.614000
143.364000 37.769000 0.027512 11.614000
143.262000 37.559000 0.033598 11.614000
143.159000 37.349000 0.019393 11.614000
143.057000 37.139000 0.028915 11.614000
142.955000 36.929000 0.011768 11.614000
142.852000 36.719000 0.014355 11.614000
142.750000 36.509000 0.011674 11.614000
142.647000 36.299000 0.001161 11.614000
142.545000 36.089000 0.000022 11.614000
142.442000 35.879000 0.000002 11.614000
142.340000 35.668000 0.000017 11.614000
142.237000 35.458000 0.000401 11.614000
144.485000 40.563000 0.000000 14.743000
144.383000 40.353000 0.000000 14.743000
144.281000 40.143000 0.000038 14.743000
144.178000 39.933000 0.000518 14.743000
144.076000 39.723000 0.009911 14.743000
143.973000 39.513000 0.004633 14.743000
143.871000 39.303000 0.023469 14.743000
143.768000 39.093000 0.026103 14.743000
143.666000 38.883000 0.022293 14.743000
143.563000 38.673000 0.040912 14.743000
143.461000 38.463000 0.054969 14.743000
143.358000 38.253000 0.055304 14.743000
143.256000 38.043000 0.080910 14.743000
143.153000 37.833000 0.061542 14.743000
143.051000 37.623000 0.079913 14.743000
142.949000 37.412000 0.085827 14.743000
142.846000 37.202000 0.072869 14.743000
142.744000 36.992000 0.090089 14.743000
142.641000 36.782000 0.054691 14.743000
142.539000 36.572000 0.065576 14.743000
142.436000 36.362000 0.044041 14.743000
142.334000 36.152000 0.033286 14.743000
142.231000 35.942000 0.028494 14.743000
142.129000 35.732000 0.019699 14.743000
142.026000 35.522000 0.020968 14.743000
144.275000 40.627000 0.007864 17.871000
144.172000 40.417000 0.013240 17.871000
144.070000 40.207000 0.009236 17.871000
143.967000 39.997000 0.017981 17.871000
143.865000 39.787000 0.030073 17.871000
143.762000 39.577000 0.059585 17.871000
143.660000 39.367000 0.053033 17.871000
143.557000 39.157000 0.060470 17.871000
143.455000 38.946000 0.066379 17.871000
143.352000 38.736000 0.099136 17.871000
143.250000 38.526000 0.110252 17.871000
143.148000 38.316000 0.145508 17.871000
143.045000 38.106000 0.142499 17.871000
142.943000 37.896000 0.157442 17.871000
142.840000 37.686000 0.161145 17.871000
142.738000 37.476000 0.134727 17.871000
142.635000 37.266000 0.146486 17.871000
142.533000 37.056000 0.135323 17.871000
142.430000 36.846000 0.162549 17.871000
142.328000 36.636000 0.122520 17.871000
142.225000 36.426000 0.113432 17.871000
142.123000 36.216000 0.082692 17.871000
142.020000 36.006000 0.098715 17.871000
141.918000 35.796000 0.074491 17.871000
141.816000 35.586000 0.030641 17.871000
144.064000 40.690000 0.030328 21.000000
143.961000 40.480000 0.054666 21.000000
143.859000 40.270000 0.078070 21.000000
143.756000 40.060000 0.089071 21.000000
143.654000 39.850000 0.093306 21.000000
143.551000 39.640000 0.101152 21.000000
143.449000 39.430000 0.104306 21.000000
143.346000 39.220000 0.136751 21.000000
143.244000 39.010000 0.139829 21.000000
143.142000 38.800000 0.178042 21.000000
143.039000 38.590000 0.206772 21.000000
142.937000 38.380000 0.209068 21.000000
142.834000 38.170000 0.271998 21.000000
142.732000 37.960000 0.236793 21.000000
142.629000 37.750000 0.242396 21.000000
142.527000 37.540000 0.250631 21.000000
142.424000 37.330000 0.251146 21.000000
142.322000 37.120000 0.243269 21.000000
142.219000 36.910000 0.218613 21.000000
142.117000 36.700000 0.226425 21.000000
142.015000 36.490000 0.180430 21.000000
141.912000 36.280000 0.210893 21.000000
141.810000 36.070000 0.180710 21.000000
141.707000 35.860000 0.157853 21.000000
141.605000 35.650000 0.061793 21.000000
143.853000 40.754000 0.105177 24.129000
143.750000 40.544000 0.112631 24.129000
143.648000 40.334000 0.124071 24.129000
143.545000 40.124000 0.118431 24.129000
143.443000 39.914000 0.134376 24.129000
143.340000 39.704000 0.163778 24.129000
143.238000 39.494000 0.178784 24.129000
143.136000 39.284000 0.196765 24.129000
143.033000 39.074000 0.218017 24.129000
142.931000 38.864000 0.238821 24.129000
142.828000 38.654000 0.278094 24.129000
142.726000 38.444000 0.320648 24.129000
142.623000 38.234000 0.370169 24.129000
142.521000 38.024000 0.331090 24.129000
142.418000 37.814000 0.301400 24.129000
142.316000 37.604000 0.310667 24.129000
142.213000 37.394000 0.326745 24.129000
142.111000 37.183000 0.324601 24.129000
142.009000 36.973000 0.301933 24.129000
141.906000 36.763000 0.276444 24.129000
141.804000 36.553000 0.264242 24.129000
141.701000 36.343000 0.270995 24.129000
141.599000 36.133000 0.225272 24.129000
141.496000 35.923000 0.187552 24.129000
141.394000 35.713000 0.073338 24.129000
143.642000 40.818000 0.212006 27.257000
143.539000 40.608000 0.198842 27.257000
143.437000 40.398000 0.198478 27.257000
143.334000 40.188000 0.203208 27.257000
143.232000 39.978000 0.210812 27.257000
143.130000 39.768000 0.259348 27.257000
143.027000 39.558000 0.252738 27.257000
142.925000 39.348000 0.273357 27.257000
142.822000 39.138000 0.300108 27.257000
142.720000 38.928000 0.331027 27.257000
142.617000 38.717000 0.337343 27.257000
142.515000 38.507000 0.379024 27.257000
142.412000 38.297000 0.461842 27.257000
142.310000 38.087000 0.399420 27.257000
142.207000 37.877000 0.400940 27.257000
142.105000 37.667000 0.351754 27.257000
142.003000 37.457000 0.369296 27.257000
141.900000 37.247000 0.356880 27.257000
141.798000 37.037000 0.323684 27.257000
141.695000 36.827000 0.290956 27.257000
141.593000 36.617000 0.261607 27.257000
141.490000 36.407000 0.283540 27.257000
141.388000 36.197000 0.257864 27.257000
141.285000 35.987000 0.195108 27.257000
141.183000 35.777000 0.106309 27.257000
143.431000 40.882000 0.289775 30.386000
143.328000 40.672000 0.284399 30.386000
143.226000 40.461000 0.269876 30.386000
143.124000 40.251000 0.262434 30.386000
143.021000 40.041000 0.300613 30.386000
142.919000 39.831000 0.330825 30.386000
142.816000 39.621000 0.378635 30.386000
142.714000 39.411000 0.386105 30.386000
142.611000 39.201000 0.394399 30.386000
142.509000 38.991000 0.398739 30.386000
142.406000 38.781000 0.434388 30.386000
142.304000 38.571000 0.496036 30.386000
142.201000 38.361000 0.524486 30.386000
142.099000 38.151000 0.543106 30.386000
141.997000 37.941000 0.438645 30.386000
141.894000 37.731000 0.367133 30.386000
141.792000 37.521000 0.367675 30.386000
141.689000 37.311000 0.334870 30.386000
141.587000 37.101000 0.285312 30.386000
141.484000 36.891000 0.224731 30.386000
141.382000 36.681000 0.206976 30.386000
141.279000 36.471000 0.210049 30.386000
141.177000 36.261000 0.201265 30.386000
141.074000 36.051000 0.141645 30.386000
140.972000 35.841000 0.000000 30.386000
143.220000 40.945000 0.382636 33.515000
143.118000 40.735000 0.388286 33.515000
143.015000 40.525000 0.360894 33.515000
142.913000 40.315000 0.347078 33.515000
142.810000 40.105000 0.378103 33.515000
142.708000 39.895000 0.384725 33.515000
142.605000 39.685000 0.424079 33.515000
142.503000 39.475000 0.438627 33.515000
142.400000 39.265000 0.439028 33.515000
142.298000 39.055000 0.447267 33.515000
142.195000 38.845000 0.465054 33.515000
142.093000 38.635000 0.512254 33.515000
141.991000 38.425000 0.595997 33.515000
141.888000 38.215000 0.588081 33.515000
141.786000 38.005000 0.492560 33.515000
141.683000 37.795000 0.319876 33.515000
141.581000 37.585000 0.270553 33.515000
141.478000 37.375000 0.262438 33.515000
141.376000 37.165000 0.161747 33.515000
141.273000 36.955000 0.126392 33.515000
141.171000 36.744000 0.102140 33.515000
141.068000 36.535000 0.076163 33.515000
140.966000 36.325000 0.115581 33.515000
140.864000 36.114000 0.056040 33.515000
140.761000 35.904000 0.000000 33.515000
143.009000 41.009000 0.460380 36.643000
142.907000 40.799000 0.446296 36.643000
142.804000 40.589000 0.410626 36.643000
142.702000 40.379000 0.393696 36.643000
142.599000 40.169000 0.409369 36.643000
142.497000 39.959000 0.412347 36.643000
142.394000 39.749000 0.425119 36.643000
142.292000 39.539000 0.443361 36.643000
142.189000 39.329000 0.443188 36.643000
142.087000 39.119000 0.451316 36.643000
141.985000 38.909000 0.450643 36.643000
141.882000 38.699000 0.497481 36.643000
141.780000 38.488000 0.527636 36.643000
141.677000 38.278000 0.574695 36.643000
141.575000 38.069000 0.479901 36.643000
141.472000 37.858000 0.318548 36.643000
141.370000 37.648000 0.200475 36.643000
141.267000 37.438000 0.208594 36.643000
141.165000 37.228000 0.115680 36.643000
141.062000 37.018000 0.000000 36.643000
140.960000 36.808000 0.000000 36.643000
140.858000 36.598000 0.000000 36.643000
140.755000 36.388000 0.000000 36.643000
140.653000 36.178000 0.000000 36.643000
140.550000 35.968000 0.000000 36.643000
142.798000 41.073000 0.484522 39.772000
142.696000 40.863000 0.472778 39.772000
142.593000 40.653000 0.438617 39.772000
142.491000 40.443000 0.404516 39.772000
142.388000 40.233000 0.399714 39.772000
142.286000 40.022000 0.382344 39.772000
142.184000 39.812000 0.350356 39.772000
142.081000 39.602000 0.353028 39.772000
141.979000 39.392000 0.360823 39.772000
141.876000 39.182000 0.313443 39.772000
141.774000 38.972000 0.326191 39.772000
141.671000 38.762000 0.357108 39.772000
141.569000 38.552000 0.481988 39.772000
141.466000 38.342000 0.496104 39.772000
141.364000 38.132000 0.422717 39.772000
141.261000 37.922000 0.295422 39.772000
141.159000 37.712000 0.167850 39.772000
141.056000 37.502000 0.198113 39.772000
140.954000 37.292000 0.249586 39.772000
140.852000 37.082000 0.000000 39.772000
140.749000 36.872000 0.000000 39.772000
140.647000 36.662000 0.000000 39.772000
140.544000 36.452000 0.000000 39.772000
140.442000 36.242000 0.000000 39.772000
140.339000 36.032000 0.000000 39.772000
142.587000 41.136000 0.455709 42.901000
142.485000 40.926000 0.447075 42.901000
142.382000 40.716000 0.410635 42.901000
142.280000 40.506000 0.366870 42.901000
142.178000 40.296000 0.318900 42.901000
142.075000 40.086000 0.286383 42.901000
141.973000 39.876000 0.218199 42.901000
141.870000 39.666000 0.209911 42.901000
141.768000 39.456000 0.170194 42.901000
141.665000 39.246000 0.193118 42.901000
141.563000 39.036000 0.134832 42.901000
141.460000 38.826000 0.216223 42.901000
141.358000 38.616000 0.267639 42.901000
141.255000 38.406000 0.364925 42.901000
141.153000 38.196000 0.321594 42.901000
141.051000 37.986000 0.246537 42.901000
140.948000 37.776000 0.186408 42.901000
140.846000 37.566000 0.292955 42.901000
140.743000 37.356000 0.352175 42.901000
140.641000 37.146000 0.507712 42.901000
140.538000 36.936000 0.000000 42.901000
140.436000 36.726000 0.000000 42.901000
140.333000 36.516000 0.000000 42.901000
140.231000 36.306000 0.000000 42.901000
140.128000 36.096000 0.000000 42.901000
142.376000 41.200000 0.422543 46.029000
142.274000 40.990000 0.380679 46.029000
142.172000 40.780000 0.332581 46.029000
142.069000 40.570000 0.299836 46.029000
141.967000 40.360000 0.233636 46.029000
141.864000 40.150000 0.155102 46.029000
141.762000 39.940000 0.076412 46.029000
141.659000 39.730000 0.000000 46.029000
141.557000 39.520000 0.000000 46.029000
141.454000 39.310000 0.000000 46.029000
141.352000 39.100000 0.018483 46.029000
141.249000 38.890000 0.065158 46.029000
141.147000 38.680000 0.166606 46.029000
141.045000 38.470000 0.212145 46.029000
140.942000 38.260000 0.274925 46.029000
140.840000 38.049000 0.250797 46.029000
140.737000 37.840000 0.245578 46.029000
140.635000 37.630000 0.293524 46.029000
140.532000 37.419000 0.398712 46.029000
140.430000 37.209000 0.493551 46.029000
140.327000 36.999000 0.605274 46.029000
140.225000 36.789000 0.652801 46.029000
140.122000 36.579000 0.663918 46.029000
140.020000 36.369000 0.679689 46.029000
139.918000 36.159000 0.713592 46.029000
