142.075900 37.010800 0.571771 29.176518
142.066200 36.966500 0.561652 28.950035
142.056500 36.922100 0.551196 28.714253
142.046800 36.877800 0.540415 28.470536
142.037100 36.833500 0.529767 28.217363
142.027400 36.789100 0.520663 27.952966
142.017700 36.744800 0.513403 27.678327
142.007900 36.700400 0.506961 27.392012
141.998200 36.656100 0.501345 27.091327
141.988500 36.611700 0.495948 26.774400
141.978800 36.567400 0.485778 26.441859
141.969100 36.523100 0.472821 26.091125
141.959400 36.478700 0.459987 25.719565
141.949700 36.434400 0.447279 25.328363
141.939900 36.390000 0.428829 24.915735
141.930200 36.345700 0.408176 24.480516
141.920500 36.301400 0.387653 24.023148
141.910800 36.257000 0.360581 23.542970
141.901100 36.212700 0.332484 23.044412
141.891400 36.168300 0.304523 22.526826
141.881600 36.124000 0.281291 21.997764
141.871900 36.079600 0.258154 21.454769
141.862200 36.035300 0.234413 20.906860
142.663900 39.944600 0.266267 34.556018
142.654200 39.900300 0.255024 34.485279
142.644400 39.856000 0.240084 34.422520
142.634700 39.811600 0.222185 34.362476
142.625000 39.767300 0.203473 34.308371
142.615300 39.722900 0.184854 34.258747
142.605600 39.678600 0.167092 34.214561
142.595900 39.634200 0.152832 34.174396
142.586100 39.589900 0.142552 34.141406
142.576400 39.545600 0.130833 34.110294
142.566700 39.501200 0.117939 34.082486
142.557000 39.456900 0.113779 34.058812
142.547300 39.412500 0.108753 34.037918
142.537600 39.368200 0.107984 34.020615
142.527900 39.323800 0.115593 34.005562
142.518100 39.279500 0.123481 33.995768
142.508400 39.235200 0.138461 33.985929
142.498700 39.190800 0.157586 33.977482
142.489000 39.146500 0.178611 33.971169
142.479300 39.102100 0.212700 33.965677
142.469600 39.057800 0.249391 33.961704
142.459900 39.013500 0.283053 33.958439
142.450100 38.969100 0.317813 33.957314
142.440400 38.924800 0.356576 33.954553
142.430700 38.880400 0.395908 33.951103
142.421000 38.836100 0.433593 33.947643
142.411300 38.791700 0.470238 33.942878
142.401600 38.747400 0.506872 33.937490
142.391800 38.703100 0.543514 33.932891
142.382100 38.658700 0.580480 33.923871
142.372400 38.614400 0.617675 33.913341
142.362700 38.570000 0.655874 33.899996
142.353000 38.525700 0.687306 33.884562
142.343300 38.481300 0.708281 33.865732
142.333600 38.437000 0.731434 33.844270
142.323800 38.392700 0.753053 33.821537
142.314100 38.348300 0.775671 33.792405
142.304400 38.304000 0.794094 33.759837
142.294700 38.259600 0.803173 33.722489
142.285000 38.215300 0.812227 33.681211
142.275300 38.170900 0.819679 33.634642
142.265600 38.126600 0.823136 33.583673
142.255800 38.082300 0.826647 33.529596
142.246100 38.037900 0.830323 33.467398
142.236400 37.993600 0.828464 33.400156
142.226700 37.949200 0.825077 33.326450
142.217000 37.904900 0.821695 33.247312
142.207300 37.860600 0.816488 33.161934
142.197600 37.816200 0.806519 33.069480
142.187800 37.771900 0.797095 32.973098
142.178100 37.727500 0.786629 32.867279
142.168400 37.683200 0.772371 32.755251
142.158700 37.638800 0.756987 32.635506
142.149000 37.594500 0.742748 32.509342
142.139300 37.550200 0.729248 32.375964
142.129500 37.505800 0.713748 32.236492
142.119800 37.461500 0.697194 32.088468
142.110100 37.417100 0.680477 31.932211
142.100400 37.372800 0.664601 31.769264
142.090700 37.328400 0.653003 31.598057
142.081000 37.284100 0.641196 31.420181
142.071300 37.239800 0.628860 31.234844
142.061500 37.195400 0.614143 31.043053
142.051800 37.151100 0.597243 30.842750
142.042100 37.106700 0.578525 30.634052
142.032400 37.062400 0.565494 30.418627
142.022700 37.018100 0.554989 30.195471
142.013000 36.973700 0.544201 29.963444
142.003300 36.929400 0.533434 29.724063
141.993500 36.885000 0.523039 29.476800
141.983800 36.840700 0.514123 29.219387
141.974100 36.796300 0.506273 28.950919
141.964400 36.752000 0.499517 28.672447
141.954700 36.707700 0.493560 28.381841
141.945000 36.663300 0.488207 28.076720
141.935300 36.619000 0.479128 27.757782
141.925500 36.574600 0.469571 27.423030
141.915800 36.530300 0.457709 27.069786
141.906100 36.485900 0.446325 26.696000
141.896400 36.441600 0.435401 26.302860
141.886700 36.397300 0.416057 25.888202
141.877000 36.352900 0.396411 25.450099
141.867200 36.308600 0.373738 24.992949
141.857500 36.264200 0.345106 24.511348
141.847800 36.219900 0.316745 24.011305
141.838100 36.175500 0.288393 23.491967
141.828400 36.131200 0.263388 22.959260
141.818700 36.086900 0.236699 22.415240
141.809000 36.042500 0.214459 21.862464
142.610600 39.951900 0.256139 35.794702
142.600900 39.907500 0.243774 35.724821
142.591200 39.863200 0.229000 35.661286
142.581500 39.818800 0.213483 35.602585
142.571700 39.774500 0.194884 35.552017
142.562000 39.730200 0.160975 35.504142
142.552300 39.685800 0.074448 35.460395
142.542600 39.641500 0.099022 35.421728
142.532900 39.597100 0.123813 35.386721
142.523200 39.552800 0.115750 35.356265
142.513500 39.508400 0.101705 35.328952
142.503700 39.464100 0.092721 35.307931
142.494000 39.419800 0.086764 35.287762
142.484300 39.375400 0.085305 35.269940
142.474600 39.331100 0.093535 35.255265
142.464900 39.286700 0.101850 35.242369
142.455200 39.242400 0.116939 35.232020
142.445500 39.198000 0.135820 35.222865
142.435700 39.153700 0.163781 35.217969
142.426000 39.109400 0.197420 35.211892
142.416300 39.065000 0.229459 35.206117
142.406600 39.020700 0.262343 35.201362
142.396900 38.976300 0.295572 35.196294
142.387200 38.932000 0.333026 35.191646
142.377400 38.887600 0.370148 35.188369
142.367700 38.843300 0.408661 35.182609
142.358000 38.799000 0.446274 35.175835
142.348300 38.754600 0.482561 35.167227
142.338600 38.710300 0.519530 35.157520
142.328900 38.665900 0.558623 35.145388
142.319200 38.621600 0.597234 35.131580
142.309400 38.577300 0.635524 35.117525
142.299700 38.532900 0.668244 35.097915
142.290000 38.488600 0.690593 35.075790
142.280300 38.444200 0.712612 35.049812
142.270600 38.399900 0.734479 35.020794
142.260900 38.355500 0.755158 34.987367
142.251200 38.311200 0.775698 34.950383
142.241400 38.266900 0.793167 34.911226
142.231700 38.222500 0.800193 34.864704
142.222000 38.178200 0.806402 34.813927
142.212300 38.133800 0.812528 34.757488
142.202600 38.089500 0.815637 34.696353
142.192900 38.045100 0.816091 34.629101
142.183200 38.000800 0.816460 34.556756
142.173400 37.956500 0.814983 34.480610
142.163700 37.912100 0.810997 34.395600
142.154000 37.867800 0.806183 34.304956
142.144300 37.823400 0.798199 34.207185
142.134600 37.779100 0.788446 34.103479
142.124900 37.734800 0.776009 33.993026
142.115100 37.690400 0.761777 33.877004
142.105400 37.646100 0.747640 33.752645
142.095700 37.601700 0.733208 33.620434
142.086000 37.557400 0.717513 33.481759
142.076300 37.513000 0.701763 33.335049
142.066600 37.468700 0.686119 33.181791
142.056900 37.424400 0.669636 33.021129
142.047100 37.380000 0.656302 32.854174
142.037400 37.335700 0.643752 32.678653
142.027700 37.291300 0.630831 32.494878
142.018000 37.247000 0.617755 32.304528
142.008300 37.202600 0.598660 32.105905
141.998600 37.158300 0.579640 31.900729
141.988900 37.114000 0.562300 31.688116
141.979100 37.069600 0.548677 31.468952
141.969400 37.025300 0.537562 31.241175
141.959700 36.980900 0.527138 31.004624
141.950000 36.936600 0.518186 30.760878
141.940300 36.892300 0.509232 30.508590
141.930600 36.847900 0.500288 30.246204
141.920900 36.803600 0.493385 29.974970
141.911100 36.759200 0.486799 29.693737
141.901400 36.714900 0.480463 29.399865
141.891700 36.670500 0.471874 29.091789
141.882000 36.626200 0.462983 28.770286
141.872300 36.581900 0.454196 28.432818
141.862600 36.537500 0.444887 28.076692
141.852800 36.493200 0.436558 27.704615
141.843100 36.448800 0.423416 27.309362
141.833400 36.404500 0.404577 26.894225
141.823700 36.360100 0.383864 26.455990
141.814000 36.315800 0.360609 25.997384
141.804300 36.271500 0.333005 25.517685
141.794600 36.227100 0.303910 25.016667
141.784800 36.182800 0.270484 24.501031
141.775100 36.138400 0.237772 23.966959
141.765400 36.094100 0.208554 23.422710
141.755700 36.049700 0.184855 22.869055
142.557300 39.959100 0.249184 37.062957
142.547600 39.914700 0.231186 36.994869
142.537900 39.870400 0.204682 36.933044
142.528200 39.826100 0.177768 36.876570
142.518500 39.781700 0.100118 36.824572
142.508800 39.737400 -0.001416 36.778050
142.499100 39.693000 0.019038 36.735509
142.489300 39.648700 0.056203 36.700263
142.479600 39.604400 0.068402 36.666755
142.469900 39.560000 0.064931 36.636469
142.460200 39.515700 0.063230 36.610301
142.450500 39.471300 0.065750 36.586819
142.440800 39.427000 0.068215 36.566884
142.431100 39.382600 0.068631 36.549095
142.421300 39.338300 0.067242 36.536632
142.411600 39.294000 0.081777 36.523916
142.401900 39.249600 0.097783 36.512470
142.392200 39.205300 0.115765 36.503079
142.382500 39.160900 0.146160 36.494370
142.372800 39.116600 0.176853 36.487104
142.363000 39.072200 0.207754 36.482260
142.353300 39.027900 0.240424 36.475880
142.343600 38.983600 0.277919 36.469482
142.333900 38.939200 0.315777 36.462246
142.324200 38.894900 0.352813 36.454926
142.314500 38.850500 0.387269 36.446154
142.304800 38.806200 0.422347 36.436676
142.295000 38.761800 0.458567 36.427458
142.285300 38.717500 0.494705 36.414634
142.275600 38.673200 0.532517 36.399707
142.265900 38.628800 0.571224 36.381845
142.256200 38.584500 0.607803 36.361850
142.246500 38.540100 0.634729 36.338349
142.236800 38.495800 0.662415 36.312187
142.227000 38.451500 0.690607 36.284822
142.217300 38.407100 0.711361 36.250865
142.207600 38.362800 0.731927 36.213479
142.197900 38.318400 0.752932 36.171260
142.188200 38.274100 0.773607 36.125146
142.178500 38.229700 0.780564 36.073722
142.168800 38.185400 0.786855 36.017963
142.159000 38.141100 0.795772 35.959244
142.149300 38.096700 0.799678 35.892314
142.139600 38.052400 0.800028 35.820443
142.129900 38.008000 0.800513 35.742153
142.120200 37.963700 0.801421 35.658550
142.110500 37.919300 0.797741 35.568136
142.100700 37.875000 0.793030 35.474206
142.091000 37.830700 0.788413 35.371676
142.081300 37.786300 0.776072 35.261825
142.071600 37.742000 0.765111 35.145925
142.061900 37.697600 0.751405 35.022416
142.052200 37.653300 0.737321 34.892645
142.042500 37.609000 0.722744 34.755791
142.032700 37.564600 0.706981 34.613039
142.023000 37.520300 0.691374 34.461773
142.013300 37.475900 0.675662 34.302435
142.003600 37.431600 0.661349 34.136553
141.993900 37.387200 0.649071 33.962452
141.984200 37.342900 0.636756 33.781827
141.974500 37.298600 0.619697 33.593859
141.964700 37.254200 0.599946 33.399636
141.955000 37.209900 0.580334 33.196980
141.945300 37.165500 0.563220 32.986097
141.935600 37.121200 0.549529 32.768756
141.925900 37.076800 0.535798 32.543079
141.916200 37.032500 0.522259 32.310814
141.906500 36.988200 0.513276 32.070856
141.896700 36.943800 0.504203 31.823845
141.887000 36.899500 0.495447 31.567559
141.877300 36.855100 0.487518 31.301375
141.867600 36.810800 0.479479 31.026606
141.857900 36.766500 0.472724 30.741384
141.848200 36.722100 0.464688 30.443583
141.838400 36.677800 0.456484 30.135985
141.828700 36.633400 0.447990 29.811375
141.819000 36.589100 0.440953 29.472433
141.809300 36.544700 0.434963 29.115378
141.799600 36.500400 0.427954 28.741217
141.789900 36.456100 0.412756 28.347492
141.780200 36.411700 0.392730 27.931856
141.770400 36.367400 0.369475 27.498194
141.760700 36.323000 0.346283 27.040084
141.751000 36.278700 0.315866 26.562684
141.741300 36.234300 0.281887 26.064208
141.731600 36.190000 0.249050 25.549501
141.721900 36.145700 0.216582 25.019568
141.712200 36.101300 0.184025 24.475924
141.702400 36.057000 0.154112 23.927449
142.504100 39.966300 0.163175 38.358567
142.494400 39.922000 0.089692 38.293223
142.484700 39.877600 0.058682 38.232710
142.474900 39.833300 0.051832 38.180468
142.465200 39.788900 -0.000171 38.130169
142.455500 39.744600 0.000000 38.085201
142.445800 39.700300 -0.000193 38.044663
142.436100 39.655900 0.018290 38.007693
142.426400 39.611600 0.006855 37.975238
142.416700 39.567200 0.009783 37.945811
142.406900 39.522900 0.018649 37.922732
142.397200 39.478600 0.027566 37.900294
142.387500 39.434200 0.029534 37.880063
142.377800 39.389900 0.035142 37.862898
142.368100 39.345500 0.046443 37.847362
142.358400 39.301200 0.061775 37.834277
142.348600 39.256800 0.078224 37.824638
142.338900 39.212500 0.095242 37.814422
142.329200 39.168200 0.124093 37.805192
142.319500 39.123800 0.155341 37.796092
142.309800 39.079500 0.186546 37.787905
142.300100 39.035100 0.221839 37.779227
142.290400 38.990800 0.260072 37.770852
142.280600 38.946400 0.295184 37.763792
142.270900 38.902100 0.328577 37.754029
142.261200 38.857800 0.362488 37.743112
142.251500 38.813400 0.398266 37.730190
142.241800 38.769100 0.434875 37.716075
142.232100 38.724700 0.471679 37.699382
142.222400 38.680400 0.509197 37.680935
142.212600 38.636000 0.546197 37.661686
142.202900 38.591700 0.578417 37.637772
142.193200 38.547400 0.607317 37.610731
142.183500 38.503000 0.636583 37.579721
142.173800 38.458700 0.666102 37.545649
142.164100 38.414300 0.688450 37.507085
142.154400 38.370000 0.710260 37.464968
142.144600 38.325700 0.732203 37.420763
142.134900 38.281300 0.753610 37.369050
142.125200 38.237000 0.761974 37.313133
142.115500 38.192600 0.771069 37.251545
142.105800 38.148300 0.780054 37.185345
142.096100 38.103900 0.783784 37.113042
142.086300 38.059600 0.784723 37.037975
142.076600 38.015300 0.785692 36.954858
142.066900 37.970900 0.786703 36.865057
142.057200 37.926600 0.784297 36.769769
142.047500 37.882200 0.780305 36.667448
142.037800 37.837900 0.773097 36.559358
142.028100 37.793500 0.762396 36.443925
142.018300 37.749200 0.751745 36.324613
142.008600 37.704900 0.740244 36.196305
141.998900 37.660500 0.725464 36.060260
141.989200 37.616200 0.710226 35.917934
141.979500 37.571800 0.694862 35.767687
141.969800 37.527500 0.679470 35.611056
141.960100 37.483200 0.665122 35.447216
141.950300 37.438800 0.651353 35.277323
141.940600 37.394500 0.637671 35.098876
141.930900 37.350100 0.622664 34.912282
141.921200 37.305800 0.603582 34.719283
141.911500 37.261400 0.585178 34.518131
141.901800 37.217100 0.567066 34.310634
141.892100 37.172800 0.549768 34.095910
141.882300 37.128400 0.536032 33.874979
141.872600 37.084100 0.522356 33.645714
141.862900 37.039700 0.508763 33.408107
141.853200 36.995400 0.498988 33.163930
141.843500 36.951000 0.488674 32.910984
141.833800 36.906700 0.480754 32.650889
141.824000 36.862400 0.472955 32.384074
141.814300 36.818000 0.465089 32.105001
141.804600 36.773700 0.457084 31.816869
141.794900 36.729300 0.449004 31.516566
141.785200 36.685000 0.442009 31.205143
141.775500 36.640600 0.435353 30.879095
141.765800 36.596300 0.429598 30.539357
141.756000 36.552000 0.425328 30.185273
141.746300 36.507600 0.416925 29.810441
141.736600 36.463300 0.398123 29.418021
141.726900 36.418900 0.376953 29.004468
141.717200 36.374600 0.354002 28.571859
141.707500 36.330300 0.324187 28.118740
141.697800 36.285900 0.292127 27.644009
141.688000 36.241600 0.260296 27.153494
141.678300 36.197200 0.228369 26.642062
141.668600 36.152900 0.195898 26.116979
141.658900 36.108500 0.163476 25.578062
141.649200 36.064200 0.137085 25.032051
142.450800 39.973500 0.056032 39.685675
142.441100 39.929200 -0.002062 39.622723
142.431400 39.884900 0.000000 39.565117
142.421700 39.840500 0.000000 39.511932
142.412000 39.796200 0.000000 39.464200
142.402300 39.751800 0.000000 39.420359
142.392500 39.707500 0.000000 39.383861
142.382800 39.663100 0.000000 39.348276
142.373100 39.618800 0.000000 39.317016
142.363400 39.574500 0.000000 39.289168
142.353700 39.530100 -0.000013 39.263851
142.344000 39.485800 -0.000424 39.241964
142.334200 39.441400 0.005590 39.224525
142.324500 39.397100 0.015802 39.207461
142.314800 39.352700 0.026133 39.191772
142.305100 39.308400 0.042258 39.178303
142.295400 39.264100 0.058858 39.166171
142.285700 39.219700 0.075258 39.154516
142.276000 39.175400 0.097882 39.144167
142.266200 39.131000 0.126004 39.136151
142.256500 39.086700 0.156448 39.126345
142.246800 39.042400 0.196348 39.116344
142.237100 38.998000 0.237280 39.105299
142.227400 38.953700 0.278269 39.094032
142.217700 38.909300 0.312661 39.081108
142.208000 38.865000 0.343036 39.067357
142.198200 38.820600 0.375539 39.053786
142.188500 38.776300 0.413077 39.036379
142.178800 38.732000 0.449886 39.016733
142.169100 38.687600 0.485149 38.993987
142.159400 38.643300 0.518302 38.969023
142.149700 38.598900 0.551666 38.940413
142.140000 38.554600 0.581307 38.909071
142.130200 38.510200 0.609949 38.875945
142.120500 38.465900 0.637904 38.837221
142.110800 38.421600 0.665350 38.794449
142.101100 38.377200 0.691636 38.746770
142.091400 38.332900 0.711219 38.695207
142.081700 38.288500 0.728201 38.638289
142.071900 38.244200 0.745409 38.579400
142.062200 38.199900 0.757530 38.513055
142.052500 38.155500 0.763011 38.440719
142.042800 38.111200 0.768360 38.363530
142.033100 38.066800 0.769576 38.279961
142.023400 38.022500 0.770517 38.191211
142.013700 37.978100 0.770667 38.095722
142.003900 37.933800 0.767423 37.996979
141.994200 37.889500 0.763510 37.889665
141.984500 37.845100 0.757539 37.775139
141.974800 37.800800 0.746537 37.654754
141.965100 37.756400 0.736369 37.526880
141.955400 37.712100 0.724398 37.392945
141.945700 37.667700 0.709058 37.251295
141.935900 37.623400 0.693723 37.105578
141.926200 37.579100 0.679154 36.950644
141.916500 37.534700 0.665532 36.787762
141.906800 37.490400 0.652021 36.618564
141.897100 37.446000 0.638527 36.441333
141.887400 37.401700 0.623164 36.257700
141.877700 37.357400 0.607780 36.066880
141.867900 37.313000 0.590065 35.870043
141.858200 37.268700 0.572047 35.664874
141.848500 37.224300 0.553974 35.451645
141.838800 37.180000 0.536104 35.232225
141.829100 37.135600 0.522356 35.004729
141.819400 37.091300 0.508204 34.771040
141.809600 37.047000 0.495545 34.532140
141.799900 37.002600 0.484592 34.282883
141.790200 36.958300 0.473013 34.027046
141.780500 36.913900 0.465612 33.762286
141.770800 36.869600 0.457824 33.490198
141.761100 36.825200 0.449946 33.208102
141.751400 36.780900 0.442016 32.917378
141.741600 36.736600 0.435649 32.618008
141.731900 36.692200 0.429303 32.303920
141.722200 36.647900 0.423018 31.978136
141.712500 36.603500 0.417991 31.637044
141.702800 36.559200 0.412834 31.281660
141.693100 36.514800 0.397604 30.908244
141.683400 36.470500 0.376582 30.518167
141.673600 36.426200 0.356132 30.111177
141.663900 36.381800 0.334240 29.681412
141.654200 36.337500 0.302888 29.233359
141.644500 36.293100 0.271051 28.764437
141.634800 36.248800 0.239276 28.278468
141.625100 36.204500 0.207551 27.775445
141.615400 36.160100 0.175655 27.255860
141.605600 36.115800 0.143413 26.727530
141.595900 36.071400 0.114734 26.186405
142.397600 39.980800 -0.000166 41.039630
142.387900 39.936400 0.000000 40.978676
142.378100 39.892100 0.000000 40.926083
142.368400 39.847700 0.000000 40.875249
142.358700 39.803400 0.000000 40.829691
142.349000 39.759100 0.000000 40.788453
142.339300 39.714700 0.000000 40.750638
142.329600 39.670400 0.000000 40.717230
142.319900 39.626000 0.000000 40.686686
142.310100 39.581700 0.000000 40.662472
142.300400 39.537300 0.000000 40.638022
142.290700 39.493000 0.000000 40.616776
142.281000 39.448700 -0.000016 40.597840
142.271300 39.404300 0.004990 40.580316
142.261600 39.360000 0.014834 40.565077
142.251800 39.315600 0.023858 40.553162
142.242100 39.271300 0.036985 40.540382
142.232400 39.226900 0.058667 40.527805
142.222700 39.182600 0.080354 40.516281
142.213000 39.138300 0.101405 40.504918
142.203300 39.093900 0.132841 40.492828
142.193600 39.049600 0.172974 40.480863
142.183800 39.005200 0.213743 40.470087
142.174100 38.960900 0.254449 40.456332
142.164400 38.916600 0.290421 40.441234
142.154700 38.872200 0.321835 40.423910
142.145000 38.827900 0.353302 40.405244
142.135300 38.783500 0.387519 40.383797
142.125600 38.739200 0.424475 40.360475
142.115800 38.694800 0.460374 40.336279
142.106100 38.650500 0.494333 40.307204
142.096400 38.606200 0.526037 40.274872
142.086700 38.561800 0.553059 40.238424
142.077000 38.517500 0.579129 40.198846
142.067300 38.473100 0.606459 40.154664
142.057500 38.428800 0.633699 40.109313
142.047800 38.384400 0.661166 40.056474
142.038100 38.340100 0.681890 39.999650
142.028400 38.295800 0.698970 39.937997
142.018700 38.251400 0.716851 39.870648
142.009000 38.207100 0.738468 39.798743
141.999300 38.162700 0.743644 39.720746
141.989500 38.118400 0.749155 39.640182
141.979800 38.074100 0.753422 39.551540
141.970100 38.029700 0.753613 39.456276
141.960400 37.985400 0.752032 39.355675
141.950700 37.941000 0.747925 39.248134
141.941000 37.896700 0.743876 39.135000
141.931300 37.852300 0.739783 39.014641
141.921500 37.808000 0.731191 38.890698
141.911800 37.763700 0.722117 38.757826
141.902100 37.719300 0.708817 38.617365
141.892400 37.675000 0.694365 38.470836
141.882700 37.630600 0.679846 38.316539
141.873000 37.586300 0.665363 38.156068
141.863300 37.541900 0.651721 37.987701
141.853500 37.497600 0.639782 37.815272
141.843800 37.453300 0.626012 37.633606
141.834100 37.408900 0.609341 37.443885
141.824400 37.364600 0.592712 37.247954
141.814700 37.320200 0.576227 37.044030
141.805000 37.275900 0.558458 36.833980
141.795200 37.231500 0.541078 36.618051
141.785500 37.187200 0.524970 36.393984
141.775800 37.142900 0.508687 36.162942
141.766100 37.098500 0.492723 35.923924
141.756400 37.054200 0.481131 35.678851
141.746700 37.009800 0.469466 35.425602
141.737000 36.965500 0.457734 35.166022
141.727200 36.921200 0.447206 34.900837
141.717500 36.876800 0.440353 34.624535
141.707800 36.832500 0.433437 34.340734
141.698100 36.788100 0.426470 34.046599
141.688400 36.743800 0.419523 33.743513
141.678700 36.699400 0.412673 33.428269
141.669000 36.655100 0.407250 33.102045
141.659200 36.610800 0.401773 32.764461
141.649500 36.566400 0.394586 32.409079
141.639800 36.522100 0.377365 32.039141
141.630100 36.477700 0.356829 31.651027
141.620400 36.433400 0.334857 31.246440
141.610700 36.389000 0.312761 30.822054
141.601000 36.344700 0.281816 30.380374
141.591200 36.300400 0.250212 29.922219
141.581500 36.256000 0.218918 29.442798
141.571800 36.211700 0.187656 28.948416
141.562100 36.167300 0.155626 28.437772
141.552400 36.123000 0.122767 27.916354
141.542700 36.078700 0.089690 27.385361
142.344300 39.988000 0.000000 42.423392
142.334600 39.943600 0.000000 42.365420
142.324900 39.899300 0.000000 42.313139
142.315200 39.855000 0.000000 42.265566
142.305500 39.810600 0.000000 42.221746
142.295700 39.766300 0.000000 42.185256
142.286000 39.721900 0.000000 42.149406
142.276300 39.677600 0.000000 42.117739
142.266600 39.633300 0.000000 42.089307
142.256900 39.588900 0.000000 42.063192
142.247200 39.544600 0.000000 42.040332
142.237400 39.500200 0.000000 42.021784
142.227700 39.455900 -0.000044 42.003308
142.218000 39.411500 0.005470 41.985954
142.208300 39.367200 0.013922 41.970619
142.198600 39.322900 0.015899 41.956381
142.188900 39.278500 0.022281 41.942354
142.179200 39.234200 0.044274 41.929426
142.169400 39.189800 0.064151 41.918670
142.159700 39.145500 0.083020 41.905805
142.150000 39.101100 0.112401 41.891918
142.140300 39.056800 0.151749 41.877897
142.130600 39.012500 0.191087 41.862864
142.120900 38.968100 0.230675 41.845915
142.111200 38.923800 0.267490 41.827954
142.101400 38.879400 0.299036 41.810044
142.091700 38.835100 0.331580 41.788014
142.082000 38.790800 0.365285 41.763555
142.072300 38.746400 0.399038 41.735780
142.062600 38.702100 0.432507 41.705655
142.052900 38.657700 0.466770 41.671689
142.043100 38.613400 0.496690 41.637379
142.033400 38.569000 0.521413 41.596237
142.023700 38.524700 0.547410 41.551810
142.014000 38.480400 0.574800 41.503243
142.004300 38.436000 0.602264 41.449661
141.994600 38.391700 0.629683 41.392171
141.984900 38.347300 0.652931 41.329255
141.975100 38.303000 0.670782 41.264485
141.965400 38.258600 0.690365 41.191460
141.955700 38.214300 0.719487 41.113816
141.946000 38.170000 0.725254 41.030702
141.936300 38.125600 0.732103 40.941230
141.926600 38.081300 0.733561 40.846691
141.916900 38.036900 0.734426 40.745476
141.907100 37.992600 0.735035 40.641265
141.897400 37.948300 0.731445 40.528505
141.887700 37.903900 0.727358 40.408644
141.878000 37.859600 0.721982 40.283112
141.868300 37.815200 0.712870 40.150231
141.858600 37.770900 0.704013 40.011501
141.848900 37.726500 0.693572 39.865214
141.839100 37.682200 0.679186 39.715185
141.829400 37.637900 0.665038 39.556033
141.819700 37.593500 0.652108 39.389098
141.810000 37.549200 0.640732 39.216070
141.800300 37.504800 0.628294 39.035171
141.790600 37.460500 0.613194 38.848185
141.780800 37.416100 0.596496 38.655407
141.771100 37.371800 0.580115 38.454361
141.761400 37.327500 0.563716 38.246364
141.751700 37.283100 0.546534 38.030489
141.742000 37.238800 0.528715 37.808686
141.732300 37.194400 0.509075 37.579051
141.722600 37.150100 0.491387 37.343569
141.712800 37.105700 0.474496 37.102360
141.703100 37.061400 0.462860 36.853188
141.693400 37.017100 0.450967 36.597081
141.683700 36.972700 0.438039 36.332830
141.674000 36.928400 0.428513 36.062289
141.664300 36.884000 0.421554 35.782987
141.654600 36.839700 0.414580 35.496620
141.644800 36.795400 0.407640 35.203567
141.635100 36.751000 0.401955 34.897868
141.625400 36.706700 0.396771 34.582940
141.615700 36.662300 0.390504 34.255451
141.606000 36.618000 0.380289 33.916671
141.596300 36.573600 0.370480 33.563041
141.586600 36.529300 0.357859 33.195940
141.576800 36.485000 0.336489 32.815154
141.567100 36.440600 0.315979 32.414393
141.557400 36.396300 0.291286 31.997730
141.547700 36.351900 0.262627 31.562060
141.538000 36.307600 0.231130 31.110359
141.528300 36.263200 0.199478 30.640283
141.518500 36.218900 0.167838 30.157989
141.508800 36.174600 0.134840 29.659328
141.499100 36.130200 0.101619 29.146675
141.489400 36.085900 0.068459 28.625713
142.291100 39.995200 0.000000 43.832060
142.281300 39.950900 0.000000 43.780622
142.271600 39.906500 0.000000 43.730738
142.261900 39.862200 0.000000 43.686029
142.252200 39.817800 0.000000 43.644845
142.242500 39.773500 0.000000 43.608208
142.232800 39.729200 0.000000 43.575164
142.223000 39.684800 0.000000 43.547392
142.213300 39.640500 0.000000 43.520616
142.203600 39.596100 0.000000 43.495878
142.193900 39.551800 0.000000 43.474128
142.184200 39.507500 0.000000 43.454435
142.174500 39.463100 -0.000023 43.435875
142.164800 39.418800 -0.000239 43.419366
142.155000 39.374400 0.000652 43.406000
142.145300 39.330100 0.001395 43.391413
142.135600 39.285700 0.007804 43.376727
142.125900 39.241400 0.026421 43.362851
142.116200 39.197100 0.045689 43.348868
142.106500 39.152700 0.063926 43.333856
142.096800 39.108400 0.091024 43.318725
142.087000 39.064000 0.128402 43.304593
142.077300 39.019700 0.165868 43.287145
142.067600 38.975300 0.196068 43.267484
142.057900 38.931000 0.229641 43.246556
142.048200 38.886700 0.269834 43.223471
142.038500 38.842300 0.307461 43.197337
142.028700 38.798000 0.340118 43.171731
142.019000 38.753600 0.373104 43.139958
142.009300 38.709300 0.405198 43.105625
141.999600 38.665000 0.437105 43.067858
141.989900 38.620600 0.467693 43.025772
141.980200 38.576300 0.492591 42.980455
141.970500 38.531900 0.515916 42.930370
141.960700 38.487600 0.542257 42.879158
141.951000 38.443200 0.570507 42.820225
141.941300 38.398900 0.595951 42.757274
141.931600 38.354600 0.617831 42.689444
141.921900 38.310200 0.639974 42.615848
141.912200 38.265900 0.663040 42.537728
141.902500 38.221500 0.682068 42.453491
141.892700 38.177200 0.695669 42.366867
141.883000 38.132800 0.711249 42.271364
141.873300 38.088500 0.712416 42.170778
141.863600 38.044200 0.713515 42.064238
141.853900 37.999800 0.714457 41.950837
141.844200 37.955500 0.714092 41.832008
141.834500 37.911100 0.710313 41.706059
141.824700 37.866800 0.703688 41.576833
141.815000 37.822500 0.694839 41.438746
141.805300 37.778100 0.685990 41.293225
141.795600 37.733800 0.677239 41.141867
141.785900 37.689400 0.665057 40.982909
141.776200 37.645100 0.652454 40.818016
141.766400 37.600700 0.639454 40.647665
141.756700 37.556400 0.626446 40.469060
141.747000 37.512100 0.613255 40.283583
141.737300 37.467700 0.599915 40.090310
141.727600 37.423400 0.584506 39.891040
141.717900 37.379000 0.568978 39.683931
141.708200 37.334700 0.552922 39.470944
141.698400 37.290300 0.536900 39.252376
141.688700 37.246000 0.519819 39.025846
141.679000 37.201700 0.499454 38.792626
141.669300 37.157300 0.478959 38.551731
141.659600 37.113000 0.456773 38.305206
141.649900 37.068600 0.441433 38.050986
141.640200 37.024300 0.428644 37.791091
141.630400 36.979900 0.417546 37.525415
141.620700 36.935600 0.409932 37.251657
141.611000 36.891300 0.403337 36.970596
141.601300 36.846900 0.396744 36.680722
141.591600 36.802600 0.392146 36.383742
141.581900 36.758200 0.387524 36.076735
141.572200 36.713900 0.383844 35.761198
141.562400 36.669600 0.380789 35.437185
141.552700 36.625200 0.370768 35.098326
141.543000 36.580900 0.357772 34.748114
141.533300 36.536500 0.339753 34.383051
141.523600 36.492200 0.322131 34.004729
141.513900 36.447800 0.297925 33.609694
141.504100 36.403500 0.269972 33.202075
141.494400 36.359200 0.242060 32.775984
141.484700 36.314800 0.213978 32.332109
141.475000 36.270500 0.181628 31.873782
141.465300 36.226100 0.149425 31.398808
141.455600 36.181800 0.117062 30.911458
141.445900 36.137400 0.083595 30.410176
141.436100 36.093100 0.051355 29.902468
142.228100 39.958100 0.000000 45.270171
142.218400 39.913800 0.000000 45.219712
142.208600 39.869400 0.000000 45.173845
142.198900 39.825100 0.000000 45.134226
142.189200 39.780700 0.000000 45.096584
142.179500 39.736400 0.000000 45.061924
142.169800 39.692000 0.000000 45.031256
142.160100 39.647700 0.000000 45.002957
142.150400 39.603400 0.000000 44.978001
142.140600 39.559000 0.000000 44.955415
142.130900 39.514700 0.000000 44.936949
142.121200 39.470300 0.000000 44.918192
142.111500 39.426000 0.000000 44.900248
142.101800 39.381700 0.000000 44.884053
142.092100 39.337300 0.000000 44.868660
142.082400 39.293000 0.000001 44.853139
142.072600 39.248600 0.000248 44.838441
142.062900 39.204300 0.016606 44.825689
142.053200 39.159900 0.043767 44.810450
142.043500 39.115600 0.071315 44.793850
142.033800 39.071300 0.098308 44.776841
142.024100 39.026900 0.127514 44.758521
142.014300 38.982600 0.158445 44.737972
142.004600 38.938200 0.199802 44.718831
141.994900 38.893900 0.241055 44.694217
141.985200 38.849500 0.282265 44.667804
141.975500 38.805200 0.313322 44.638062
141.965800 38.760900 0.343549 44.606025
141.956100 38.716500 0.372333 44.570802
141.946300 38.672200 0.401203 44.531489
141.936600 38.627800 0.428507 44.491784
141.926900 38.583500 0.453566 44.444919
141.917200 38.539200 0.478981 44.394647
141.907500 38.494800 0.505566 44.340093
141.897800 38.450500 0.533940 44.280365
141.888100 38.406100 0.561717 44.216667
141.878300 38.361800 0.583997 44.147414
141.868600 38.317400 0.605829 44.076395
141.858900 38.273100 0.627877 43.996933
141.849200 38.228800 0.642385 43.912875
141.839500 38.184400 0.659180 43.823353
141.829800 38.140100 0.675901 43.727462
141.820100 38.095700 0.685125 43.626588
141.810300 38.051400 0.687570 43.519071
141.800600 38.007000 0.692905 43.408791
141.790900 37.962700 0.690525 43.289164
141.781200 37.918400 0.689066 43.164137
141.771500 37.874000 0.686706 43.032813
141.761800 37.829700 0.678145 42.894267
141.752000 37.785300 0.670615 42.750088
141.742300 37.741000 0.661843 42.600868
141.732600 37.696600 0.650406 42.443525
141.722900 37.652300 0.640386 42.278634
141.713200 37.608000 0.629489 42.107919
141.703500 37.563600 0.616113 41.930461
141.693800 37.519300 0.602799 41.745323
141.684000 37.474900 0.588803 41.554334
141.674300 37.430600 0.573815 41.357916
141.664600 37.386300 0.559943 41.153377
141.654900 37.341900 0.545111 40.942074
141.645200 37.297600 0.528399 40.723097
141.635500 37.253200 0.508840 40.498459
141.625800 37.208900 0.482338 40.266221
141.616000 37.164500 0.459845 40.028454
141.606300 37.120200 0.442128 39.785368
141.596600 37.075900 0.424436 39.534657
141.586900 37.031500 0.413788 39.277506
141.577200 36.987200 0.402747 39.012813
141.567500 36.942800 0.392427 38.742641
141.557800 36.898500 0.385941 38.464675
141.548000 36.854100 0.381495 38.180887
141.538300 36.809800 0.377648 37.890859
141.528600 36.765500 0.374175 37.592105
141.518900 36.721100 0.371144 37.285092
141.509200 36.676800 0.366076 36.967952
141.499500 36.632400 0.354423 36.642258
141.489700 36.588100 0.342876 36.304739
141.480000 36.543800 0.323421 35.959061
141.470300 36.499400 0.305765 35.598849
141.460600 36.455100 0.281066 35.224016
141.450900 36.410700 0.253019 34.836367
141.441200 36.366400 0.224947 34.432552
141.431500 36.322000 0.196254 34.014969
141.421700 36.277700 0.163951 33.580753
141.412000 36.233400 0.131558 33.135231
141.402300 36.189000 0.099332 32.673169
141.392600 36.144700 0.068324 32.196051
141.382900 36.100300 0.039057 31.708261
142.174800 39.965300 0.000000 31.208300
142.165100 39.921000 0.000000 46.735342
142.155400 39.876600 0.000000 46.688040
142.145700 39.832300 0.000000 46.645797
142.136000 39.788000 0.000000 46.606904
142.126200 39.743600 0.000000 46.572384
142.116500 39.699300 0.000000 46.541239
142.106800 39.654900 0.000000 46.515209
142.097100 39.610600 0.000000 46.489847
142.087400 39.566200 0.000000 46.466233
142.077700 39.521900 0.000000 46.445331
142.068000 39.477600 0.000000 46.425544
142.058200 39.433200 0.000000 46.407837
142.048500 39.388900 0.000000 46.391244
142.038800 39.344500 0.000000 46.377551
142.029100 39.300200 0.000000 46.362228
142.019400 39.255900 -0.000304 46.346437
142.009700 39.211500 0.015564 46.331148
141.999900 39.167200 0.037072 46.315410
141.990200 39.122800 0.063864 46.298279
141.980500 39.078500 0.091289 46.283459
141.970800 39.034100 0.113408 46.263916
141.961100 38.989800 0.137568 46.243387
141.951400 38.945500 0.174924 46.220300
141.941700 38.901100 0.215711 46.195670
141.931900 38.856800 0.244472 46.168587
141.922200 38.812400 0.271316 46.138129
141.912500 38.768100 0.305754 46.108065
141.902800 38.723700 0.335357 46.071421
141.893100 38.679400 0.362554 46.032008
141.883400 38.635100 0.389097 45.988245
141.873700 38.590700 0.414158 45.941281
141.863900 38.546400 0.439213 45.890238
141.854200 38.502000 0.467622 45.834210
141.844500 38.457700 0.496349 45.777039
141.834800 38.413400 0.525164 45.711864
141.825100 38.369000 0.550060 45.642588
141.815400 38.324700 0.570853 45.568331
141.805700 38.280300 0.590336 45.488193
141.795900 38.236000 0.606886 45.403519
141.786200 38.191600 0.623575 45.312662
141.776500 38.147300 0.640306 45.219558
141.766800 38.103000 0.654547 45.117445
141.757100 38.058600 0.661276 45.010326
141.747400 38.014300 0.671123 44.897315
141.737600 37.969900 0.669391 44.777484
141.727900 37.925600 0.667877 44.652366
141.718200 37.881200 0.666365 44.522680
141.708500 37.836900 0.662261 44.385080
141.698800 37.792600 0.656180 44.240266
141.689100 37.748200 0.648344 44.089891
141.679400 37.703900 0.638536 43.933041
141.669600 37.659500 0.628526 43.768759
141.659900 37.615200 0.618456 43.598783
141.650200 37.570800 0.605990 43.423635
141.640500 37.526500 0.592378 43.240381
141.630800 37.482200 0.578464 43.049531
141.621100 37.437800 0.563865 42.852967
141.611400 37.393500 0.549523 42.649771
141.601600 37.349100 0.535727 42.438963
141.591900 37.304800 0.512746 42.222493
141.582200 37.260500 0.489949 42.000757
141.572500 37.216100 0.467359 41.771236
141.562800 37.171800 0.443987 41.535290
141.553100 37.127400 0.427928 41.291939
141.543400 37.083100 0.411521 41.043328
141.533600 37.038700 0.400381 40.787402
141.523900 36.994400 0.388841 40.526321
141.514200 36.950100 0.377215 40.260147
141.504500 36.905700 0.369845 39.986577
141.494800 36.861400 0.364163 39.706654
141.485100 36.817000 0.360534 39.419072
141.475300 36.772700 0.358654 39.125807
141.465600 36.728300 0.356754 38.824211
141.455900 36.684000 0.349667 38.518308
141.446200 36.639700 0.338780 38.200812
141.436500 36.595300 0.327937 37.875608
141.426800 36.551000 0.311380 37.540762
141.417100 36.506600 0.287165 37.194203
141.407300 36.462300 0.262451 36.837616
141.397600 36.418000 0.234962 36.467582
141.387900 36.373600 0.207301 36.088148
141.378200 36.329300 0.178957 35.693021
141.368500 36.284900 0.147125 35.282583
141.358800 36.240600 0.115501 34.859484
141.349100 36.196200 0.083819 34.420905
141.339300 36.151900 0.053636 33.970122
141.329600 36.107600 0.027944 33.504711
142.121600 39.972600 0.000000 33.031024
142.111800 39.928200 0.000000 32.544254
142.102100 39.883900 0.000000 48.222943
142.092400 39.839500 0.000000 48.180459
142.082700 39.795200 0.000000 48.144159
142.073000 39.750800 0.000000 48.109580
142.063300 39.706500 0.000000 48.077754
142.053600 39.662200 0.000000 48.049699
142.043800 39.617800 0.000000 48.023741
142.034100 39.573500 0.000000 48.000859
142.024400 39.529100 0.000000 47.980049
142.014700 39.484800 0.000000 47.963122
142.005000 39.440400 0.000000 47.945493
141.995300 39.396100 0.000000 47.928317
141.985500 39.351800 0.000000 47.912564
141.975800 39.307400 0.000000 47.896613
141.966100 39.263100 0.000788 47.881437
141.956400 39.218700 0.021531 47.868884
141.946700 39.174400 0.042498 47.852406
141.937000 39.130100 0.064744 47.835778
141.927300 39.085700 0.082728 47.817401
141.917500 39.041400 0.102736 47.798278
141.907800 38.997000 0.120893 47.777486
141.898100 38.952700 0.153587 47.754081
141.888400 38.908300 0.185853 47.731875
141.878700 38.864000 0.206204 47.703725
141.869000 38.819700 0.225736 47.673485
141.859300 38.775300 0.257859 47.639560
141.849500 38.731000 0.289337 47.603071
141.839800 38.686600 0.318880 47.563107
141.830100 38.642300 0.346656 47.518750
141.820400 38.597900 0.373657 47.473895
141.810700 38.553600 0.399017 47.421490
141.801000 38.509300 0.426138 47.365497
141.791300 38.464900 0.454353 47.304292
141.781500 38.420600 0.479851 47.239153
141.771800 38.376200 0.500217 47.169194
141.762100 38.331900 0.525163 47.093503
141.752400 38.287500 0.550388 47.016078
141.742700 38.243200 0.571122 46.929970
141.733000 38.198900 0.588824 46.839238
141.723200 38.154500 0.609448 46.742204
141.713500 38.110200 0.619917 46.640332
141.703800 38.065800 0.631815 46.532723
141.694100 38.021500 0.643689 46.421020
141.684400 37.977200 0.647829 46.301624
141.674700 37.932800 0.647043 46.175371
141.665000 37.888500 0.647745 46.043850
141.655200 37.844100 0.642402 45.906151
141.645500 37.799800 0.638216 45.761326
141.635800 37.755400 0.633769 45.611059
141.626100 37.711100 0.624286 45.455994
141.616400 37.666800 0.614966 45.292925
141.606700 37.622400 0.606277 45.122469
141.597000 37.578100 0.592612 44.946427
141.587200 37.533700 0.578067 44.763866
141.577500 37.489400 0.563598 44.573814
141.567800 37.445000 0.549183 44.378175
141.558100 37.400700 0.536603 44.177395
141.548400 37.356400 0.520540 43.968693
141.538700 37.312000 0.497357 43.752505
141.529000 37.267700 0.473966 43.530818
141.519200 37.223300 0.450885 43.302744
141.509500 37.179000 0.428150 43.067294
141.499800 37.134700 0.411635 42.826621
141.490100 37.090300 0.395956 42.580997
141.480400 37.046000 0.384120 42.328018
141.470700 37.001600 0.372717 42.069007
141.460900 36.957300 0.362455 41.802912
141.451200 36.912900 0.356334 41.531950
141.441500 36.868600 0.349996 41.253908
141.431800 36.824300 0.344834 40.973204
141.422100 36.779900 0.342920 40.682953
141.412400 36.735600 0.339716 40.387488
141.402700 36.691200 0.334946 40.085387
141.392900 36.646900 0.323890 39.775076
141.383200 36.602500 0.312572 39.458444
141.373500 36.558200 0.287912 39.132513
141.363800 36.513900 0.262942 38.801286
141.354100 36.469500 0.237975 38.457135
141.344400 36.425200 0.212714 38.104019
141.334700 36.380800 0.185114 37.739926
141.324900 36.336500 0.157682 37.362797
141.315200 36.292200 0.129785 36.974689
141.305500 36.247800 0.099027 36.572444
141.295800 36.203500 0.067998 36.160841
141.286100 36.159100 0.040116 35.733879
141.276400 36.114800 0.012223 35.292399
142.068300 39.979800 0.000000 34.839724
142.058600 39.935400 0.000000 34.373524
142.048900 39.891100 0.000000 33.897767
142.039200 39.846800 0.000000 49.738610
142.029400 39.802400 0.000000 49.700546
142.019700 39.758100 0.000000 49.665665
142.010000 39.713700 0.000000 49.634973
142.000300 39.669400 0.000000 49.607430
141.990600 39.625000 0.000000 49.584827
141.980900 39.580700 0.000000 49.562533
141.971100 39.536400 0.000000 49.541664
141.961400 39.492000 0.000000 49.523206
141.951700 39.447700 0.000000 49.505502
141.942000 39.403300 0.000000 49.489537
141.932300 39.359000 0.000000 49.477165
141.922600 39.314600 0.000000 49.461718
141.912900 39.270300 0.000020 49.447016
141.903100 39.226000 0.005330 49.431428
141.893400 39.181600 0.025436 49.415965
141.883700 39.137300 0.025307 49.398996
141.874000 39.092900 0.032003 49.381533
141.864300 39.048600 0.062735 49.365459
141.854600 39.004300 0.100436 49.344136
141.844900 38.959900 0.123611 49.321465
141.835100 38.915600 0.148067 49.295826
141.825400 38.871200 0.169990 49.268303
141.815700 38.826900 0.185949 49.237962
141.806000 38.782500 0.206889 49.203863
141.796300 38.738200 0.239780 49.169951
141.786600 38.693900 0.271904 49.128995
141.776900 38.649500 0.301567 49.084990
141.767100 38.605200 0.328375 49.036307
141.757400 38.560800 0.355834 48.984182
141.747700 38.516500 0.381441 48.927710
141.738000 38.472100 0.405994 48.865977
141.728300 38.427800 0.429350 48.803027
141.718600 38.383500 0.453734 48.731719
141.708800 38.339100 0.478228 48.656171
141.699100 38.294800 0.502639 48.574705
141.689400 38.250400 0.529596 48.488745
141.679700 38.206100 0.548655 48.397397
141.670000 38.161700 0.573770 48.302402
141.660300 38.117400 0.590294 48.199928
141.650600 38.073100 0.602331 48.090923
141.640800 38.028700 0.614366 47.976930
141.631100 37.984400 0.622943 47.856207
141.621400 37.940000 0.624739 47.730358
141.611700 37.895700 0.628241 47.598479
141.602000 37.851400 0.623771 47.462181
141.592300 37.807000 0.619601 47.318000
141.582600 37.762700 0.615396 47.166694
141.572800 37.718300 0.610299 47.010012
141.563100 37.674000 0.603061 46.847016
141.553400 37.629600 0.593055 46.676732
141.543700 37.585300 0.579056 46.500985
141.534000 37.541000 0.565164 46.320338
141.524300 37.496600 0.551014 46.131732
141.514600 37.452300 0.537431 45.935720
141.504800 37.407900 0.523954 45.734263
141.495100 37.363600 0.509001 45.526396
141.485400 37.319200 0.486565 45.311133
141.475700 37.274900 0.463336 45.090549
141.466000 37.230600 0.439919 44.864967
141.456300 37.186200 0.418709 44.631783
141.446500 37.141900 0.401537 44.391368
141.436800 37.097500 0.385127 44.145924
141.427100 37.053200 0.370851 43.894486
141.417400 37.008900 0.361418 43.636047
141.407700 36.964500 0.351281 43.375204
141.398000 36.920200 0.344413 43.105159
141.388300 36.875800 0.337428 42.830534
141.378500 36.831500 0.330217 42.550243
141.368800 36.787100 0.326798 42.263114
141.359100 36.742800 0.324051 41.971367
141.349400 36.698500 0.315349 41.672538
141.339700 36.654100 0.305492 41.371030
141.330000 36.609800 0.291941 41.059616
141.320300 36.565400 0.266157 40.742582
141.310500 36.521100 0.241355 40.418254
141.300800 36.476700 0.216609 40.084812
141.291100 36.432400 0.191072 39.744090
141.281400 36.388100 0.163530 39.392874
141.271700 36.343700 0.135935 39.035315
141.262000 36.299400 0.107823 38.663565
141.252300 36.255000 0.076669 38.281953
141.242500 36.210700 0.046799 37.888674
141.232800 36.166400 0.017552 37.481904
141.223100 36.122000 -0.000337 37.064219
142.015000 39.987000 0.000000 36.632615
142.005300 39.942700 0.000000 36.192531
141.995600 39.898300 0.000000 35.738225
141.985900 39.854000 0.000000 35.270943
141.976200 39.809600 0.000000 51.276435
141.966500 39.765300 0.000000 51.245887
141.956700 39.721000 0.000000 51.216121
141.947000 39.676600 0.000000 51.188899
141.937300 39.632300 0.000000 51.165211
141.927600 39.587900 0.000000 51.143331
141.917900 39.543600 0.000000 51.124245
141.908200 39.499200 0.000000 51.109789
141.898500 39.454900 0.000000 51.093203
141.888700 39.410600 0.000000 51.078347
141.879000 39.366200 0.000000 51.063548
141.869300 39.321900 0.000000 51.049797
141.859600 39.277500 0.000000 51.035432
141.849900 39.233200 0.000000 51.021450
141.840200 39.188800 -0.000207 51.009767
141.830500 39.144500 0.000000 50.993610
141.820700 39.100200 0.001046 50.976905
141.811000 39.055800 0.035137 50.958003
141.801300 39.011500 0.091846 50.937959
141.791600 38.967100 0.108758 50.915137
141.781900 38.922800 0.115031 50.890628
141.772200 38.878500 0.124970 50.866361
141.762500 38.834100 0.139130 50.835617
141.752700 38.789800 0.155365 50.802419
141.743000 38.745400 0.182244 50.765124
141.733300 38.701100 0.214054 50.724930
141.723600 38.656700 0.247882 50.680912
141.713900 38.612400 0.281715 50.632130
141.704200 38.568100 0.308628 50.582672
141.694400 38.523700 0.330518 50.525221
141.684700 38.479400 0.352689 50.463925
141.675000 38.435000 0.374909 50.397118
141.665300 38.390700 0.399223 50.326165
141.655600 38.346300 0.425594 50.250171
141.645900 38.302000 0.453048 50.170968
141.636200 38.257700 0.481581 50.084477
141.626400 38.213300 0.507297 49.991760
141.616700 38.169000 0.533923 49.894326
141.607000 38.124600 0.558864 49.790446
141.597300 38.080300 0.571576 49.681682
141.587600 38.035900 0.584067 49.567129
141.577900 37.991600 0.588703 49.448516
141.568200 37.947300 0.594992 49.322134
141.558400 37.902900 0.601165 49.188871
141.548700 37.858600 0.602330 49.050430
141.539000 37.814200 0.598794 48.904970
141.529300 37.769900 0.598208 48.754247
141.519600 37.725600 0.591861 48.597325
141.509900 37.681200 0.586391 48.435806
141.500200 37.636900 0.581136 48.266365
141.490400 37.592500 0.568279 48.089668
141.480700 37.548200 0.553977 47.907608
141.471000 37.503800 0.539068 47.719228
141.461300 37.459500 0.524877 47.523531
141.451600 37.415200 0.510804 47.322505
141.441900 37.370800 0.496275 47.116639
141.432100 37.326500 0.475867 46.903004
141.422400 37.282100 0.452409 46.682087
141.412700 37.237800 0.429345 46.456017
141.403000 37.193400 0.411442 46.223773
141.393300 37.149100 0.395947 45.984371
141.383600 37.104800 0.380255 45.742448
141.373900 37.060400 0.364854 45.491106
141.364100 37.016100 0.354444 45.235048
141.354400 36.971700 0.343720 44.972176
141.344700 36.927400 0.334714 44.704815
141.335000 36.883100 0.324639 44.431945
141.325300 36.838700 0.318637 44.152500
141.315600 36.794400 0.314143 43.871169
141.305900 36.750000 0.307465 43.580963
141.296100 36.705700 0.294685 43.286537
141.286400 36.661300 0.283209 42.986639
141.276700 36.617000 0.272750 42.679914
141.267000 36.572700 0.247261 42.368533
141.257300 36.528300 0.221640 42.049757
141.247600 36.484000 0.196171 41.727930
141.237900 36.439600 0.169044 41.395442
141.228100 36.395300 0.140682 41.056553
141.218400 36.350900 0.112331 40.709405
141.208700 36.306600 0.084552 40.352025
141.199000 36.262300 0.055071 39.986369
141.189300 36.217900 0.035136 39.609158
141.179600 36.173600 0.016239 39.224880
141.169800 36.129200 -0.000432 38.825611
141.961800 39.994200 0.000000 38.416087
141.952100 39.949900 0.000000 37.994643
141.942300 39.905500 0.000000 37.559704
141.932600 39.861200 0.000000 37.114368
141.922900 39.816900 0.000000 36.658187
141.913200 39.772500 0.000000 52.842365
141.903500 39.728200 0.000000 52.813257
141.893800 39.683800 0.000000 52.788177
141.884100 39.639500 0.000000 52.768241
141.874300 39.595200 0.000000 52.748643
141.864600 39.550800 0.000000 52.731202
141.854900 39.506500 0.000000 52.714871
141.845200 39.462100 0.000000 52.700628
141.835500 39.417800 0.000000 52.686764
141.825800 39.373400 0.000000 52.674271
141.816100 39.329100 0.000000 52.665067
141.806300 39.284800 0.000000 52.652263
141.796600 39.240400 0.000000 52.639800
141.786900 39.196100 0.000000 52.625996
141.777200 39.151700 0.000000 52.611883
141.767500 39.107400 0.000001 52.595800
141.757800 39.063000 0.021638 52.578796
141.748100 39.018700 0.064363 52.562834
141.738300 38.974400 0.078870 52.541049
