144.530800 39.565300 0.699611 10.556884
144.442400 39.351300 0.695926 10.311284
144.354100 39.137300 0.756174 9.987253
144.265700 38.923400 0.816212 9.866675
144.177400 38.709400 0.864097 9.928013
144.089000 38.495400 0.902927 10.045603
144.000700 38.281500 0.937910 9.766104
143.912300 38.067500 0.925877 10.175653
143.824000 37.853500 0.910233 10.606757
143.735600 37.639500 0.923265 11.044355
143.647300 37.425600 0.932725 11.387479
143.558900 37.211600 0.931119 11.672377
143.470600 36.997600 0.890847 11.877593
143.382200 36.783700 0.896571 12.030392
143.293900 36.569700 0.906112 12.569983
143.205600 36.355700 0.914598 12.955083
143.117200 36.141800 0.921511 12.738440
143.028900 35.927800 0.929996 12.664496
142.940500 35.713800 0.938481 12.368556
144.316500 39.620100 0.648899 10.678292
144.228200 39.406100 0.633631 10.311284
144.139800 39.192100 0.631683 10.134808
144.051500 38.978100 0.672230 10.423112
143.963200 38.764200 0.739754 10.788633
143.874800 38.550200 0.813638 11.243020
143.786500 38.336200 0.880325 11.743386
143.698100 38.122300 0.932306 12.250890
143.609800 37.908300 0.968567 12.729924
143.521400 37.694300 0.974291 13.152754
143.433100 37.480400 0.956677 13.487670
143.344700 37.266400 0.921555 13.707657
143.256400 37.052400 0.872863 13.787710
143.168000 36.838400 0.815683 13.707519
143.079700 36.624500 0.834301 13.427188
142.991300 36.410500 0.855636 13.039475
142.903000 36.196500 0.877040 12.716955
142.814600 35.982600 0.898286 12.486506
142.726300 35.768600 0.919936 12.100394
144.102300 39.674800 0.645176 11.726916
144.014000 39.460900 0.608406 11.969703
143.925600 39.246900 0.606915 12.231332
143.837300 39.032900 0.640147 12.574485
143.748900 38.818900 0.710967 13.013325
143.660600 38.605000 0.791836 13.519612
143.572200 38.391000 0.866504 14.057368
143.483900 38.177000 0.924452 14.590865
143.395500 37.963100 0.963304 15.092848
143.307200 37.749100 0.966879 15.530452
143.218900 37.535100 0.945541 15.872972
143.130500 37.321200 0.906302 16.091006
143.042200 37.107200 0.858629 16.156079
142.953800 36.893200 0.794729 16.048275
142.865500 36.679200 0.731852 15.725252
142.777100 36.465300 0.665568 15.099367
142.688800 36.251300 0.570548 14.056157
142.600400 36.037300 0.548554 12.711945
142.512100 35.823400 0.545634 11.449015
143.888100 39.729600 0.632871 14.043301
143.799800 39.515600 0.573534 14.329273
143.711400 39.301700 0.560001 14.654289
143.623100 39.087700 0.589419 15.058086
143.534700 38.873700 0.661025 15.544050
143.446400 38.659800 0.750798 16.087200
143.358000 38.445800 0.836218 16.660636
143.269700 38.231800 0.913809 17.233114
143.181300 38.017800 0.948829 17.775612
143.093000 37.803900 0.947290 18.250383
143.004600 37.589900 0.924267 18.621703
142.916300 37.375900 0.884176 18.852267
142.827900 37.162000 0.825190 18.917420
142.739600 36.948000 0.761527 18.792925
142.651200 36.734000 0.706565 18.449089
142.562900 36.520000 0.637530 17.801574
142.474600 36.306100 0.550676 16.726230
142.386200 36.092100 0.426828 15.191812
142.297900 35.878100 0.312879 13.443417
143.673900 39.784400 0.588812 16.712857
143.585500 39.570400 0.525177 17.020612
143.497200 39.356400 0.498214 17.391964
143.408800 39.142500 0.515760 17.851076
143.320500 38.928500 0.582694 18.389312
143.232100 38.714500 0.681512 18.989759
143.143800 38.500600 0.800743 19.623313
143.055500 38.286600 0.888808 20.258749
142.967100 38.072600 0.926505 20.860222
142.878800 37.858600 0.927101 21.383167
142.790400 37.644700 0.897430 21.789155
142.702100 37.430700 0.848816 22.037677
142.613700 37.216700 0.770328 22.104846
142.525400 37.002800 0.715804 21.971668
142.437000 36.788800 0.667193 21.616962
142.348700 36.574800 0.599708 20.969616
142.260300 36.360800 0.517391 19.896848
142.172000 36.146900 0.396886 18.309505
142.083600 35.932900 0.279208 16.393482
143.459700 39.839200 0.535625 19.750472
143.371300 39.625200 0.463299 20.077642
143.283000 39.411200 0.420122 20.501141
143.194600 39.197200 0.409271 21.027315
143.106300 38.983300 0.483333 21.641006
143.017900 38.769300 0.598314 22.321350
142.929600 38.555300 0.738745 23.034084
142.841200 38.341400 0.851845 23.744360
142.752900 38.127400 0.895407 24.404915
142.664500 37.913400 0.897693 24.974387
142.576200 37.699400 0.866688 25.406971
142.487900 37.485500 0.797899 25.669674
142.399500 37.271500 0.719325 25.738875
142.311200 37.057500 0.650911 25.599915
142.222800 36.843600 0.600684 25.243858
142.134500 36.629600 0.543223 24.611587
142.046100 36.415600 0.468618 23.574777
141.957800 36.201700 0.347779 22.009932
141.869400 35.987700 0.220337 20.049731
143.245400 39.893900 0.474373 23.219614
143.157100 39.680000 0.394220 23.585326
143.068800 39.466000 0.336519 24.077291
142.980400 39.252000 0.322477 24.687102
142.892100 39.038000 0.399790 25.390018
142.803700 38.824100 0.529633 26.159317
142.715400 38.610100 0.680533 26.952141
142.627000 38.396100 0.799748 27.728384
142.538700 38.182200 0.862858 28.438286
142.450300 37.968200 0.867105 29.039546
142.362000 37.754200 0.834802 29.488798
142.273600 37.540200 0.755090 29.758483
142.185300 37.326300 0.672659 29.826251
142.096900 37.112300 0.599532 29.687467
142.008600 36.898300 0.530138 29.335165
141.920200 36.684400 0.483119 28.738003
141.831900 36.470400 0.428061 27.783634
141.743600 36.256400 0.297477 26.360068
141.655200 36.042500 0.129180 24.559308
143.031200 39.948700 0.406701 27.183440
142.942900 39.734700 0.315923 27.613506
142.854500 39.520800 0.242677 28.192077
142.766200 39.306800 0.224770 28.892781
142.677800 39.092800 0.306523 29.689729
142.589500 38.878800 0.443359 30.540359
142.501100 38.664900 0.606575 31.404343
142.412800 38.450900 0.740856 32.228715
142.324500 38.236900 0.814776 32.969004
142.236100 38.023000 0.829245 33.585318
142.147800 37.809000 0.796384 34.037105
142.059400 37.595000 0.722527 34.303497
141.971100 37.381100 0.642684 34.367433
141.882700 37.167100 0.545664 34.229546
141.794400 36.953100 0.473765 33.891039
141.706000 36.739100 0.425664 33.342051
141.617700 36.525200 0.369289 32.517619
141.529300 36.311200 0.229885 31.343782
141.441000 36.097200 0.055584 29.861937
142.728700 39.789500 0.246478 31.675717
142.640300 39.575500 0.156535 32.192441
142.552000 39.361600 0.115176 32.866847
142.463600 39.147600 0.170860 33.664329
142.375300 38.933600 0.329200 34.549430
142.286900 38.719600 0.493362 35.472591
142.198600 38.505700 0.640259 36.388904
142.110200 38.291700 0.738996 37.245010
142.021900 38.077700 0.765600 37.999325
141.933500 37.863800 0.740594 38.609952
141.845200 37.649800 0.673031 39.053485
141.756800 37.435800 0.595815 39.305164
141.668500 37.221900 0.505344 39.362216
141.580200 37.007900 0.407683 39.224124
141.491800 36.793900 0.363014 38.902922
141.403500 36.579900 0.312674 38.408746
141.315100 36.366000 0.168102 37.719849
141.226800 36.152000 0.007865 36.806355
142.514400 39.844300 0.137770 35.655507
142.426100 39.630300 0.006894 36.689540
142.337800 39.416300 0.013352 37.315268
142.249400 39.202400 0.075654 38.094342
142.161100 38.988400 0.223166 38.990052
142.072700 38.774400 0.376060 39.959019
141.984400 38.560500 0.504681 40.943945
141.896000 38.346500 0.603153 41.898378
141.807700 38.132500 0.666510 42.769496
141.719300 37.918500 0.664827 43.520011
141.631000 37.704600 0.624668 44.113964
141.542600 37.490600 0.553914 44.534858
141.454300 37.276600 0.458291 44.766894
141.365900 37.062700 0.364180 44.810806
141.277600 36.848700 0.306947 44.669979
141.189200 36.634700 0.238961 44.367543
141.100900 36.420700 0.101037 43.918264
141.012500 36.206800 0.000000 43.339590
