132.111500 31.880900 0.166389 0.010000
132.096000 31.858100 0.136794 0.010000
132.080500 31.835400 0.136794 0.010000
132.065100 31.812600 0.114737 0.010000
132.049600 31.789900 0.114737 0.010000
132.034100 31.767100 0.114737 0.010000
132.018700 31.744300 0.114737 0.010000
132.003200 31.721600 0.101028 0.010000
131.987700 31.698800 0.101028 0.010000
131.972300 31.676100 0.101028 0.010000
131.956800 31.653300 0.000000 0.010000
132.085300 31.893700 0.166389 0.617100
132.069800 31.871000 0.136794 0.617100
132.054300 31.848200 0.136794 0.617100
132.038900 31.825500 0.136794 0.617100
132.023400 31.802700 0.114737 0.617100
132.007900 31.780000 0.114737 0.617100
131.992500 31.757200 0.114737 0.617100
131.977000 31.734400 0.101028 0.617100
131.961500 31.711700 0.101028 0.617100
131.946100 31.688900 0.101028 0.617100
131.930600 31.666200 0.101028 0.617100
132.059100 31.906600 0.166389 1.224200
132.043600 31.883800 0.136794 1.224200
132.028100 31.861100 0.136794 1.224200
132.012700 31.838300 0.136794 1.224200
131.997200 31.815600 0.136794 1.224200
131.981700 31.792800 0.114737 1.224200
131.966300 31.770100 0.101028 1.224200
131.950800 31.747300 0.101028 1.224200
131.935300 31.724500 0.101028 1.224200
131.919900 31.701800 0.101028 1.224200
131.904400 31.679000 0.101028 1.224200
132.032900 31.919400 0.136794 1.831300
132.017400 31.896700 0.136794 1.831300
132.001900 31.873900 0.136794 1.831300
131.986500 31.851200 0.136794 1.831300
131.971000 31.828400 0.136794 1.831300
131.955500 31.805700 0.152484 1.831300
131.940100 31.782900 0.101028 1.831300
131.924600 31.760100 0.101028 1.831300
131.909100 31.737400 0.101028 1.831300
131.893700 31.714600 0.114286 1.831300
131.878200 31.691900 0.114286 1.831300
132.006700 31.932300 0.136794 2.438400
131.991200 31.909500 0.136794 2.438400
131.975700 31.886800 0.136794 2.438400
131.960300 31.864000 0.152484 2.438400
131.944800 31.841300 0.152484 2.438400
131.929300 31.818500 0.152484 2.438400
131.913900 31.795800 0.152484 2.438400
131.898400 31.773000 0.114286 2.438400
131.882900 31.750200 0.114286 2.438400
131.867500 31.727500 0.114286 2.438400
131.852000 31.704700 0.114286 2.438400
131.980500 31.945200 0.189964 3.045500
131.965000 31.922400 0.152484 3.045500
131.949500 31.899600 0.152484 3.045500
131.934100 31.876900 0.152484 3.045500
131.918600 31.854100 0.152484 3.045500
131.903100 31.831400 0.152484 3.045500
131.887700 31.808600 0.132424 3.045500
131.872200 31.785800 0.132424 3.045500
131.856700 31.763100 0.114286 3.045500
131.841300 31.740300 0.114286 3.045500
131.825800 31.717600 0.114286 3.045500
131.954300 31.958000 0.189964 3.652600
131.938800 31.935200 0.169346 3.652600
131.923300 31.912500 0.152484 3.652600
131.907900 31.889700 0.152484 3.652600
131.892400 31.867000 0.152484 3.652600
131.876900 31.844200 0.152484 3.652600
131.861500 31.821500 0.132424 3.652600
131.846000 31.798700 0.132424 3.652600
131.830500 31.775900 0.132424 3.652600
131.815100 31.753200 0.114286 3.652600
131.799600 31.730400 0.114286 3.652600
131.928100 31.970900 0.189964 4.259700
131.912600 31.948100 0.169346 4.259700
131.897100 31.925300 0.169346 4.259700
131.881700 31.902600 0.152484 4.259700
131.866200 31.879800 0.152484 4.259700
131.850700 31.857100 0.132424 4.259700
131.835300 31.834300 0.132424 4.259700
131.819800 31.811600 0.132424 4.259700
131.804300 31.788800 0.132424 4.259700
131.788900 31.766000 0.132424 4.259700
131.773400 31.743300 0.000000 4.259700
131.901800 31.983700 0.169346 4.866800
131.886400 31.960900 0.169346 4.866800
131.870900 31.938200 0.169346 4.866800
131.855500 31.915400 0.169346 4.866800
131.840000 31.892700 0.169346 4.866800
131.824500 31.869900 0.132424 4.866800
131.809100 31.847200 0.132424 4.866800
131.793600 31.824400 0.132424 4.866800
131.778100 31.801600 0.132424 4.866800
131.762700 31.778900 0.132424 4.866800
131.747200 31.756100 0.141166 4.866800
131.875600 31.996600 0.169346 5.473900
131.860200 31.973800 0.169346 5.473900
131.844700 31.951000 0.169346 5.473900
131.829300 31.928300 0.169346 5.473900
131.813800 31.905500 0.169346 5.473900
131.798300 31.882800 0.132424 5.473900
131.782900 31.860000 0.132424 5.473900
131.767400 31.837300 0.141166 5.473900
131.751900 31.814500 0.141166 5.473900
131.736500 31.791700 0.141166 5.473900
131.721000 31.769000 0.141166 5.473900
131.849400 32.009400 0.169346 6.081000
131.834000 31.986700 0.169346 6.081000
131.818500 31.963900 0.167912 6.081000
131.803000 31.941100 0.167912 6.081000
131.787600 31.918400 0.167912 6.081000
131.772100 31.895600 0.167912 6.081000
131.756700 31.872900 0.141166 6.081000
131.741200 31.850100 0.141166 6.081000
131.725700 31.827400 0.141166 6.081000
131.710300 31.804600 0.141166 6.081000
131.694800 31.781800 0.141166 6.081000
