144.259700 39.732500 0.000027 4.898700
144.171100 39.518500 0.000014 4.898700
144.082500 39.304600 0.000287 4.898700
143.993900 39.090600 0.003134 4.898700
143.905300 38.876600 0.003105 4.898700
143.816700 38.662700 0.002519 4.898700
143.728000 38.448700 0.002509 4.898700
143.639400 38.234700 0.007111 4.898700
143.550800 38.020700 0.009402 4.898700
143.462200 37.806800 0.011995 4.898700
143.373600 37.592800 0.006188 4.898700
143.284900 37.378800 0.006082 4.898700
143.196300 37.164900 0.005347 4.898700
143.107700 36.950900 0.005839 4.898700
143.019100 36.736900 0.000533 4.898700
142.930500 36.523000 0.000000 4.898700
142.841900 36.309000 0.000002 4.898700
142.753200 36.095000 0.000012 4.898700
142.664600 35.881000 0.000002 4.898700
142.576000 35.667100 0.000029 4.898700
144.044900 39.787300 0.009911 8.371700
143.956200 39.573300 0.014029 8.371700
143.867600 39.359300 0.023469 8.371700
143.779000 39.145400 0.018561 8.371700
143.690400 38.931400 0.027476 8.371700
143.601800 38.717400 0.027134 8.371700
143.513200 38.503500 0.035694 8.371700
143.424500 38.289500 0.055304 8.371700
143.335900 38.075500 0.057758 8.371700
143.247300 37.861500 0.061542 8.371700
143.158700 37.647600 0.044435 8.371700
143.070100 37.433600 0.047314 8.371700
142.981500 37.219600 0.052020 8.371700
142.892800 37.005700 0.056021 8.371700
142.804200 36.791700 0.038585 8.371700
142.715600 36.577700 0.011674 8.371700
142.627000 36.363800 0.013431 8.371700
142.538400 36.149800 0.002103 8.371700
142.449800 35.935800 0.000002 8.371700
142.361100 35.721800 0.001276 8.371700
143.830000 39.842100 0.049967 11.844600
143.741400 39.628100 0.059926 11.844600
143.652800 39.414100 0.053033 11.844600
143.564100 39.200100 0.060470 11.844600
143.475500 38.986200 0.092418 11.844600
143.386900 38.772200 0.071550 11.844600
143.298300 38.558200 0.082932 11.844600
143.209700 38.344300 0.107757 11.844600
143.121100 38.130300 0.133314 11.844600
143.032400 37.916300 0.123070 11.844600
142.943800 37.702400 0.125633 11.844600
142.855200 37.488400 0.117570 11.844600
142.766600 37.274400 0.118947 11.844600
142.678000 37.060400 0.100305 11.844600
142.589400 36.846500 0.102088 11.844600
142.500700 36.632500 0.069146 11.844600
142.412100 36.418500 0.071964 11.844600
142.323500 36.204600 0.033286 11.844600
142.234900 35.990600 0.028494 11.844600
142.146300 35.776600 0.028466 11.844600
143.615100 39.896800 0.108240 15.317600
143.526500 39.682900 0.111058 15.317600
143.437900 39.468900 0.104306 15.317600
143.349300 39.254900 0.136751 15.317600
143.260600 39.040900 0.139829 15.317600
143.172000 38.827000 0.157137 15.317600
143.083400 38.613000 0.173985 15.317600
142.994800 38.399000 0.209068 15.317600
142.906200 38.185100 0.189912 15.317600
142.817600 37.971100 0.203966 15.317600
142.728900 37.757100 0.219559 15.317600
142.640300 37.543200 0.193645 15.317600
142.551700 37.329200 0.193757 15.317600
142.463100 37.115200 0.193197 15.317600
142.374500 36.901200 0.186970 15.317600
142.285900 36.687300 0.122520 15.317600
142.197200 36.473300 0.121822 15.317600
142.108600 36.259300 0.131226 15.317600
142.020000 36.045400 0.119504 15.317600
141.931400 35.831400 0.074491 15.317600
143.400200 39.951600 0.160525 18.790600
143.311600 39.737600 0.163778 18.790600
143.223000 39.523700 0.178784 18.790600
143.134400 39.309700 0.196765 18.790600
143.045800 39.095700 0.218017 18.790600
142.957200 38.881800 0.238821 18.790600
142.868500 38.667800 0.278094 18.790600
142.779900 38.453800 0.292480 18.790600
142.691300 38.239800 0.311954 18.790600
142.602700 38.025900 0.331090 18.790600
142.514100 37.811900 0.292546 18.790600
142.425500 37.597900 0.281289 18.790600
142.336800 37.384000 0.266242 18.790600
142.248200 37.170000 0.288185 18.790600
142.159600 36.956000 0.273946 18.790600
142.071000 36.742000 0.256269 18.790600
141.982400 36.528100 0.218178 18.790600
141.893800 36.314100 0.210893 18.790600
141.805100 36.100100 0.180710 18.790600
141.716500 35.886200 0.157853 18.790600
143.185400 40.006400 0.250560 22.263500
143.096800 39.792400 0.259348 22.263500
143.008100 39.578400 0.298934 22.263500
142.919500 39.364500 0.273357 22.263500
142.830900 39.150500 0.300108 22.263500
142.742300 38.936500 0.304141 22.263500
142.653700 38.722600 0.337343 22.263500
142.565100 38.508600 0.379024 22.263500
142.476400 38.294600 0.421926 22.263500
142.387800 38.080600 0.390329 22.263500
142.299200 37.866700 0.369384 22.263500
142.210600 37.652700 0.341726 22.263500
142.122000 37.438700 0.357434 22.263500
142.033400 37.224800 0.352436 22.263500
141.944700 37.010800 0.316202 22.263500
141.856100 36.796800 0.287194 22.263500
141.767500 36.582800 0.271045 22.263500
141.678900 36.368900 0.270995 22.263500
141.590300 36.154900 0.245450 22.263500
141.501700 35.940900 0.187552 22.263500
142.970500 40.061200 0.300613 25.736500
142.881900 39.847200 0.330825 25.736500
142.793300 39.633200 0.378635 25.736500
142.704600 39.419200 0.386105 25.736500
142.616000 39.205300 0.394399 25.736500
142.527400 38.991300 0.398739 25.736500
142.438800 38.777300 0.415291 25.736500
142.350200 38.563400 0.461311 25.736500
142.261600 38.349400 0.499764 25.736500
142.172900 38.135400 0.499812 25.736500
142.084300 37.921400 0.438645 25.736500
141.995700 37.707500 0.368062 25.736500
141.907100 37.493500 0.373064 25.736500
141.818500 37.279500 0.370536 25.736500
141.729900 37.065600 0.336963 25.736500
141.641200 36.851600 0.274348 25.736500
141.552600 36.637600 0.261607 25.736500
141.464000 36.423700 0.268391 25.736500
141.375400 36.209700 0.257864 25.736500
141.286800 35.995700 0.195108 25.736500
142.755600 40.115900 0.400254 29.209500
142.667000 39.902000 0.407146 29.209500
142.578400 39.688000 0.424079 29.209500
142.489800 39.474000 0.438627 29.209500
142.401200 39.260000 0.439028 29.209500
142.312500 39.046100 0.447267 29.209500
142.223900 38.832100 0.449836 29.209500
142.135300 38.618100 0.522561 29.209500
142.046700 38.404200 0.578574 29.209500
141.958100 38.190200 0.588081 29.209500
141.869500 37.976200 0.449568 29.209500
141.780800 37.762200 0.338106 29.209500
141.692200 37.548300 0.332133 29.209500
141.603600 37.334300 0.336069 29.209500
141.515000 37.120300 0.252988 29.209500
141.426400 36.906400 0.202815 29.209500
141.337800 36.692400 0.206976 29.209500
141.249100 36.478400 0.210049 29.209500
141.160500 36.264500 0.201265 29.209500
141.071900 36.050500 0.141645 29.209500
142.540800 40.170700 0.408415 32.682400
142.452100 39.956700 0.414985 32.682400
142.363500 39.742800 0.425119 32.682400
142.274900 39.528800 0.443361 32.682400
142.186300 39.314800 0.443188 32.682400
142.097700 39.100800 0.451316 32.682400
142.009100 38.886900 0.450643 32.682400
141.920400 38.672900 0.497481 32.682400
141.831800 38.458900 0.594459 32.682400
141.743200 38.245000 0.574695 32.682400
141.654600 38.031000 0.445673 32.682400
141.566000 37.817000 0.318548 32.682400
141.477400 37.603100 0.232372 32.682400
141.388700 37.389100 0.250601 32.682400
141.300100 37.175100 0.161747 32.682400
141.211500 36.961100 0.051888 32.682400
141.122900 36.747200 0.034654 32.682400
141.034300 36.533200 0.076163 32.682400
140.945700 36.319200 0.060239 32.682400
140.857000 36.105300 0.000000 32.682400
142.325900 40.225500 0.378130 36.155400
142.237300 40.011500 0.357364 36.155400
142.148600 39.797500 0.350356 36.155400
142.060000 39.583600 0.353028 36.155400
141.971400 39.369600 0.332927 36.155400
141.882800 39.155600 0.333070 36.155400
141.794200 38.941600 0.354874 36.155400
141.705600 38.727700 0.411724 36.155400
141.616900 38.513700 0.481988 36.155400
141.528300 38.299700 0.496104 36.155400
141.439700 38.085800 0.460052 36.155400
141.351100 37.871800 0.283187 36.155400
141.262500 37.657800 0.186824 36.155400
141.173900 37.443900 0.178552 36.155400
141.085200 37.229900 0.147954 36.155400
140.996600 37.015900 0.000000 36.155400
140.908000 36.801900 0.000000 36.155400
140.819400 36.588000 0.000000 36.155400
140.730800 36.374000 0.000000 36.155400
140.642200 36.160000 0.000000 36.155400
