144.363700 39.286400 0.000005 5.367100
144.302200 39.117400 0.000000 5.367100
144.240700 38.948400 0.000000 5.367100
144.179200 38.779400 0.000000 5.367100
144.117700 38.610400 0.000016 5.367100
144.056200 38.441300 0.000000 5.367100
143.994600 38.272300 0.000000 5.367100
143.933100 38.103300 0.000000 5.367100
143.871600 37.934300 0.000000 5.367100
143.810100 37.765300 0.000029 5.367100
143.748600 37.596300 0.000012 5.367100
143.687100 37.427200 0.000010 5.367100
143.625500 37.258200 0.000000 5.367100
143.564000 37.089200 0.000038 5.367100
143.502500 36.920200 0.000038 5.367100
143.441000 36.751200 0.000000 5.367100
143.379500 36.582200 0.000017 5.367100
143.318000 36.413100 0.000000 5.367100
143.256400 36.244100 0.000000 5.367100
143.194900 36.075100 0.000002 5.367100
143.133400 35.906100 0.000022 5.367100
143.071900 35.737100 0.000022 5.367100
143.010400 35.568100 0.000029 5.367100
142.948800 35.399000 0.000008 5.367100
142.887300 35.230000 0.000021 5.367100
144.194700 39.348000 0.000014 9.525300
144.133200 39.178900 0.000000 9.525300
144.071700 39.009900 0.000000 9.525300
144.010200 38.840900 0.000303 9.525300
143.948700 38.671900 0.000327 9.525300
143.887100 38.502900 0.000000 9.525300
143.825600 38.333800 0.000460 9.525300
143.764100 38.164800 0.000852 9.525300
143.702600 37.995800 0.000000 9.525300
143.641100 37.826800 0.000029 9.525300
143.579600 37.657800 0.000658 9.525300
143.518000 37.488800 0.000010 9.525300
143.456500 37.319700 0.000000 9.525300
143.395000 37.150700 0.000682 9.525300
143.333500 36.981700 0.000000 9.525300
143.272000 36.812700 0.000013 9.525300
143.210500 36.643700 0.000017 9.525300
143.148900 36.474700 0.000000 9.525300
143.087400 36.305600 0.000000 9.525300
143.025900 36.136600 0.000002 9.525300
142.964400 35.967600 0.000012 9.525300
142.902900 35.798600 0.000022 9.525300
142.841300 35.629600 0.000029 9.525300
142.779800 35.460600 0.000008 9.525300
142.718300 35.291500 0.000021 9.525300
144.025700 39.409500 0.012180 13.683500
143.964200 39.240500 0.002598 13.683500
143.902700 39.071400 0.003134 13.683500
143.841200 38.902400 0.003105 13.683500
143.779600 38.733400 0.006624 13.683500
143.718100 38.564400 0.006520 13.683500
143.656600 38.395400 0.018011 13.683500
143.595100 38.226300 0.018485 13.683500
143.533600 38.057300 0.009402 13.683500
143.472100 37.888300 0.007824 13.683500
143.410500 37.719300 0.010124 13.683500
143.349000 37.550300 0.011790 13.683500
143.287500 37.381300 0.006082 13.683500
143.226000 37.212200 0.005347 13.683500
143.164500 37.043200 0.010324 13.683500
143.103000 36.874200 0.000579 13.683500
143.041400 36.705200 0.000533 13.683500
142.979900 36.536200 0.000000 13.683500
142.918400 36.367200 0.000002 13.683500
142.856900 36.198100 0.000022 13.683500
142.795400 36.029100 0.000012 13.683500
142.733800 35.860100 0.000022 13.683500
142.672300 35.691100 0.000029 13.683500
142.610800 35.522100 0.000008 13.683500
142.549300 35.353100 0.000021 13.683500
143.856700 39.471000 0.025870 17.841800
143.795200 39.302000 0.026396 17.841800
143.733700 39.133000 0.026103 17.841800
143.672100 38.963900 0.027476 17.841800
143.610600 38.794900 0.033128 17.841800
143.549100 38.625900 0.040912 17.841800
143.487600 38.456900 0.054969 17.841800
143.426100 38.287900 0.055304 17.841800
143.364600 38.118800 0.057758 17.841800
143.303000 37.949800 0.058747 17.841800
143.241500 37.780800 0.037992 17.841800
143.180000 37.611800 0.044435 17.841800
143.118500 37.442800 0.047314 17.841800
143.057000 37.273800 0.032663 17.841800
142.995500 37.104700 0.028915 17.841800
142.933900 36.935700 0.011768 17.841800
142.872400 36.766700 0.014355 17.841800
142.810900 36.597700 0.009245 17.841800
142.749400 36.428700 0.000002 17.841800
142.687900 36.259700 0.000022 17.841800
142.626300 36.090600 0.000012 17.841800
142.564800 35.921600 0.000002 17.841800
142.503300 35.752600 0.000029 17.841800
142.441800 35.583600 0.000017 17.841800
142.380300 35.414600 0.000021 17.841800
143.687700 39.532500 0.059585 22.000000
143.626200 39.363500 0.061634 22.000000
143.564600 39.194500 0.060470 22.000000
143.503100 39.025500 0.063039 22.000000
143.441600 38.856400 0.066379 22.000000
143.380100 38.687400 0.084151 22.000000
143.318600 38.518400 0.082932 22.000000
143.257100 38.349400 0.097661 22.000000
143.195500 38.180400 0.100962 22.000000
143.134000 38.011300 0.119542 22.000000
143.072500 37.842300 0.099459 22.000000
143.011000 37.673300 0.105748 22.000000
142.949500 37.504300 0.085827 22.000000
142.888000 37.335300 0.083350 22.000000
142.826400 37.166300 0.072869 22.000000
142.764900 36.997200 0.090089 22.000000
142.703400 36.828200 0.038585 22.000000
142.641900 36.659200 0.046856 22.000000
142.580400 36.490200 0.045018 22.000000
142.518800 36.321200 0.015705 22.000000
142.457300 36.152200 0.017967 22.000000
142.395800 35.983100 0.001199 22.000000
142.334300 35.814100 0.000029 22.000000
142.272800 35.645100 0.000608 22.000000
142.211300 35.476100 0.000401 22.000000
143.518700 39.594000 0.101152 26.158200
143.457100 39.425000 0.104306 26.158200
143.395600 39.256000 0.103865 26.158200
143.334100 39.087000 0.139616 26.158200
143.272600 38.918000 0.115310 26.158200
143.211100 38.748900 0.157137 26.158200
143.149600 38.579900 0.135330 26.158200
143.088000 38.410900 0.164304 26.158200
143.026500 38.241900 0.153251 26.158200
142.965000 38.072900 0.182560 26.158200
142.903500 37.903800 0.157442 26.158200
142.842000 37.734800 0.161145 26.158200
142.780500 37.565800 0.170885 26.158200
142.718900 37.396800 0.134727 26.158200
142.657400 37.227800 0.146486 26.158200
142.595900 37.058800 0.135323 26.158200
142.534400 36.889700 0.102088 26.158200
142.472900 36.720700 0.092649 26.158200
142.411300 36.551700 0.098139 26.158200
142.349800 36.382700 0.074830 26.158200
142.288300 36.213700 0.053917 26.158200
142.226800 36.044700 0.028494 26.158200
142.165300 35.875600 0.028466 26.158200
142.103800 35.706600 0.019699 26.158200
142.042200 35.537600 0.020968 26.158200
143.349600 39.655500 0.163778 30.316500
143.288100 39.486500 0.178784 30.316500
143.226600 39.317500 0.196765 30.316500
143.165100 39.148500 0.206019 30.316500
143.103600 38.979500 0.177316 30.316500
143.042100 38.810500 0.209798 30.316500
142.980500 38.641400 0.217751 30.316500
142.919000 38.472400 0.223275 30.316500
142.857500 38.303400 0.227108 30.316500
142.796000 38.134400 0.271847 30.316500
142.734500 37.965400 0.236793 30.316500
142.673000 37.796300 0.242396 30.316500
142.611400 37.627300 0.230708 30.316500
142.549900 37.458300 0.214287 30.316500
142.488400 37.289300 0.193757 30.316500
142.426900 37.120300 0.193197 30.316500
142.365400 36.951300 0.183332 30.316500
142.303800 36.782200 0.155633 30.316500
142.242300 36.613200 0.156305 30.316500
142.180800 36.444200 0.113432 30.316500
142.119300 36.275200 0.131226 30.316500
142.057800 36.106200 0.123819 30.316500
141.996300 35.937200 0.098715 30.316500
141.934700 35.768100 0.074491 30.316500
141.873200 35.599100 0.054585 30.316500
143.180600 39.717100 0.206680 34.474700
143.119100 39.548000 0.223194 34.474700
143.057600 39.379000 0.244584 34.474700
142.996100 39.210000 0.276845 34.474700
142.934600 39.041000 0.247375 34.474700
142.873000 38.872000 0.267226 34.474700
142.811500 38.703000 0.280167 34.474700
142.750000 38.533900 0.297867 34.474700
142.688500 38.364900 0.301801 34.474700
142.627000 38.195900 0.367628 34.474700
142.565500 38.026900 0.331090 34.474700
142.503900 37.857900 0.315447 34.474700
142.442400 37.688800 0.279894 34.474700
142.380900 37.519800 0.260155 34.474700
142.319400 37.350800 0.266242 34.474700
142.257900 37.181800 0.288185 34.474700
142.196300 37.012800 0.243347 34.474700
142.134800 36.843800 0.260269 34.474700
142.073300 36.674700 0.226425 34.474700
142.011800 36.505700 0.180430 34.474700
141.950300 36.336700 0.210893 34.474700
141.888800 36.167700 0.163433 34.474700
141.827200 35.998700 0.140518 34.474700
141.765700 35.829700 0.127287 34.474700
141.704200 35.660600 0.031994 34.474700
143.011600 39.778600 0.263124 38.632900
142.950100 39.609600 0.298934 38.632900
142.888600 39.440500 0.320853 38.632900
142.827100 39.271500 0.334191 38.632900
142.765500 39.102500 0.310998 38.632900
142.704000 38.933500 0.331027 38.632900
142.642500 38.764500 0.337343 38.632900
142.581000 38.595500 0.379024 38.632900
142.519500 38.426400 0.423263 38.632900
142.458000 38.257400 0.461842 38.632900
142.396400 38.088400 0.390329 38.632900
142.334900 37.919400 0.369727 38.632900
142.273400 37.750400 0.346423 38.632900
142.211900 37.581300 0.341726 38.632900
142.150400 37.412300 0.352873 38.632900
142.088800 37.243300 0.324601 38.632900
142.027300 37.074300 0.323238 38.632900
141.965800 36.905300 0.301933 38.632900
141.904300 36.736300 0.276444 38.632900
141.842800 36.567200 0.264242 38.632900
141.781300 36.398200 0.266387 38.632900
141.719700 36.229200 0.232301 38.632900
141.658200 36.060200 0.197245 38.632900
141.596700 35.891200 0.161230 38.632900
141.535200 35.722200 0.049968 38.632900
142.842600 39.840100 0.361733 42.791200
142.781100 39.671100 0.377232 42.791200
142.719600 39.502100 0.397039 42.791200
142.658000 39.333000 0.390142 42.791200
142.596500 39.164000 0.394399 42.791200
142.535000 38.995000 0.398739 42.791200
142.473500 38.826000 0.406771 42.791200
142.412000 38.657000 0.415291 42.791200
142.350500 38.488000 0.461311 42.791200
142.288900 38.318900 0.499764 42.791200
142.227400 38.149900 0.499812 42.791200
142.165900 37.980900 0.429434 42.791200
142.104400 37.811900 0.390856 42.791200
142.042900 37.642900 0.365192 42.791200
141.981300 37.473800 0.369296 42.791200
141.919800 37.304800 0.373891 42.791200
141.858300 37.135800 0.356880 42.791200
141.796800 36.966800 0.313297 42.791200
141.735300 36.797800 0.290956 42.791200
141.673800 36.628800 0.277100 42.791200
141.612200 36.459700 0.283540 42.791200
141.550700 36.290700 0.294137 42.791200
141.489200 36.121700 0.218870 42.791200
141.427700 35.952700 0.201389 42.791200
141.366200 35.783700 0.073338 42.791200
