144.922300 39.577300 0.829120 10.380817
144.819900 39.367200 0.820957 10.875453
144.717500 39.157200 0.829822 10.311284
144.615200 38.947100 0.842435 10.311284
144.512800 38.737100 0.850740 9.987253
144.410400 38.527100 0.863353 9.775473
144.308000 38.317000 0.875966 9.775473
144.205700 38.107000 0.889734 9.777456
144.103300 37.897000 0.898039 9.777456
144.000900 37.686900 0.910652 9.861019
143.898600 37.476900 0.924420 10.260003
143.796200 37.266800 0.937033 10.764030
143.693800 37.056800 0.931119 11.204245
143.591500 36.846800 0.886679 11.547302
143.489100 36.636700 0.896703 11.926906
143.386700 36.426700 0.906727 12.030392
143.284400 36.216600 0.916169 12.569983
143.182000 36.006600 0.924654 12.955083
143.079600 35.796600 0.931568 12.741896
142.977300 35.586500 0.940053 12.586594
144.813900 39.851000 0.706807 12.100394
144.711500 39.641000 0.714743 10.656404
144.609200 39.430900 0.763785 10.994291
144.506800 39.220900 0.812054 10.311284
144.404400 39.010900 0.847189 10.311284
144.302100 38.800800 0.879587 9.987253
144.199700 38.590800 0.912266 9.775473
144.097300 38.380700 0.920049 9.776082
143.995000 38.170700 0.911220 9.908284
143.892600 37.960700 0.909808 9.993060
143.790200 37.750600 0.916959 10.190131
143.687900 37.540600 0.930727 10.769554
143.585500 37.330500 0.939032 11.273905
143.483100 37.120500 0.909274 11.692531
143.380800 36.910500 0.887077 11.994733
143.278400 36.700400 0.902970 12.137999
143.176000 36.490400 0.911455 12.404896
143.073600 36.280300 0.918369 12.847199
142.971300 36.070300 0.926854 12.738440
142.868900 35.860300 0.935339 12.664496
142.766500 35.650200 0.943824 12.368556
144.603200 39.914700 0.704458 11.449015
144.500800 39.704700 0.669183 10.875453
144.398500 39.494600 0.666568 10.994291
144.296100 39.284600 0.676677 10.434304
144.193700 39.074600 0.700681 10.342929
144.091300 38.864500 0.731303 9.987253
143.989000 38.654500 0.779966 9.836116
143.886600 38.444400 0.848049 10.372296
143.784200 38.234400 0.904815 10.965129
143.681900 38.024400 0.953724 11.601611
143.579500 37.814300 0.973835 12.237820
143.477100 37.604300 0.968662 12.840404
143.374800 37.394200 0.944506 13.376170
143.272400 37.184200 0.895828 13.811876
143.170000 36.974200 0.847611 14.121757
143.067700 36.764100 0.787467 14.281213
142.965300 36.554100 0.750887 14.259784
142.862900 36.344100 0.765201 13.997315
142.760600 36.134000 0.780561 13.380901
142.658200 35.924000 0.800175 12.504692
142.555800 35.713900 0.822720 12.100394
144.392500 39.978400 0.719429 10.853842
144.290100 39.768400 0.675608 11.084117
144.187700 39.558300 0.627928 11.029102
144.085400 39.348300 0.613208 10.646190
143.983000 39.138300 0.629698 11.012016
143.880600 38.928200 0.678274 11.400897
143.778300 38.718200 0.757614 11.898366
143.675900 38.508100 0.832602 12.499715
143.573500 38.298100 0.891371 13.167886
143.471200 38.088100 0.946983 13.859864
143.368800 37.878000 0.968063 14.540586
143.266400 37.668000 0.960242 15.182777
143.164100 37.458000 0.929472 15.755009
143.061700 37.247900 0.885836 16.223025
142.959300 37.037900 0.827794 16.557378
142.856900 36.827800 0.760126 16.731729
142.754600 36.617800 0.700754 16.717714
142.652200 36.407800 0.627855 16.459609
142.549800 36.197700 0.520173 15.850706
142.447500 35.987700 0.379568 14.791330
142.345100 35.777600 0.300197 13.367113
144.079400 39.832100 0.679895 11.920982
143.977000 39.622000 0.624697 11.809599
143.874700 39.412000 0.584336 12.348374
143.772300 39.202000 0.589761 12.791615
143.669900 38.991900 0.630869 13.212913
143.567500 38.781900 0.708817 13.696268
143.465200 38.571900 0.792829 14.275672
143.362800 38.361800 0.871745 14.940510
143.260400 38.151800 0.930748 15.659093
143.158100 37.941700 0.950809 16.403416
143.055700 37.731700 0.939294 17.144688
142.953300 37.521700 0.909214 17.849803
142.851000 37.311600 0.863003 18.485030
142.748600 37.101600 0.790780 19.009626
142.646200 36.891500 0.734286 19.385931
142.543900 36.681500 0.676522 19.589856
142.441500 36.471500 0.602277 19.596203
142.339100 36.261400 0.496060 19.362396
142.236800 36.051400 0.370273 18.792090
142.134400 35.841400 0.274133 17.755909
143.868700 39.895800 0.666610 16.262095
143.766300 39.685800 0.597985 14.614418
143.663900 39.475700 0.537819 14.244759
143.561600 39.265700 0.530997 14.785752
143.459200 39.055600 0.558149 15.262152
143.356800 38.845600 0.641119 15.746552
143.254500 38.635600 0.738396 16.301134
143.152100 38.425500 0.837319 16.948839
143.049700 38.215500 0.911283 17.679597
142.947400 38.005400 0.929749 18.470167
142.845000 37.795400 0.920511 19.296646
142.742600 37.585400 0.881271 20.126213
142.640300 37.375300 0.815854 20.917620
142.537900 37.165300 0.738058 21.630358
142.435500 36.955300 0.685813 22.218966
142.333100 36.745200 0.624554 22.644134
142.230800 36.535200 0.558173 22.883834
142.128400 36.325100 0.459980 22.919781
142.026000 36.115100 0.325850 22.722951
141.923700 35.905100 0.221850 22.210254
143.658000 39.959500 0.627445 21.239898
143.555600 39.749500 0.546069 19.757159
143.453200 39.539400 0.482771 18.014239
143.350900 39.329400 0.454270 17.116650
143.248500 39.119300 0.459263 17.598036
143.146100 38.909300 0.537370 18.077511
143.043700 38.699300 0.646931 18.612044
142.941400 38.489200 0.793511 19.239998
142.839000 38.279200 0.871409 19.972449
142.736600 38.069200 0.897999 20.797759
142.634300 37.859100 0.891448 21.693111
142.531900 37.649100 0.849700 22.625044
142.429500 37.439000 0.767205 23.557325
142.327200 37.229000 0.690134 24.441949
142.224800 37.019000 0.620834 25.228907
142.122400 36.808900 0.560896 25.878213
142.020100 36.598900 0.503932 26.352043
141.917700 36.388800 0.422625 26.627778
141.815300 36.178800 0.282574 26.698695
141.713000 35.968800 0.133423 26.547425
143.344900 39.813200 0.487675 26.111499
143.242500 39.603100 0.414838 25.261420
143.140100 39.393100 0.366712 23.921105
143.037800 39.183100 0.360321 22.289893
142.935400 38.973000 0.453798 20.384063
142.833000 38.763000 0.574945 20.798940
142.730700 38.552900 0.719488 21.287249
142.628300 38.342900 0.824021 21.884681
142.525900 38.132900 0.868729 22.606199
142.423600 37.922800 0.862323 23.445944
142.321200 37.712800 0.814055 24.388482
142.218800 37.502700 0.733753 25.403097
142.116500 37.292700 0.651892 26.447499
142.014100 37.082700 0.562576 27.479183
141.911700 36.872600 0.498491 28.446186
141.809300 36.662600 0.445965 29.298113
141.707000 36.452600 0.380607 29.998463
141.604600 36.242500 0.221196 30.513679
141.502200 36.032500 0.049325 30.826487
143.134200 39.876900 0.426872 30.936711
143.031800 39.666800 0.344245 30.839268
142.929400 39.456800 0.278491 30.501336
142.827100 39.246800 0.271868 29.831310
142.724700 39.036700 0.358161 28.773406
142.622300 38.826700 0.492830 27.463824
142.519900 38.616600 0.648422 24.041466
142.417600 38.406600 0.763562 24.431562
142.315200 38.196600 0.822934 24.963617
142.212800 37.986500 0.823520 25.648000
142.110500 37.776500 0.782613 26.480705
142.008100 37.566500 0.701845 27.443219
141.905700 37.356400 0.616347 28.510822
141.803400 37.146400 0.516971 29.643746
141.701000 36.936300 0.439097 30.794033
141.598600 36.726300 0.390525 31.909190
141.496300 36.516300 0.320248 32.942444
141.393900 36.306200 0.170564 33.845995
141.291500 36.096200 0.009902 34.582902
142.923400 39.940600 0.354401 35.132506
142.821100 39.730500 0.265998 35.481086
142.718700 39.520500 0.179039 35.630619
142.616300 39.310500 0.153602 35.592116
142.514000 39.100400 0.228013 35.360049
142.411600 38.890400 0.378987 34.895137
142.309200 38.680400 0.537640 34.172257
142.206900 38.470300 0.669779 33.245301
142.104500 38.260300 0.750894 28.122272
142.002100 38.050200 0.762261 28.545424
141.899800 37.840200 0.727504 29.159140
141.797400 37.630200 0.654676 29.950198
141.695000 37.420100 0.575494 30.906644
141.592700 37.210100 0.471067 31.998931
141.490300 37.000000 0.378913 33.186628
141.387900 36.790000 0.332119 34.428042
141.285500 36.580000 0.258550 35.667955
141.183200 36.369900 0.104305 36.850274
141.080800 36.159900 0.000000 37.931966
142.610400 39.794300 0.209806 38.869355
142.508000 39.584200 0.103794 39.632263
142.405600 39.374200 0.051791 40.207317
142.303200 39.164100 0.119335 40.586372
142.200900 38.954100 0.269603 40.776064
142.098500 38.744100 0.409006 40.795804
141.996100 38.534000 0.526945 40.662127
141.893800 38.324000 0.615915 40.377247
141.791400 38.113900 0.666150 39.925268
141.689000 37.903900 0.654624 39.289543
141.586700 37.693900 0.612006 32.658285
141.484300 37.483800 0.537074 33.159401
141.381900 37.273800 0.440908 33.881283
141.279600 37.063700 0.357482 34.798345
141.177200 36.853700 0.285377 35.886414
141.074800 36.643700 0.208307 37.107376
140.972500 36.433600 0.077560 38.413416
140.870100 36.223600 0.000000 39.749403
142.399600 39.858000 0.000000 41.063639
142.297300 39.647900 0.000000 42.300164
142.194900 39.437900 0.001539 43.412897
142.092500 39.227800 0.017778 44.371596
141.990200 39.017800 0.125113 45.153299
141.887800 38.807800 0.249072 45.744292
141.785400 38.597700 0.347717 46.148776
141.683100 38.387700 0.417852 46.377282
141.580700 38.177600 0.503412 46.447317
141.478300 37.967600 0.538070 46.395445
141.376000 37.757600 0.540610 46.241096
141.273600 37.547500 0.500331 45.967450
141.171200 37.337500 0.421591 45.502749
141.068800 37.127500 0.349278 37.646848
140.966500 36.917400 0.261004 38.255295
140.864100 36.707400 0.200829 39.108042
140.761700 36.497300 0.078020 40.168379
140.659400 36.287300 0.000000 41.394557
