144.403100 38.505000 0.000016 7.589000
144.274500 38.254700 0.000000 7.589000
144.146000 38.004300 0.000000 7.589000
144.017500 37.754000 0.000029 7.589000
143.888900 37.503700 0.000012 7.589000
143.760400 37.253400 0.000000 7.589000
143.631900 37.003100 0.000038 7.589000
143.503300 36.752700 0.000000 7.589000
143.374800 36.502400 0.000017 7.589000
143.246300 36.252100 0.000000 7.589000
143.117800 36.001800 0.000022 7.589000
142.989200 35.751500 0.000022 7.589000
142.860700 35.501200 0.000017 7.589000
142.732200 35.250800 0.000021 7.589000
144.092300 38.606600 0.000016 10.621000
143.963800 38.356200 0.000000 10.621000
143.835300 38.105900 0.000000 10.621000
143.706700 37.855600 0.000029 10.621000
143.578200 37.605300 0.000012 10.621000
143.449700 37.355000 0.000000 10.621000
143.321200 37.104600 0.000038 10.621000
143.192600 36.854300 0.000013 10.621000
143.064100 36.604000 0.000000 10.621000
142.935600 36.353700 0.000002 10.621000
142.807000 36.103400 0.000012 10.621000
142.678500 35.853000 0.000002 10.621000
142.550000 35.602700 0.000017 10.621000
142.421400 35.352400 0.000021 10.621000
143.780300 38.707300 0.006624 13.504000
143.651700 38.456900 0.018168 13.504000
143.523200 38.206600 0.018485 13.504000
143.394700 37.956300 0.027953 13.504000
143.266200 37.706000 0.030257 13.504000
143.137600 37.455700 0.047314 13.504000
143.009100 37.205300 0.032663 13.504000
142.880600 36.955000 0.039812 13.504000
142.752000 36.704700 0.019170 13.504000
142.623500 36.454400 0.020028 13.504000
142.495000 36.204100 0.017967 13.504000
142.366400 35.953700 0.020632 13.504000
142.237900 35.703400 0.017220 13.504000
142.109400 35.453100 0.004398 13.504000
143.465500 38.807300 0.058361 17.834700
143.337000 38.557000 0.082932 17.834700
143.208400 38.306700 0.107757 17.834700
143.079900 38.056400 0.119542 17.834700
142.951400 37.806100 0.150447 17.834700
142.822800 37.555700 0.129723 17.834700
142.694300 37.305400 0.118947 17.834700
142.565800 37.055100 0.135323 17.834700
142.437200 36.804800 0.162549 17.834700
142.308700 36.554500 0.094805 17.834700
142.180200 36.304100 0.082692 17.834700
142.051600 36.053800 0.080907 17.834700
141.923100 35.803500 0.074491 17.834700
141.794600 35.553200 0.019163 17.834700
143.159300 38.904300 0.177316 23.118000
143.030800 38.653900 0.217751 23.118000
142.902300 38.403600 0.232901 23.118000
142.773700 38.153300 0.271847 23.118000
142.645200 37.903000 0.303248 23.118000
142.516700 37.652700 0.241647 23.118000
142.388100 37.402300 0.251146 23.118000
142.259600 37.152000 0.275646 23.118000
142.131100 36.901700 0.260269 23.118000
142.002500 36.651400 0.226425 23.118000
141.874000 36.401100 0.216970 23.118000
141.745500 36.150700 0.232301 23.118000
141.617000 35.900400 0.139924 23.118000
141.488400 35.650100 0.049968 23.118000
142.857600 38.998800 0.271561 31.428000
142.729100 38.748500 0.280167 31.428000
142.600500 38.498200 0.377233 31.428000
142.472000 38.247900 0.461842 31.428000
142.343500 37.997600 0.399420 31.428000
142.214900 37.747200 0.351818 31.428000
142.086400 37.496900 0.357434 31.428000
141.957900 37.246600 0.352436 31.428000
141.829300 36.996300 0.313297 31.428000
141.700800 36.746000 0.274348 31.428000
141.572300 36.495600 0.283540 31.428000
141.443700 36.245300 0.281036 31.428000
141.315200 35.995000 0.195108 31.428000
141.186700 35.744700 0.000000 31.428000
142.564800 39.091900 0.356555 43.149900
142.436200 38.841600 0.406771 43.149900
142.307700 38.591300 0.496036 43.149900
142.179200 38.341000 0.566231 43.149900
142.050600 38.090600 0.543106 43.149900
141.922100 37.840300 0.387605 43.149900
141.793600 37.590000 0.343068 43.149900
141.665000 37.339700 0.336069 43.149900
141.536500 37.089400 0.252988 43.149900
141.408000 36.839000 0.178044 43.149900
141.279400 36.588700 0.161761 43.149900
141.150900 36.338400 0.201265 43.149900
141.022400 36.088100 0.095487 43.149900
140.893900 35.837800 0.000000 43.149900
142.271900 39.185000 0.463737 54.871900
142.143400 38.934700 0.445902 54.871900
142.014900 38.684400 0.493571 54.871900
141.886300 38.434100 0.587432 54.871900
141.757800 38.183700 0.557482 54.871900
141.629300 37.933400 0.387414 54.871900
141.500700 37.683100 0.270553 54.871900
141.372200 37.432800 0.250601 54.871900
141.243700 37.182500 0.115680 54.871900
141.115100 36.932100 0.000000 54.871900
140.986600 36.681800 0.027976 54.871900
140.858100 36.431500 0.000000 54.871900
140.729500 36.181200 0.000000 54.871900
140.601000 35.930900 0.000000 54.871900
