-73.584000 -36.347700 0.804606 19.324416
-73.494600 -36.134600 0.849482 19.461544
-73.405200 -35.921500 0.834020 19.252370
-73.315700 -35.708400 0.786381 18.691956
-73.226300 -35.495300 0.789129 17.868629
-73.136900 -35.282200 0.896837 16.938430
-73.047500 -35.069100 0.993042 16.052580
-72.958100 -34.855900 0.993986 15.301761
-72.868700 -34.642800 0.952545 14.709063
-72.779300 -34.429700 0.862819 14.259983
-72.689900 -34.216600 0.716137 13.952965
-72.600500 -34.003500 0.593792 13.819300
-72.511100 -33.790400 0.523904 13.915542
-72.421600 -33.577300 0.516007 14.308954
-73.405100 -36.396500 0.900118 23.417708
-73.315700 -36.183400 0.955033 23.685358
-73.226300 -35.970300 0.937200 23.510470
-73.136900 -35.757200 0.894566 22.899022
-73.047500 -35.544100 0.892009 21.966258
-72.958100 -35.331000 0.991537 20.896523
-72.868700 -35.117900 0.997312 19.874896
-72.779200 -34.904800 0.999971 19.021281
-72.689800 -34.691700 0.996446 18.363129
-72.600400 -34.478600 0.930535 17.886479
-72.511000 -34.265500 0.800264 17.583503
-72.421600 -34.052400 0.648791 17.482515
-72.332200 -33.839300 0.575964 17.644367
-72.242800 -33.626200 0.568550 18.148726
-73.226200 -36.445400 0.969459 27.997171
-73.136800 -36.232300 0.999930 28.423649
-73.047400 -36.019200 0.998722 28.321113
-72.958000 -35.806100 0.964698 27.709592
-72.868600 -35.593000 0.953098 26.722160
-72.779200 -35.379800 0.974361 25.563307
-72.689800 -35.166700 0.985609 24.446973
-72.600400 -34.953600 0.996274 23.512162
-72.511000 -34.740500 0.997522 22.803634
-72.421600 -34.527400 0.958460 22.310104
-72.332100 -34.314300 0.866370 22.025265
-72.242700 -34.101200 0.696578 21.969215
-72.153300 -33.888100 0.612844 22.205838
-72.063900 -33.675000 0.613027 22.828055
-74.322800 -36.146700 0.522215 8.769489
-74.233400 -35.933600 0.508056 9.071772
-74.144000 -35.720500 0.583383 9.331958
-74.054600 -35.507400 0.610486 9.500868
-73.965200 -35.294300 0.620940 8.741475
-73.875800 -35.081200 0.625016 8.352866
-73.786400 -34.868100 0.629092 7.641289
-73.697000 -34.655000 0.631297 7.759108
-73.607600 -34.441900 0.635373 7.905941
-73.518100 -34.228700 0.639449 8.092784
-73.428700 -34.015600 0.590540 8.177065
-73.339300 -33.802500 0.604862 8.292185
-73.249900 -33.589400 0.567449 8.548315
-73.160500 -33.376300 0.528000 8.104029
-74.138100 -36.197100 0.518714 10.058742
-74.048700 -35.984000 0.559037 10.008462
-73.959300 -35.770900 0.592885 9.825940
-73.869900 -35.557800 0.617967 9.677001
-73.780500 -35.344700 0.622043 9.119994
-73.691100 -35.131600 0.626119 8.718991
-73.601700 -34.918500 0.630194 8.315275
-73.512300 -34.705400 0.632400 7.997756
-73.422900 -34.492300 0.636476 8.039962
-73.333400 -34.279200 0.618283 8.015669
-73.244000 -34.066100 0.620903 8.123405
-73.154600 -33.853000 0.588513 8.292185
-73.065200 -33.639900 0.555137 8.264138
-72.975800 -33.426800 0.519299 8.128519
-73.953400 -36.247600 0.634110 12.551551
-73.864000 -36.034500 0.645196 12.529943
-73.774600 -35.821400 0.615180 12.337224
-73.685200 -35.608300 0.568197 11.953493
-73.595800 -35.395100 0.557624 11.423018
-73.506400 -35.182000 0.619900 10.835231
-73.417000 -34.968900 0.698566 10.272022
-73.327600 -34.755800 0.733041 9.777095
-73.238200 -34.542700 0.687903 9.357106
-73.148700 -34.329600 0.635858 9.009284
-73.059300 -34.116500 0.597089 8.727270
-72.969900 -33.903400 0.544615 8.711333
-72.880500 -33.690300 0.496667 8.543118
-72.791100 -33.477200 0.462085 8.773048
-73.768700 -36.298000 0.714520 15.646409
-73.679300 -36.084900 0.747790 15.685919
-73.589900 -35.871800 0.724872 15.474343
-73.500500 -35.658700 0.666795 14.995362
-73.411100 -35.445600 0.679081 14.315946
-73.321700 -35.232500 0.750386 13.555979
-73.232300 -35.019400 0.853969 12.830587
-73.142900 -34.806300 0.917081 12.205453
-73.053500 -34.593200 0.826612 11.693448
-72.964000 -34.380100 0.720072 11.287828
-72.874600 -34.167000 0.600224 10.992014
-72.785200 -33.953800 0.511062 10.838868
-72.695800 -33.740700 0.469945 10.878344
-72.606400 -33.527600 0.467034 11.160693
-73.055500 -36.491400 0.973816 32.806562
-72.966100 -36.278300 0.975948 33.397869
-72.876700 -36.065200 0.973052 33.399096
-72.787300 -35.852100 0.964457 32.843156
-72.697900 -35.639000 0.937874 31.871938
-72.608500 -35.425900 0.901582 30.699827
-72.519100 -35.212700 0.920979 29.547787
-72.429600 -34.999600 0.933546 28.576796
-72.340200 -34.786500 0.994090 27.839136
-72.250800 -34.573400 0.991128 27.339575
-72.161400 -34.360300 0.847168 27.076336
-72.072000 -34.147200 0.699962 27.072641
-71.982600 -33.934100 0.630190 27.388242
-71.893200 -33.721000 0.647537 28.126754
-72.883500 -36.538300 0.881478 38.122670
-72.794100 -36.325200 0.885342 38.881824
-72.704700 -36.112100 0.885761 39.019126
-72.615300 -35.899000 0.868698 38.576757
-72.525900 -35.685900 0.829862 37.695310
-72.436500 -35.472800 0.793150 36.583864
-72.347100 -35.259700 0.778314 35.462895
-72.257700 -35.046600 0.816047 34.493148
-72.168200 -34.833500 0.858684 33.753420
-72.078800 -34.620400 0.840744 33.260069
-71.989400 -34.407300 0.757642 33.028012
-71.900000 -34.194200 0.666732 33.081363
-71.810600 -33.981100 0.638235 33.477793
-71.721200 -33.768000 0.652269 34.328472
-72.711500 -36.585300 0.739349 43.957334
-72.622100 -36.372200 0.726779 44.868091
-72.532700 -36.159100 0.714135 45.157870
-72.443300 -35.946000 0.702485 44.872132
-72.353900 -35.732900 0.694846 44.140590
-72.264500 -35.519800 0.646200 43.155867
-72.175100 -35.306700 0.616110 42.124769
-72.085700 -35.093600 0.629074 41.205848
-71.996300 -34.880500 0.666557 40.488602
-71.906800 -34.667400 0.659869 40.022039
-71.817400 -34.454300 0.594519 39.826688
-71.728000 -34.241200 0.554347 39.934367
-71.638600 -34.028000 0.547761 40.401071
-71.549200 -33.814900 0.556473 41.343530
-74.107700 -39.018800 0.563507 19.081825
-74.065600 -38.796400 0.552597 19.411873
-74.023400 -38.574000 0.512984 19.661876
-73.981200 -38.351700 0.446463 19.792262
-73.939000 -38.129300 0.397444 19.841901
-73.896800 -37.906900 0.427622 19.890133
-73.854600 -37.684500 0.518795 19.978014
-73.812500 -37.462100 0.614305 20.075588
-73.770300 -37.239700 0.645908 20.125313
-73.728100 -37.017300 0.627884 20.078183
-73.685900 -36.794900 0.642394 19.904263
-73.643700 -36.572500 0.723465 19.564637
-73.921100 -39.041900 0.691077 23.265341
-73.878900 -38.819500 0.666301 23.488326
-73.836700 -38.597100 0.605239 23.608695
-73.794500 -38.374700 0.534225 23.614716
-73.752300 -38.152300 0.505248 23.563461
-73.710200 -37.929900 0.547598 23.536517
-73.668000 -37.707500 0.647060 23.576677
-73.625800 -37.485100 0.749336 23.659308
-73.583600 -37.262700 0.807678 23.742209
-73.541400 -37.040300 0.787388 23.791007
-73.499200 -36.817900 0.779971 23.756442
-73.457100 -36.595600 0.828955 23.542533
-73.734400 -39.064900 0.784631 28.163668
-73.692200 -38.842500 0.751322 28.187016
-73.650000 -38.620100 0.663915 28.104833
-73.607900 -38.397700 0.600720 27.938482
-73.565700 -38.175400 0.601048 27.761477
-73.523500 -37.953000 0.659333 27.647344
-73.481300 -37.730600 0.754186 27.629319
-73.439100 -37.508200 0.878413 27.694580
-73.397000 -37.285800 0.930715 27.819658
-73.354800 -37.063400 0.928996 27.982475
-73.312600 -36.841000 0.895698 28.102596
-73.270400 -36.618600 0.925253 28.026839
-73.547700 -39.088000 0.835099 33.822256
-73.505600 -38.865600 0.783563 33.558600
-73.463400 -38.643200 0.700635 33.213818
-73.421200 -38.420800 0.652959 32.848568
-73.379000 -38.198400 0.680179 32.532848
-73.336800 -37.976000 0.742079 32.326974
-73.294700 -37.753600 0.826639 32.251390
-73.252500 -37.531200 0.901314 32.306925
-73.210300 -37.308800 0.989788 32.484487
-73.168100 -37.086400 0.996681 32.754024
-73.125900 -36.864000 0.976078 33.004703
-73.083700 -36.641600 0.954962 33.033658
-74.827800 -38.811400 0.065534 8.391339
-74.785600 -38.589000 0.059003 8.638998
-74.743400 -38.366700 0.022682 8.844366
-74.701200 -38.144300 0.066239 9.569728
-74.659100 -37.921900 0.131376 9.739031
-74.616900 -37.699500 0.224120 9.385037
-74.574700 -37.477100 0.188838 9.548302
-74.532500 -37.254700 0.170096 9.744013
-74.490300 -37.032300 0.231950 9.400530
-74.448100 -36.809900 0.307138 9.208939
-74.406000 -36.587500 0.388619 8.991263
-74.363800 -36.365100 0.484791 9.076159
-74.635000 -38.835200 0.081417 10.416242
-74.592800 -38.612800 0.065516 10.730623
-74.550700 -38.390400 0.029038 10.999444
-74.508500 -38.168100 0.027791 11.194250
-74.466300 -37.945700 0.101721 11.332172
-74.424100 -37.723300 0.175395 11.452115
-74.381900 -37.500900 0.267921 11.564720
-74.339800 -37.278500 0.340578 11.629311
-74.297600 -37.056100 0.402617 11.582058
-74.255400 -36.833700 0.464607 11.376452
-74.213200 -36.611300 0.524620 11.018761
-74.171000 -36.388900 0.517511 10.553005
-74.442300 -38.859000 0.259452 12.992417
-74.400100 -38.636600 0.248683 13.341437
-74.357900 -38.414200 0.218710 13.623938
-74.315700 -38.191800 0.165298 13.812922
-74.273600 -37.969500 0.193031 13.941956
-74.231400 -37.747100 0.258129 14.064840
-74.189200 -37.524700 0.340460 14.188360
-74.147000 -37.302300 0.410252 14.261031
-74.104800 -37.079900 0.452254 14.209358
-74.062600 -36.857500 0.495492 13.989643
-74.020500 -36.635100 0.555358 13.606184
-73.978300 -36.412700 0.610029 13.092891
-74.249500 -38.882800 0.429234 16.131404
-74.207400 -38.660400 0.417569 16.475480
-74.165200 -38.438000 0.374428 16.729054
-74.123000 -38.215600 0.319808 16.875763
-74.080800 -37.993300 0.303327 16.970177
-74.038600 -37.770900 0.364932 17.074000
-73.996400 -37.548500 0.452224 17.192749
-73.954300 -37.326100 0.510210 17.268440
-73.912100 -37.103700 0.540375 17.234759
-73.869900 -36.881300 0.555743 17.051094
-73.827700 -36.658900 0.605472 16.710012
-73.785500 -36.436500 0.685907 16.207503
