-70.907800 -20.858900 0.648369 16.329667
-70.933500 -20.753700 0.656440 16.058986
-70.959300 -20.648400 0.668881 15.855302
-70.985100 -20.543200 0.699612 15.717224
-71.010900 -20.438000 0.744414 15.640051
-71.036700 -20.332800 0.789237 15.618364
-71.062500 -20.227500 0.829364 15.647351
-71.088300 -20.122300 0.858124 15.721902
-71.114100 -20.017100 0.877982 15.839688
-71.139900 -19.911900 0.901402 15.999817
-71.165700 -19.806700 0.899447 16.202850
-71.191500 -19.701400 0.894169 16.451731
-71.217300 -19.596200 0.870112 16.748004
-71.243000 -19.491000 0.852118 17.098136
-71.268800 -19.385800 0.818063 17.501695
-71.294600 -19.280500 0.797505 17.965870
-71.320400 -19.175300 0.765917 18.493712
-71.346200 -19.070100 0.737419 19.093214
-71.372000 -18.964900 0.712686 19.774775
-71.397800 -18.859600 0.686367 20.554531
-70.817200 -20.839200 0.687446 18.462992
-70.843000 -20.734000 0.690312 18.172725
-70.868800 -20.628800 0.702236 17.953130
-70.894600 -20.523500 0.727235 17.802119
-70.920400 -20.418300 0.773046 17.714436
-70.946200 -20.313100 0.819057 17.685499
-70.972000 -20.207900 0.867328 17.710558
-70.997800 -20.102600 0.890027 17.786572
-71.023600 -19.997400 0.908298 17.909973
-71.049400 -19.892200 0.923940 18.080724
-71.075100 -19.787000 0.912417 18.302020
-71.100900 -19.681700 0.890027 18.572489
-71.126700 -19.576500 0.855306 18.895963
-71.152500 -19.471300 0.828549 19.276811
-71.178300 -19.366100 0.788308 19.718748
-71.204100 -19.260800 0.755324 20.226811
-71.229900 -19.155600 0.719530 20.803838
-71.255700 -19.050400 0.692939 21.458013
-71.281500 -18.945200 0.662237 22.200081
-71.307300 -18.840000 0.632092 23.045418
-70.726700 -20.819500 0.726332 20.818955
-70.752500 -20.714300 0.723223 20.512329
-70.778300 -20.609100 0.736013 20.277064
-70.804100 -20.503800 0.757139 20.111558
-70.829900 -20.398600 0.800082 20.011223
-70.855700 -20.293400 0.854206 19.972254
-70.881500 -20.188200 0.902890 19.990799
-70.907200 -20.083000 0.920915 20.066328
-70.933000 -19.977700 0.938863 20.193066
-70.958800 -19.872500 0.934656 20.371896
-70.984600 -19.767300 0.913550 20.604982
-71.010400 -19.662100 0.885910 20.894865
-71.036200 -19.556800 0.841688 21.245968
-71.062000 -19.451600 0.802526 21.660027
-71.087800 -19.346400 0.760954 22.141700
-71.113600 -19.241200 0.725835 22.694862
-71.139400 -19.135900 0.681323 23.325728
-71.165200 -19.030700 0.646405 24.039006
-71.191000 -18.925500 0.611068 24.846704
-71.216700 -18.820300 0.583947 25.767218
-70.636200 -20.799800 0.764678 23.400723
-70.662000 -20.694600 0.757549 23.078889
-70.687800 -20.589400 0.773238 22.828023
-70.713600 -20.484200 0.791063 22.646592
-70.739300 -20.378900 0.835401 22.535061
-70.765100 -20.273700 0.895472 22.483537
-70.790900 -20.168500 0.936826 22.492562
-70.816700 -20.063300 0.976798 22.560261
-70.842500 -19.958000 0.974316 22.686791
-70.868300 -19.852800 0.953661 22.871253
-70.894100 -19.747600 0.924699 23.116411
-70.919900 -19.642400 0.876490 23.425241
-70.945700 -19.537100 0.828863 23.802472
-70.971500 -19.431900 0.784843 24.249893
-70.997300 -19.326700 0.732142 24.772323
-71.023100 -19.221500 0.691848 25.373736
-71.048800 -19.116300 0.643723 26.061891
-71.074600 -19.011000 0.598890 26.839757
-71.100400 -18.905800 0.562705 27.717879
-71.126200 -18.800600 0.537306 28.712857
-71.277700 -20.938700 0.693104 9.999179
-71.303500 -20.833500 0.693104 9.659918
-71.329300 -20.728200 0.688034 9.821671
-71.355100 -20.623000 0.682965 10.157039
-71.380900 -20.517800 0.677895 10.439197
-71.406700 -20.412600 0.695979 10.079992
-71.432500 -20.307300 0.750949 10.428686
-71.458200 -20.202100 0.766190 10.819885
-71.484000 -20.096900 0.776532 10.539119
-71.509800 -19.991700 0.793855 10.756695
-71.535600 -19.886400 0.811178 10.756695
-71.561400 -19.781200 0.828501 10.816538
-71.587200 -19.676000 0.839800 10.662680
-71.613000 -19.570800 0.852989 11.239844
-71.638800 -19.465600 0.855902 10.550372
-71.664600 -19.360300 0.860724 10.830096
-71.690400 -19.255100 0.862707 11.189243
-71.716200 -19.149900 0.884501 11.610283
-71.742000 -19.044700 0.904326 12.090930
-71.767700 -18.939400 0.890291 12.647595
-71.185800 -20.918700 0.691432 11.134266
-71.211500 -20.813500 0.691459 10.921187
-71.237300 -20.708200 0.688034 10.763388
-71.263100 -20.603000 0.682965 10.629609
-71.288900 -20.497800 0.677895 10.549017
-71.314700 -20.392600 0.695979 10.543122
-71.340500 -20.287300 0.743329 10.561197
-71.366300 -20.182100 0.758570 10.822500
-71.392100 -20.076900 0.772139 10.686844
-71.417900 -19.971700 0.785193 11.051752
-71.443700 -19.866500 0.802516 10.961546
-71.469500 -19.761200 0.819839 11.183314
-71.495300 -19.656000 0.831138 11.402009
-71.521000 -19.550800 0.848462 11.659000
-71.546800 -19.445600 0.854131 11.956119
-71.572600 -19.340300 0.874402 12.301373
-71.598400 -19.235100 0.897987 12.699162
-71.624200 -19.129900 0.882426 13.156527
-71.650000 -19.024700 0.873129 13.681872
-71.675800 -18.919400 0.853293 14.287439
-71.093800 -20.898700 0.655896 12.637301
-71.119600 -20.793500 0.661753 12.403086
-71.145400 -20.688200 0.667602 12.230763
-71.171200 -20.583000 0.673531 12.116143
-71.197000 -20.477800 0.675561 12.054282
-71.222800 -20.372600 0.680586 12.039316
-71.248600 -20.267400 0.709523 12.065981
-71.274300 -20.162100 0.749278 12.132054
-71.300100 -20.056900 0.764519 12.230658
-71.325900 -19.951700 0.776532 12.362673
-71.351700 -19.846500 0.794442 12.528555
-71.377500 -19.741200 0.819482 12.730884
-71.403300 -19.636000 0.845547 12.971495
-71.429100 -19.530800 0.874721 13.254785
-71.454900 -19.425600 0.889545 13.584839
-71.480700 -19.320300 0.876557 13.966988
-71.506500 -19.215100 0.863924 14.404763
-71.532300 -19.109900 0.836045 14.905650
-71.558100 -19.004700 0.820148 15.478753
-71.583800 -18.899400 0.797926 16.139727
-71.001900 -20.878700 0.619993 14.349536
-71.027600 -20.773500 0.621957 14.097995
-71.053400 -20.668300 0.641284 13.910235
-71.079200 -20.563000 0.672155 13.785249
-71.105000 -20.457800 0.699383 13.717044
-71.130800 -20.352600 0.726623 13.700240
-71.156600 -20.247400 0.754265 13.729286
-71.182400 -20.142100 0.787759 13.800499
-71.208200 -20.036900 0.823202 13.909859
-71.234000 -19.931700 0.856185 14.056816
-71.259800 -19.826500 0.880743 14.241762
-71.285600 -19.721200 0.891714 14.467475
-71.311400 -19.616000 0.887029 14.735600
-71.337100 -19.510800 0.870069 15.052434
-71.362900 -19.405600 0.854278 15.418112
-71.388700 -19.300300 0.841440 15.839732
-71.414500 -19.195100 0.815284 16.320593
-71.440300 -19.089900 0.788733 16.868456
-71.466100 -18.984700 0.765669 17.493138
-71.491900 -18.879500 0.742645 18.208448
-70.547900 -20.780900 0.802804 26.133834
-70.573700 -20.675700 0.789705 25.798141
-70.599500 -20.570400 0.809377 25.532845
-70.625300 -20.465200 0.833369 25.335760
-70.651100 -20.360000 0.883380 25.205308
-70.676900 -20.254800 0.927563 25.139485
-70.702700 -20.149500 0.967849 25.137558
-70.728400 -20.044300 0.988789 25.200450
-70.754200 -19.939100 0.978568 25.323456
-70.780000 -19.833900 0.956954 25.511159
-70.805800 -19.728700 0.931904 25.766200
-70.831600 -19.623400 0.870760 26.093153
-70.857400 -19.518200 0.815021 26.493926
-70.883200 -19.413000 0.766193 26.973623
-70.909000 -19.307800 0.711220 27.536228
-70.934800 -19.202500 0.656654 28.187257
-70.960600 -19.097300 0.605888 28.928964
-70.986400 -18.992100 0.557834 29.769460
-71.012200 -18.886900 0.518934 30.718908
-71.037900 -18.781600 0.488783 31.796507
-70.459600 -20.761700 0.836207 29.075206
-70.485400 -20.656500 0.822078 28.727099
-70.511200 -20.551200 0.843046 28.447915
-70.537000 -20.446000 0.869292 28.235371
-70.562800 -20.340800 0.911821 28.089013
-70.588600 -20.235600 0.958052 28.007901
-70.614400 -20.130300 0.985612 27.993024
-70.640200 -20.025100 0.988279 28.043655
-70.666000 -19.919900 0.983504 28.162498
-70.691700 -19.814700 0.964264 28.355280
-70.717500 -19.709500 0.935436 28.619260
-70.743300 -19.604200 0.874384 28.962641
-70.769100 -19.499000 0.811750 29.387619
-70.794900 -19.393800 0.745465 29.899529
-70.820700 -19.288600 0.684141 30.502642
-70.846500 -19.183300 0.629563 31.202669
-70.872300 -19.078100 0.575102 32.001683
-70.898100 -18.972900 0.520440 32.907517
-70.923900 -18.867700 0.475436 33.929469
-70.949700 -18.762400 0.439860 35.082295
-70.371300 -20.742500 0.869409 32.214216
-70.397100 -20.637300 0.858120 31.855306
-70.422900 -20.532000 0.861163 31.563415
-70.448700 -20.426800 0.895970 31.336345
-70.474500 -20.321600 0.935336 31.174368
-70.500300 -20.216400 0.970458 31.077963
-70.526100 -20.111200 0.987093 31.048827
-70.551900 -20.005900 0.996537 31.090451
-70.577700 -19.900700 0.990572 31.204438
-70.603500 -19.795500 0.984307 31.395485
-70.629200 -19.690300 0.925420 31.671106
-70.655000 -19.585000 0.863375 32.030378
-70.680800 -19.479800 0.797568 32.478896
-70.706600 -19.374600 0.728672 33.022402
-70.732400 -19.269400 0.660288 33.665254
-70.758200 -19.164100 0.597386 34.413501
-70.784000 -19.058900 0.543569 35.268751
-70.809800 -18.953700 0.485356 36.238605
-70.835600 -18.848500 0.428879 37.330944
-70.861400 -18.743200 0.392020 38.559061
-70.283000 -20.723300 0.894016 35.537133
-70.308800 -20.618100 0.882776 35.169364
-70.334600 -20.512800 0.882651 34.866418
-70.360400 -20.407600 0.911996 34.626521
-70.386200 -20.302400 0.939786 34.450186
-70.412000 -20.197200 0.964983 34.339634
-70.437800 -20.092000 0.975304 34.297783
-70.463600 -19.986700 0.957916 34.330230
-70.489400 -19.881500 0.951148 34.439695
-70.515200 -19.776300 0.952817 34.632362
-70.541000 -19.671100 0.905305 34.912945
-70.566800 -19.565800 0.842851 35.287868
-70.592500 -19.460600 0.778235 35.762814
-70.618300 -19.355400 0.709780 36.336820
-70.644100 -19.250200 0.637642 37.017705
-70.669900 -19.144900 0.571125 37.811732
-70.695700 -19.039700 0.506956 38.719980
-70.721500 -18.934500 0.447154 39.749470
-70.747300 -18.829300 0.389873 40.906701
-70.773100 -18.724000 0.339855 42.202833
-70.185300 -20.684200 0.875767 39.509491
-70.211100 -20.579000 0.880491 39.144236
-70.236900 -20.473700 0.876081 38.841472
-70.262700 -20.368500 0.907838 38.599605
-70.288500 -20.263300 0.938163 38.420046
-70.314300 -20.158100 0.947623 38.306875
-70.340100 -20.052800 0.928601 38.265847
-70.365900 -19.947600 0.912379 38.301973
-70.391700 -19.842400 0.910718 38.422172
-70.417400 -19.737200 0.903401 38.636779
-70.443200 -19.632000 0.877588 38.943539
-70.469000 -19.526700 0.815490 39.353078
-70.494800 -19.421500 0.735494 39.867275
-70.520600 -19.316300 0.651464 40.492263
-70.546400 -19.211100 0.588387 41.232118
-70.572200 -19.105800 0.523252 42.093020
-70.598000 -19.000600 0.457663 43.075330
-70.623800 -18.895400 0.395841 44.185208
-70.649600 -18.790200 0.338526 45.427580
-70.675400 -18.684900 0.283729 46.811185
-70.099600 -20.665600 0.860253 43.049041
-70.125400 -20.560300 0.858088 42.680298
-70.151200 -20.455100 0.856435 42.371562
-70.177000 -20.349900 0.888453 42.122544
-70.202800 -20.244700 0.895181 41.935191
-70.228600 -20.139400 0.895459 41.814828
-70.254400 -20.034200 0.893278 41.766664
-70.280200 -19.929000 0.878291 41.798988
-70.306000 -19.823800 0.860867 41.919824
-70.331700 -19.718500 0.844165 42.140928
-70.357500 -19.613300 0.817034 42.458534
-70.383300 -19.508100 0.753645 42.882455
-70.409100 -19.402900 0.666458 43.417717
-70.434900 -19.297600 0.591855 44.069787
-70.460700 -19.192400 0.535647 44.839979
-70.486500 -19.087200 0.478179 45.733056
-70.512300 -18.982000 0.415087 46.752903
-70.538100 -18.876800 0.354797 47.902267
-70.563900 -18.771500 0.293643 49.187328
-70.589700 -18.666300 0.238277 50.607256
-70.013900 -20.646900 0.812626 46.692119
-70.039700 -20.541700 0.830435 46.321417
-70.065500 -20.436500 0.836975 46.010655
-70.091300 -20.331200 0.849637 45.758944
-70.117100 -20.226000 0.837020 45.567699
-70.142900 -20.120800 0.831479 45.442490
-70.168700 -20.015600 0.835539 45.391806
-70.194500 -19.910400 0.817517 45.423962
-70.220300 -19.805100 0.803369 45.549312
-70.246100 -19.699900 0.789151 45.772721
-70.271800 -19.594700 0.738842 46.105877
-70.297600 -19.489500 0.681728 46.545329
-70.323400 -19.384200 0.607012 47.101182
-70.349200 -19.279000 0.532188 47.773935
-70.375000 -19.173800 0.475617 48.568652
-70.400800 -19.068600 0.422963 49.488335
-70.426600 -18.963300 0.371061 50.537619
-70.452400 -18.858100 0.313172 51.714747
-70.478200 -18.752900 0.251919 53.023367
-70.504000 -18.647700 0.189646 54.465723
-69.928200 -20.628300 0.725014 50.405672
-69.954000 -20.523100 0.764990 50.037447
-69.979800 -20.417800 0.776890 49.728648
-70.005600 -20.312600 0.782151 49.477267
-70.031400 -20.207400 0.774962 49.286110
-70.057200 -20.102200 0.767492 49.161910
-70.083000 -19.996900 0.768094 49.113792
-70.108800 -19.891700 0.750830 49.150206
-70.134600 -19.786500 0.737898 49.280722
-70.160400 -19.681300 0.703059 49.513933
-70.186100 -19.576000 0.658198 49.860757
-70.211900 -19.470800 0.598909 50.315571
-70.237700 -19.365600 0.537515 50.886647
-70.263500 -19.260400 0.477943 51.577703
-70.289300 -19.155200 0.414878 52.390714
-70.315100 -19.049900 0.359903 53.330550
-70.340900 -18.944700 0.311433 54.394468
-70.366700 -18.839500 0.269368 55.585931
-70.392500 -18.734300 0.213449 56.904939
-70.418300 -18.629000 0.158969 58.354804
-69.831800 -20.589500 0.640234 54.744380
-69.857600 -20.484300 0.674141 54.393287
-69.883400 -20.379000 0.679893 54.100676
-69.909200 -20.273800 0.685474 53.865458
-69.935000 -20.168600 0.684143 53.691156
-69.960800 -20.063400 0.675148 53.585779
-69.986600 -19.958100 0.661035 53.559200
-70.012400 -19.852900 0.635209 53.620566
-70.038200 -19.747700 0.600181 53.779459
-70.064000 -19.642500 0.565812 54.044242
-70.089800 -19.537300 0.524261 54.419525
-70.115500 -19.432000 0.469759 54.915449
-70.141300 -19.326800 0.431349 55.522375
-70.167100 -19.221600 0.375849 56.248473
-70.192900 -19.116400 0.327406 57.094563
-70.218700 -19.011100 0.278940 58.064237
-70.244500 -18.905900 0.240083 59.153533
-70.270300 -18.800700 0.203012 60.364504
-70.296100 -18.695500 0.161390 61.696049
-70.321900 -18.590200 0.108625 63.150031
-69.747500 -20.571100 0.537568 58.430307
-69.773300 -20.465900 0.570330 58.089922
-69.799000 -20.360700 0.590361 57.811526
-69.824800 -20.255500 0.600823 57.586796
-69.850600 -20.150200 0.592396 57.424600
-69.876400 -20.045000 0.582731 57.330578
-69.902200 -19.939800 0.556884 57.315543
-69.928000 -19.834600 0.522537 57.389694
-69.953800 -19.729400 0.488798 57.562718
-69.979600 -19.624100 0.455636 57.842811
-70.005400 -19.518900 0.421675 58.232672
-70.031200 -19.413700 0.381184 58.735855
-70.057000 -19.308500 0.340510 59.354409
-70.082800 -19.203200 0.299929 60.090310
-70.108500 -19.098000 0.252797 60.945227
-70.134300 -18.992800 0.221206 61.911923
-70.160100 -18.887600 0.188110 62.994618
-70.185900 -18.782300 0.155484 64.193896
-70.211700 -18.677100 0.120023 65.504547
-70.237500 -18.571900 0.085607 66.926945
-69.663100 -20.552800 0.405060 62.076898
-69.688900 -20.447600 0.445203 61.751669
-69.714700 -20.342300 0.478911 61.485352
-69.740500 -20.237100 0.488302 61.276016
-69.766300 -20.131900 0.499719 61.129076
-69.792000 -20.026700 0.482800 61.055540
-69.817800 -19.921500 0.449465 61.057469
-69.843600 -19.816200 0.417110 61.149832
-69.869400 -19.711000 0.382057 61.339969
-69.895200 -19.605800 0.346234 61.635131
-69.921000 -19.500600 0.310444 62.039858
-69.946800 -19.395300 0.274586 62.557256
-69.972600 -19.290100 0.247145 63.185059
-69.998400 -19.184900 0.209008 63.924180
-70.024200 -19.079700 0.172733 64.774033
-70.050000 -18.974400 0.140695 65.735493
-70.075800 -18.869200 0.131785 66.803326
-70.101500 -18.764000 0.107070 67.981786
-70.127300 -18.658800 0.076312 69.261005
-70.153100 -18.553500 0.056600 70.646223
-69.578700 -20.534400 0.286449 65.647175
-69.604500 -20.429200 0.332239 65.342736
-69.630300 -20.324000 0.363779 65.095639
-69.656100 -20.218800 0.363825 64.907130
-69.681900 -20.113600 0.377560 64.780900
-69.707700 -20.008300 0.379137 64.725852
-69.733500 -19.903100 0.336355 64.749027
-69.759300 -19.797900 0.307423 64.861679
-69.785000 -19.692700 0.272249 65.075753
-69.810800 -19.587400 0.230998 65.390942
-69.836600 -19.482200 0.196252 65.811427
-69.862400 -19.377000 0.161017 66.339995
-69.888200 -19.271800 0.137063 66.975509
-69.914000 -19.166500 0.116290 67.718814
-69.939800 -19.061300 0.089945 68.564220
-69.965600 -18.956100 0.080157 69.511828
-69.991400 -18.850900 0.071618 70.559179
-70.017200 -18.745600 0.058691 71.706612
-70.043000 -18.640400 0.038413 72.948148
-70.068800 -18.535200 0.014026 74.285183
