-72.915700 -38.902100 0.370986 54.499036
-73.175600 -38.848100 0.642180 44.138927
-73.436800 -38.790800 0.744861 35.071066
-73.696700 -38.736900 0.705541 27.535731
-73.970000 -38.679100 0.576825 21.039886
-74.229900 -38.621100 0.390996 16.014889
-74.513100 -38.562300 0.122100 11.679713
-74.783000 -38.503300 0.050856 8.568309
-72.836000 -38.688400 0.331312 55.011838
-73.095900 -38.633400 0.556302 44.710785
-73.357100 -38.578000 0.664481 35.804461
-73.617000 -38.522000 0.636981 28.393810
-73.880200 -38.464100 0.532936 22.173264
-74.150100 -38.407100 0.373680 16.912719
-74.423200 -38.347200 0.131136 12.586334
-74.693100 -38.289200 0.072738 9.263200
-72.763200 -38.471200 0.343875 55.482524
-73.023100 -38.416200 0.585576 45.142035
-73.284300 -38.361000 0.664442 36.286773
-73.534200 -38.305000 0.614305 29.213065
-73.807600 -38.247400 0.490581 22.817965
-74.077500 -38.190400 0.338297 17.574832
-74.350700 -38.130900 0.120864 13.190876
-74.620500 -38.072900 0.091211 9.824446
-72.733300 -38.249500 0.418873 54.496565
-72.993200 -38.193500 0.671147 44.232733
-73.244400 -38.138400 0.722646 35.862239
-73.504300 -38.082400 0.638757 28.727636
-73.777700 -38.025200 0.493635 22.547452
-74.037600 -37.968200 0.334403 17.618625
-74.310900 -37.909900 0.171536 13.288608
-74.580700 -37.850900 0.176406 9.820946
-72.709900 -38.025500 0.516425 53.490717
-72.959800 -37.970500 0.734006 43.660782
-73.221000 -37.914400 0.781299 35.115163
-73.480900 -37.858400 0.711809 28.192913
-73.744300 -37.801100 0.565695 22.397836
-74.014200 -37.744100 0.388019 17.404179
-74.287400 -37.685900 0.242759 13.153133
-74.557300 -37.626900 0.212894 9.760730
-72.686500 -37.802900 0.584767 52.703380
-72.936400 -37.747900 0.790301 42.947224
-73.197700 -37.691800 0.849950 34.541603
-73.457600 -37.636800 0.812693 27.781324
-73.720900 -37.578300 0.651942 22.116895
-73.980800 -37.521300 0.469114 17.375566
-74.254000 -37.463000 0.321537 13.147329
-74.523900 -37.404000 0.176008 9.724621
-72.646100 -37.578900 0.622511 52.754802
-72.896000 -37.524900 0.840177 42.999127
-73.157300 -37.467700 0.929279 34.586782
-73.417200 -37.412700 0.914000 27.828294
-73.680500 -37.355300 0.729393 22.164611
-73.940400 -37.298300 0.520626 17.411458
-74.213600 -37.238900 0.392955 13.166145
-74.483500 -37.181900 0.195158 9.735973
-72.614700 -37.356800 0.641303 52.559871
-72.864600 -37.301800 0.882655 42.900848
-73.125900 -37.245700 0.974648 34.526217
-73.385800 -37.190700 0.928308 27.730231
-73.649100 -37.133300 0.720649 21.996083
-73.909000 -37.076300 0.541443 17.186413
-74.182200 -37.016900 0.439800 12.932641
-74.442100 -36.958900 0.268742 9.663656
-72.573400 -37.134800 0.623373 52.784201
-72.823300 -37.079800 0.871530 43.231103
-73.084500 -37.024600 0.995836 34.824090
-73.334400 -36.968600 0.917708 28.103701
-73.597700 -36.911200 0.702162 22.130749
-73.867600 -36.854200 0.558936 16.970961
-74.130800 -36.794800 0.492974 12.796777
-74.400700 -36.736800 0.345534 9.472375
-72.515200 -36.914900 0.549607 53.547927
-72.765100 -36.859900 0.798060 44.058034
-73.026300 -36.804600 0.940186 35.534780
-73.276200 -36.749600 0.916390 28.574064
-73.539500 -36.690900 0.755762 22.294085
-73.799400 -36.634900 0.625552 17.067394
-74.072500 -36.574300 0.557757 12.605816
-74.342400 -36.516300 0.448935 9.259963
-72.454900 -36.698800 0.510160 54.082165
-72.714800 -36.643800 0.734450 44.314063
-72.966000 -36.587600 0.924374 36.029626
-73.215900 -36.531600 0.960464 28.854904
-73.479100 -36.473900 0.845508 22.324841
-73.739000 -36.416900 0.710165 16.892161
-74.012100 -36.358200 0.611654 12.348955
-74.272000 -36.299200 0.521568 9.110065
-72.386400 -36.485300 0.496421 54.466257
-72.636300 -36.430300 0.720242 45.020098
-72.887400 -36.373900 0.933513 36.586842
-73.137400 -36.317900 0.997890 29.208998
-73.400500 -36.260000 0.915966 22.468637
-73.660400 -36.203000 0.773647 16.874017
-73.923400 -36.144000 0.639270 12.376161
-74.193300 -36.085000 0.514444 9.048009
-72.289600 -36.280200 0.452413 55.463304
-72.539500 -36.225200 0.700129 45.834142
-72.790600 -36.168700 0.928111 37.179015
-73.040500 -36.113700 0.999658 29.618182
-73.303500 -36.055500 0.932488 22.716152
-73.563400 -35.997500 0.789107 17.000874
-73.826200 -35.938300 0.636937 12.432099
-74.086100 -35.879300 0.568867 9.181443
-72.165200 -36.079100 0.331404 57.066820
-72.415100 -36.024100 0.652943 47.109499
-72.666200 -35.967600 0.879982 38.104010
-72.916100 -35.912600 0.990908 30.277493
-73.179100 -35.854400 0.903852 23.195669
-73.429000 -35.797400 0.766148 17.555956
-73.701800 -35.737200 0.613575 12.707697
-73.961800 -35.679200 0.601685 10.069210
-72.054800 -35.870500 0.284079 57.635563
-72.304800 -35.815500 0.608856 47.364225
-72.555900 -35.760200 0.850410 38.076284
-72.805800 -35.704200 0.970453 30.041444
-73.069000 -35.646300 0.897347 22.902526
-73.318900 -35.589300 0.749897 17.302647
-73.591900 -35.529500 0.573462 12.538879
-73.851800 -35.471500 0.619070 9.218454
-71.978100 -35.655500 0.267218 56.498130
-72.228000 -35.600500 0.583644 46.016331
-72.479200 -35.545200 0.818264 36.591459
-72.729100 -35.489200 0.955060 28.554000
-72.992300 -35.431500 0.970558 21.570372
-73.242200 -35.374500 0.792626 16.216266
-73.505200 -35.314900 0.612460 11.879539
-73.775100 -35.256900 0.624464 8.859287
-71.917700 -35.438400 0.288272 54.508751
-72.167600 -35.383400 0.582382 43.900653
-72.418800 -35.328200 0.812000 34.479031
-72.668700 -35.271200 0.952056 26.563154
-72.931900 -35.214400 0.986439 19.869869
-73.181800 -35.156400 0.886499 14.845518
-73.444900 -35.098800 0.675012 10.898152
-73.704800 -35.039800 0.626670 8.154473
-71.836400 -35.229400 0.303499 53.496503
-72.076300 -35.174400 0.578578 43.101941
-72.327400 -35.117900 0.831625 33.543476
-72.577300 -35.061900 0.992609 25.630151
-72.830300 -35.003800 0.998934 19.206172
-73.090200 -34.946800 0.985190 14.151293
-73.353000 -34.887600 0.747886 10.380849
-73.612900 -34.828600 0.630746 7.807592
-71.702500 -35.031900 0.254401 54.998630
-71.942500 -34.976900 0.557520 44.290510
-72.193500 -34.920300 0.830765 34.385809
-72.443400 -34.865300 0.997867 26.185078
-72.696300 -34.805900 0.999456 19.520593
-72.956200 -34.748900 0.967207 14.315736
-73.218900 -34.689600 0.784272 10.460994
-73.478800 -34.630600 0.636692 7.868095
-71.563200 -34.836800 0.178951 57.023137
-71.813100 -34.781800 0.508098 45.641960
-72.054200 -34.725200 0.800120 35.754367
-72.304100 -34.670200 0.995507 27.183231
-72.556900 -34.611800 0.994102 20.212901
-72.816800 -34.554800 0.955267 14.746374
-73.079500 -34.494500 0.742481 10.695932
-73.339400 -34.436500 0.640768 7.980760
-71.437100 -34.643500 0.066536 58.773284
-71.687100 -34.588500 0.446076 47.190603
-71.938100 -34.532900 0.712785 36.679652
-72.178100 -34.476900 0.930958 28.116871
-72.430900 -34.418600 0.898200 20.850502
-72.690800 -34.361600 0.843881 15.131723
-72.953500 -34.301200 0.660965 10.890663
-73.203400 -34.243200 0.601519 8.150774
-71.313100 -34.446800 0.001545 60.619511
-71.553100 -34.391800 0.348435 49.329562
-71.804100 -34.336300 0.600715 38.491560
-72.044000 -34.280300 0.740245 29.545849
-72.296900 -34.221900 0.793691 21.882812
-72.556800 -34.164900 0.707860 15.817008
-72.809500 -34.104600 0.586087 11.425724
-73.069400 -34.046600 0.597189 8.447831
-71.218800 -34.238400 0.000000 61.239902
-71.458700 -34.182400 0.309236 49.946054
-71.709900 -34.127200 0.564295 38.998929
-71.949800 -34.071200 0.660233 29.911511
-72.203000 -34.013600 0.643622 22.100393
-72.462900 -33.956600 0.584279 15.904957
-72.715900 -33.898000 0.515123 11.429563
-72.975900 -33.839000 0.577412 8.548315
-71.172600 -34.017200 0.000000 59.935285
-71.422600 -33.962200 0.365466 48.339505
-71.663800 -33.906000 0.589848 37.921867
-71.903700 -33.850000 0.641293 28.976544
-72.166900 -33.792700 0.591229 21.071280
-72.416800 -33.735700 0.531586 15.265444
-72.669900 -33.677300 0.469005 10.925517
-72.929800 -33.618300 0.544316 8.104029
-71.158300 -33.792000 0.027531 57.726554
-71.398200 -33.737000 0.430448 46.729040
-71.639400 -33.680900 0.634313 36.513620
-71.889300 -33.626000 0.655020 27.496361
-72.142500 -33.567800 0.602058 20.129914
-72.392500 -33.510800 0.526901 14.523666
-72.645500 -33.452700 0.458383 10.371926
-72.905400 -33.393700 0.510031 8.004428
