-71.324400 -21.154300 0.721399 10.052225
-71.331900 -21.019500 0.691260 10.136606
-71.339400 -20.884700 0.693104 9.591432
-71.346900 -20.749800 0.688034 9.821671
-71.354400 -20.615000 0.682965 10.157039
-71.361900 -20.480200 0.677895 10.439197
-71.369400 -20.345400 0.695979 10.185418
-71.376900 -20.210600 0.756898 10.819885
-71.384400 -20.075800 0.772139 10.780578
-71.391900 -19.941000 0.785193 11.353131
-71.399400 -19.806200 0.802516 11.997172
-71.406900 -19.671400 0.830751 12.683587
-71.414400 -19.536600 0.886600 13.464028
-71.421900 -19.401800 0.872999 14.350972
-71.429400 -19.267000 0.849050 15.357785
-71.436900 -19.132200 0.798203 16.500093
-71.444400 -18.997400 0.758656 17.799172
-71.451900 -18.862600 0.716073 19.286221
-71.459400 -18.727800 0.677562 21.005345
-71.233600 -21.149800 0.721399 10.212664
-71.241100 -21.015000 0.691260 10.200827
-71.248600 -20.880200 0.693104 10.290543
-71.256100 -20.745400 0.688034 10.410021
-71.263600 -20.610600 0.682965 10.600554
-71.271100 -20.475800 0.677895 10.870147
-71.278600 -20.341000 0.695979 11.297983
-71.286100 -20.206200 0.743329 11.744277
-71.293600 -20.071300 0.758570 12.262977
-71.301100 -19.936500 0.787316 12.854686
-71.308600 -19.801700 0.850048 13.525257
-71.316100 -19.666900 0.892429 14.283745
-71.323600 -19.532100 0.871402 15.141742
-71.331100 -19.397300 0.841644 16.112010
-71.338600 -19.262500 0.809503 17.208164
-71.346100 -19.127700 0.757299 18.446280
-71.353600 -18.992900 0.714399 19.848370
-71.361100 -18.858100 0.666533 21.446604
-71.368600 -18.723300 0.627783 23.286186
-71.142900 -21.145300 0.729036 11.589381
-71.150400 -21.010500 0.696534 11.566806
-71.157900 -20.875700 0.690476 11.625257
-71.165400 -20.740900 0.683703 11.774527
-71.172900 -20.606100 0.676595 12.016908
-71.180400 -20.471300 0.669454 12.349324
-71.187900 -20.336500 0.696131 12.766417
-71.195400 -20.201700 0.746703 13.263307
-71.202900 -20.066900 0.810592 13.837542
-71.210400 -19.932100 0.873590 14.490423
-71.217900 -19.797300 0.891272 15.227393
-71.225400 -19.662500 0.892373 16.057780
-71.232900 -19.527700 0.858264 16.993662
-71.240400 -19.392800 0.811631 18.049254
-71.247900 -19.258000 0.767885 19.236879
-71.255400 -19.123200 0.718280 20.574064
-71.262900 -18.988400 0.673006 22.083466
-71.270400 -18.853600 0.619304 23.797699
-71.277900 -18.718800 0.579674 25.761850
-71.052100 -21.140800 0.652391 13.093062
-71.059600 -21.006000 0.645491 13.078794
-71.067100 -20.871200 0.638616 13.152247
-71.074600 -20.736400 0.631745 13.323860
-71.082100 -20.601600 0.653610 13.595985
-71.089600 -20.466800 0.706138 13.965140
-71.097100 -20.332000 0.767931 14.425296
-71.104600 -20.197200 0.827789 14.970958
-71.112100 -20.062400 0.866301 15.599304
-71.119600 -19.927600 0.901997 16.311529
-71.127100 -19.792800 0.908453 17.113362
-71.134600 -19.658000 0.889065 18.014616
-71.142100 -19.523200 0.845045 19.028042
-71.149600 -19.388400 0.790373 20.167659
-71.157100 -19.253600 0.741709 21.448335
-71.164600 -19.118800 0.681109 22.887432
-71.172100 -18.984000 0.628591 24.508025
-71.179600 -18.849200 0.576921 26.342470
-71.187100 -18.714300 0.535647 28.436129
-70.961400 -21.136300 0.649647 14.787918
-70.968900 -21.001500 0.632029 14.786060
-70.976400 -20.866700 0.625921 14.877243
-70.983900 -20.731900 0.643046 15.072435
-70.991400 -20.597100 0.676850 15.374094
-70.998900 -20.462300 0.735861 15.778542
-71.006400 -20.327500 0.800350 16.279398
-71.013900 -20.192700 0.859948 16.870895
-71.021400 -20.057900 0.894338 17.550130
-71.028900 -19.923100 0.927348 18.318567
-71.036400 -19.788300 0.913824 19.182490
-71.043900 -19.653500 0.882694 20.152440
-71.051400 -19.518700 0.831788 21.242009
-71.058900 -19.383900 0.769302 22.466190
-71.066400 -19.249100 0.717060 23.840776
-71.073900 -19.114300 0.650625 25.383768
-71.081400 -18.979500 0.587692 27.118336
-71.088900 -18.844700 0.535026 29.075709
-71.096400 -18.709900 0.486422 31.296427
-70.870600 -21.131900 0.684531 16.684287
-70.878100 -20.997100 0.670791 16.699305
-70.885600 -20.862300 0.658091 16.811240
-70.893100 -20.727500 0.675358 17.031366
-70.900600 -20.592600 0.701943 17.362650
-70.908100 -20.457800 0.756335 17.800685
-70.915600 -20.323000 0.820934 18.339383
-70.923100 -20.188200 0.890576 18.973086
-70.930600 -20.053400 0.921387 19.699301
-70.938100 -19.918600 0.945933 20.520161
-70.945600 -19.783800 0.926273 21.442826
-70.953100 -19.649000 0.881047 22.478797
-70.960600 -19.514200 0.819075 23.642637
-70.968100 -19.379400 0.757277 24.950398
-70.975600 -19.244600 0.690245 26.418814
-70.983100 -19.109800 0.619477 28.066377
-70.990600 -18.975000 0.550111 29.915824
-70.998100 -18.840200 0.495300 31.996267
-71.005600 -18.705400 0.438864 34.343827
-70.779900 -21.127400 0.724620 18.783081
-70.787400 -20.992600 0.710391 18.819549
-70.794900 -20.857800 0.697072 18.955477
-70.802400 -20.723000 0.705506 19.202091
-70.809900 -20.588200 0.729872 19.561974
-70.817400 -20.453400 0.776015 20.031577
-70.824900 -20.318600 0.847136 20.604792
-70.832400 -20.183800 0.920985 21.276542
-70.839900 -20.049000 0.969732 22.045248
-70.847400 -19.914100 0.966352 22.914982
-70.854900 -19.779300 0.940992 23.892538
-70.862400 -19.644500 0.875856 24.991311
-70.869900 -19.509700 0.811770 26.226851
-70.877400 -19.374900 0.744576 27.616194
-70.884900 -19.240100 0.668324 29.176846
-70.892400 -19.105300 0.594341 30.927451
-70.899900 -18.970500 0.519405 32.889633
-70.907400 -18.835700 0.454305 35.089358
-70.914900 -18.700900 0.396239 37.557001
-70.689100 -21.122900 0.766939 21.092012
-70.696600 -20.988100 0.751321 21.154004
-70.704100 -20.853300 0.737177 21.316903
-70.711600 -20.718500 0.735496 21.591467
-70.719100 -20.583700 0.763251 21.980132
-70.726600 -20.448900 0.796545 22.479541
-70.734100 -20.314100 0.879957 23.084196
-70.741600 -20.179300 0.944216 23.790047
-70.749100 -20.044500 0.989006 24.596937
-70.756600 -19.909700 0.973125 25.509679
-70.764100 -19.774900 0.946239 26.538152
-70.771600 -19.640100 0.891587 27.696234
-70.779100 -19.505300 0.814860 29.000388
-70.786600 -19.370500 0.731463 30.468342
-70.794100 -19.235600 0.647545 32.119470
-70.801600 -19.100800 0.572106 33.969234
-70.809100 -18.966000 0.492551 36.038645
-70.816600 -18.831200 0.412268 38.349572
-70.824100 -18.696400 0.352308 40.925726
-70.598400 -21.118400 0.811006 23.607307
-70.605900 -20.983600 0.792173 23.697891
-70.613400 -20.848800 0.779131 23.890062
-70.620900 -20.714000 0.768321 24.193695
-70.628400 -20.579200 0.797027 24.610865
-70.635900 -20.444400 0.841919 25.138371
-70.643400 -20.309600 0.908329 25.771520
-70.650900 -20.174800 0.970270 26.507665
-70.658400 -20.040000 0.988138 27.348516
-70.665900 -19.905200 0.982321 28.300863
-70.673400 -19.770400 0.967233 29.376329
-70.680900 -19.635600 0.896521 30.590045
-70.688400 -19.500800 0.812259 31.959157
-70.695900 -19.366000 0.722208 33.501605
-70.703400 -19.231200 0.632819 35.235074
-70.710900 -19.096400 0.546516 37.176659
-70.718400 -18.961600 0.463550 39.343328
-70.725900 -18.826800 0.381809 41.752149
-70.733400 -18.692000 0.310371 44.419580
-70.507600 -21.113900 0.852486 26.333611
-70.515100 -20.979100 0.834267 26.454491
-70.522600 -20.844300 0.816444 26.677325
-70.530100 -20.709500 0.805549 27.010724
-70.537600 -20.574700 0.827867 27.456091
-70.545100 -20.439900 0.870290 28.010256
-70.552600 -20.305100 0.931980 28.669394
-70.560100 -20.170300 0.985111 29.432489
-70.567600 -20.035500 0.994435 30.303492
-70.575100 -19.900700 0.989478 31.291524
-70.582600 -19.765900 0.967300 32.410059
-70.590100 -19.631100 0.885447 33.675386
-70.597600 -19.496300 0.802672 35.104957
-70.605100 -19.361500 0.711897 36.716277
-70.612600 -19.226700 0.614550 38.525981
-70.620100 -19.091900 0.524602 40.549254
-70.627600 -18.957100 0.436585 42.799694
-70.635100 -18.822300 0.352676 45.289014
-70.642600 -18.687500 0.272437 48.026276
-70.416900 -21.109500 0.873752 29.261039
-70.424400 -20.974700 0.876325 29.412156
-70.431900 -20.839900 0.855583 29.665676
-70.439400 -20.705100 0.841374 30.028653
-70.446900 -20.570300 0.845439 30.501508
-70.454400 -20.435400 0.892119 31.081529
-70.461900 -20.300600 0.943382 31.764384
-70.469400 -20.165800 0.973521 32.551459
-70.476900 -20.031000 0.973079 33.449158
-70.484400 -19.896200 0.950818 34.469084
-70.491900 -19.761400 0.943870 35.626569
-70.499400 -19.626600 0.873900 36.938817
-70.506900 -19.491800 0.792293 38.423063
-70.514400 -19.357000 0.685288 40.095625
-70.521900 -19.222200 0.586963 41.971340
-70.529400 -19.087400 0.494400 44.062709
-70.536900 -18.952600 0.405414 46.379376
-70.544400 -18.817800 0.316639 48.927496
-70.551900 -18.683000 0.233353 51.709070
-70.326100 -21.105000 0.879152 32.389436
-70.333600 -20.970200 0.892912 32.569252
-70.341100 -20.835400 0.892463 32.852308
-70.348600 -20.700600 0.871842 33.243926
-70.356100 -20.565800 0.874291 33.743224
-70.363600 -20.431000 0.902793 34.346287
-70.371100 -20.296200 0.938721 35.050753
-70.378600 -20.161400 0.968423 35.859149
-70.386100 -20.026600 0.938113 36.780329
-70.393600 -19.891800 0.917534 37.828370
-70.401100 -19.756900 0.900010 39.021475
-70.408600 -19.622100 0.850779 40.375151
-70.416100 -19.487300 0.753554 41.906922
-70.423600 -19.352500 0.631857 43.631360
-70.431100 -19.217700 0.534389 45.560678
-70.438600 -19.082900 0.451882 47.703996
-70.446100 -18.948100 0.369148 50.066612
-70.453600 -18.813300 0.282735 52.649211
-70.461100 -18.678500 0.200860 55.447354
-70.235400 -21.100500 0.844931 35.700374
-70.242900 -20.965700 0.877673 35.905708
-70.250400 -20.830900 0.886804 36.215581
-70.257900 -20.696100 0.888864 36.633506
-70.265400 -20.561300 0.889412 37.157137
-70.272900 -20.426500 0.896882 37.781945
-70.280400 -20.291700 0.928437 38.505969
-70.287900 -20.156900 0.938380 39.333246
-70.295400 -20.022100 0.907057 40.274882
-70.302900 -19.887300 0.879972 41.347211
-70.310400 -19.752500 0.844830 42.568600
-70.317900 -19.617700 0.789519 43.956906
-70.325400 -19.482900 0.692321 45.527462
-70.332900 -19.348100 0.581632 47.292446
-70.340400 -19.213300 0.486378 49.260799
-70.347900 -19.078400 0.400770 51.439701
-70.355400 -18.943600 0.319159 53.826219
-70.362900 -18.808800 0.244757 56.417691
-70.370400 -18.674000 0.172966 59.204692
-70.144600 -21.096000 0.786269 39.184596
-70.152100 -20.961200 0.848365 39.411151
-70.159600 -20.826400 0.868541 39.743702
-70.167100 -20.691600 0.872577 40.184303
-70.174600 -20.556800 0.871537 40.729272
-70.182100 -20.422000 0.868390 41.373225
-70.189600 -20.287200 0.889214 42.114329
-70.197100 -20.152400 0.875024 42.957803
-70.204600 -20.017600 0.858027 43.916561
-70.212100 -19.882800 0.818893 45.008667
-70.219600 -19.748000 0.796138 46.253664
-70.227100 -19.613200 0.716398 47.669173
-70.234600 -19.478400 0.624723 49.268884
-70.242100 -19.343600 0.526860 51.062111
-70.249600 -19.208800 0.426353 53.054136
-70.257100 -19.074000 0.342363 55.245979
-70.264600 -18.939200 0.266823 57.633988
-70.272100 -18.804400 0.205848 60.209647
-70.279600 -18.669600 0.143227 62.959787
-70.053800 -21.091600 0.708773 42.815669
-70.061300 -20.956700 0.766105 43.058610
-70.068800 -20.821900 0.833948 43.408618
-70.076400 -20.687100 0.847190 43.863056
-70.083900 -20.552300 0.844865 44.425229
-70.091400 -20.417500 0.845910 45.084807
-70.098900 -20.282700 0.829248 45.839835
-70.106400 -20.147900 0.811189 46.696211
-70.113900 -20.013100 0.800627 47.668037
-70.121400 -19.878300 0.754306 48.774923
-70.128900 -19.743500 0.705232 50.037023
-70.136400 -19.608700 0.630535 51.471303
-70.143900 -19.473900 0.528579 53.089481
-70.151400 -19.339100 0.447108 54.897768
-70.158900 -19.204300 0.359849 56.897480
-70.166400 -19.069500 0.279193 59.085631
-70.173900 -18.934700 0.218259 61.454805
-70.181400 -18.799900 0.158195 63.993123
-70.188900 -18.665100 0.104514 66.685099
-69.963100 -21.087100 0.623306 46.560855
-69.970600 -20.952300 0.674991 46.814149
-69.978100 -20.817500 0.743020 47.175794
-69.985600 -20.682700 0.780439 47.646511
-69.993100 -20.547900 0.799601 48.220691
-70.000600 -20.413100 0.795402 48.891378
-70.008100 -20.278200 0.779229 49.656988
-70.015600 -20.143400 0.748696 50.522161
-70.023100 -20.008600 0.716919 51.502686
-70.030600 -19.873800 0.670070 52.618943
-70.038100 -19.739000 0.594585 53.891194
-70.045600 -19.604200 0.521011 55.335407
-70.053100 -19.469400 0.437686 56.961127
-70.060600 -19.334600 0.361106 58.771253
-70.068100 -19.199800 0.282526 60.763616
-70.075600 -19.065000 0.210997 62.931641
-70.083100 -18.930200 0.151484 65.264613
-70.090600 -18.795400 0.110431 67.748251
-70.098100 -18.660600 0.065307 70.366101
