1.442266700000000128e+02 4.123766700000000185e+01 9.729783745286507690e-02
1.400733299999999986e+02 3.645333300000000065e+01 3.532750843797552442e-01
1.401533300000000111e+02 3.657999999999999829e+01 2.742916431630647578e-01
1.400863300000000038e+02 3.653033299999999883e+01 2.966151119958131965e-01
1.407270000000000039e+02 3.658766700000000327e+01 2.219219984385295275e-01
1.408859999999999957e+02 3.624133299999999736e+01 0.000000000000000000e+00
1.404283299999999883e+02 3.615666699999999878e+01 2.985656364934040630e-01
1.410320000000000107e+02 3.789366700000000066e+01 3.558849446412834516e-01
1.413843300000000056e+02 3.773033300000000168e+01 3.496167010709265721e-01
1.413076700000000017e+02 3.777033300000000082e+01 3.755151795986133578e-01
1.429453300000000127e+02 4.269833299999999809e+01 0.000000000000000000e+00
1.425490000000000066e+02 4.264966700000000088e+01 0.000000000000000000e+00
1.426020000000000039e+02 4.271966700000000117e+01 0.000000000000000000e+00
1.426930000000000121e+02 4.272266700000000128e+01 0.000000000000000000e+00
1.420863300000000038e+02 4.253833300000000150e+01 0.000000000000000000e+00
1.421733299999999929e+02 4.253166699999999878e+01 0.000000000000000000e+00
1.444836699999999894e+02 4.096966700000000117e+01 1.590982612696875556e-03
1.446959999999999980e+02 4.112233299999999758e+01 6.962970761360591455e-06
1.445773299999999892e+02 4.109599999999999653e+01 2.542744140630577056e-03
1.452333299999999952e+02 4.265433300000000116e+01 3.953224421306894554e-01
1.452813299999999970e+02 4.273100000000000165e+01 3.670387327302069291e-01
1.451276699999999948e+02 4.267499999999999716e+01 3.779440829083329789e-01
1.448226699999999880e+02 4.256266699999999759e+01 4.054916851982611758e-01
1.449060000000000059e+02 4.251266700000000043e+01 4.566277301698293822e-01
1.450453300000000070e+02 4.263100000000000023e+01 3.993338335166344288e-01
1.448303300000000036e+02 4.263733299999999815e+01 3.547597302056202384e-01
1.447456699999999898e+02 4.313400000000000034e+01 5.042537981598559094e-02
1.451189999999999998e+02 4.299366700000000208e+01 2.022115653522608136e-01
1.450216700000000003e+02 4.303233300000000128e+01 1.588637627478682035e-01
1.451430000000000007e+02 4.313766700000000043e+01 1.234448071968520660e-01
1.449240000000000066e+02 4.299300000000000210e+01 1.637363692594018816e-01
1.449263300000000072e+02 4.291799999999999926e+01 2.015336564281391130e-01
1.451140000000000043e+02 4.291700000000000159e+01 2.424535342595418030e-01
1.450190000000000055e+02 4.288066700000000253e+01 2.457093467962726541e-01
1.420756700000000023e+02 4.119800000000000040e+01 0.000000000000000000e+00
1.421440000000000055e+02 4.114966700000000088e+01 0.000000000000000000e+00
1.402069999999999936e+02 3.699900000000000233e+01 1.415779266482013743e-01
1.402716700000000003e+02 3.695466700000000060e+01 2.057267281977162021e-01
1.462643300000000011e+02 4.299266699999999730e+01 2.379948563997349165e-01
1.434813300000000140e+02 3.772299999999999898e+01 4.019098219386792181e-03
1.435723299999999938e+02 3.768866700000000236e+01 4.495078664643849730e-04
1.463259999999999934e+02 4.278600000000000136e+01 2.086706121622977084e-01
1.427170000000000130e+02 3.635933299999999946e+01 0.000000000000000000e+00
1.427186700000000030e+02 3.628499999999999659e+01 0.000000000000000000e+00
1.430533299999999883e+02 3.952799999999999869e+01 1.433421446060257065e-01
1.431496699999999862e+02 3.957300000000000040e+01 1.150040788228469668e-01
1.433126699999999971e+02 4.097633299999999679e+01 1.554311320508663941e-01
1.434206700000000012e+02 4.095533300000000310e+01 1.296509003584985498e-01
1.464906699999999944e+02 4.246966700000000117e+01 8.845187683915882448e-02
1.465219999999999914e+02 4.253900000000000148e+01 1.077155298538420153e-01
1.438776699999999948e+02 3.899966700000000230e+01 5.590765278546953009e-03
1.437663300000000106e+02 3.900633299999999792e+01 1.720941923464339510e-02
1.417663300000000106e+02 3.629833299999999952e+01 8.037012295104593862e-02
1.417346699999999942e+02 3.622133300000000133e+01 8.439100652402241332e-02
1.427210000000000036e+02 3.653099999999999881e+01 0.000000000000000000e+00
1.428206700000000069e+02 3.648299999999999699e+01 0.000000000000000000e+00
1.436810000000000116e+02 3.893433300000000230e+01 2.616557526822662835e-02
1.437053300000000036e+02 3.885000000000000142e+01 2.176300868441828629e-02
1.415863300000000038e+02 3.987266699999999986e+01 0.000000000000000000e+00
1.416266699999999901e+02 3.979833299999999952e+01 0.000000000000000000e+00
1.418876700000000142e+02 4.239366700000000066e+01 0.000000000000000000e+00
1.417940000000000111e+02 4.238533300000000281e+01 0.000000000000000000e+00
1.437856700000000103e+02 4.014500000000000313e+01 1.115273225921475930e-02
1.438720000000000141e+02 4.010366700000000151e+01 6.238824644123895299e-03
1.415133299999999963e+02 3.567766699999999958e+01 0.000000000000000000e+00
1.433420000000000130e+02 3.811899999999999977e+01 4.510327465222442600e-02
1.434166700000000105e+02 3.807800000000000296e+01 2.656721129025779032e-02
1.438969999999999914e+02 4.078699999999999903e+01 3.933229907966145217e-02
1.437796700000000101e+02 4.080599999999999739e+01 5.818412900997783216e-02
1.427756699999999910e+02 3.718399999999999750e+01 1.762955074312630085e-02
1.428509999999999991e+02 4.229466699999999690e+01 1.455312378813271024e-01
1.427556700000000092e+02 4.231733299999999787e+01 1.455242358227828159e-01
1.421723299999999881e+02 4.134633300000000133e+01 0.000000000000000000e+00
1.420836700000000121e+02 4.128733299999999673e+01 0.000000000000000000e+00
1.405946700000000078e+02 3.630533299999999741e+01 0.000000000000000000e+00
1.405269999999999868e+02 3.633899999999999864e+01 2.104184044101926887e-01
1.421026699999999892e+02 3.894366699999999781e+01 2.645354301687442566e-01
1.438023300000000120e+02 3.985666700000000162e+01 8.918451528449621718e-03
1.437199999999999989e+02 3.980933300000000230e+01 1.542591191912945879e-02
1.456963299999999890e+02 4.261433300000000202e+01 3.246976654664678330e-01
1.456706700000000012e+02 4.253533300000000139e+01 3.206359422632868994e-01
1.432386700000000133e+02 3.718066699999999969e+01 1.446465340666901233e-03
1.448213299999999890e+02 4.302000000000000313e+01 1.261799049296357944e-01
1.448286699999999882e+02 4.308966699999999861e+01 8.810805253866503539e-02
1.413883299999999963e+02 3.669966699999999804e+01 1.046469414730328285e-01
1.413400000000000034e+02 3.675833300000000037e+01 9.567524460086647420e-02
1.419916699999999992e+02 3.808466700000000316e+01 3.294188615048790347e-01
1.419746700000000033e+02 3.800800000000000267e+01 3.283359145253877953e-01
1.433466699999999889e+02 4.267399999999999949e+01 0.000000000000000000e+00
1.460863300000000038e+02 4.216499999999999915e+01 5.999168053402975653e-02
1.461436699999999860e+02 4.222333299999999667e+01 6.951158642697212453e-02
1.415049999999999955e+02 3.885399999999999920e+01 0.000000000000000000e+00
1.415886700000000076e+02 3.883033300000000310e+01 0.000000000000000000e+00
1.413779999999999859e+02 4.072266700000000128e+01 0.000000000000000000e+00
1.413626700000000085e+02 4.080199999999999960e+01 0.000000000000000000e+00
1.402923299999999927e+02 3.773866699999999952e+01 2.165377276359142602e-05
1.402870000000000061e+02 3.765999999999999659e+01 5.438578068098160259e-03
1.431836700000000064e+02 3.856400000000000006e+01 1.238550577688867643e-01
1.431916699999999878e+02 3.864699999999999847e+01 1.290144973833661224e-01
1.431053300000000092e+02 3.869866700000000037e+01 1.672423483282347023e-01
1.431143299999999954e+02 3.878466699999999889e+01 1.724416833040121055e-01
1.454170000000000016e+02 4.204733300000000185e+01 2.067255629013499407e-01
1.455196699999999908e+02 4.203066700000000111e+01 1.528745963298018817e-01
1.440446699999999964e+02 4.225366700000000009e+01 5.104664402832730374e-01
1.440986699999999985e+02 4.232233300000000042e+01 4.606040922253733516e-01
1.444480000000000075e+02 4.083066699999999827e+01 6.101428568436935863e-04
1.445146699999999953e+02 4.088166700000000020e+01 4.995208025676499126e-05
1.443373300000000086e+02 4.108299999999999841e+01 3.614282029134884000e-02
1.443803299999999865e+02 4.099866699999999753e+01 1.719151239324383240e-02
1.450240000000000009e+02 4.279733300000000185e+01 2.917846282540867420e-01
1.428603300000000047e+02 3.718333299999999753e+01 1.456714161235058043e-02
1.441599999999999966e+02 4.137166700000000219e+01 1.604680185069090603e-01
1.441596700000000055e+02 4.129099999999999682e+01 1.286005611165675078e-01
1.434743300000000090e+02 3.733400000000000318e+01 0.000000000000000000e+00
1.403706699999999898e+02 3.568366699999999980e+01 1.443663032310178451e-01
1.407446700000000135e+02 3.672999999999999687e+01 2.702461019875146975e-01
1.406923299999999983e+02 3.666400000000000148e+01 2.523649005347874397e-01
1.404686700000000030e+02 3.627766700000000100e+01 2.436876061469621102e-01
1.404833299999999952e+02 3.620066700000000282e+01 2.476892845087926287e-01
1.449303299999999979e+02 4.275733300000000270e+01 2.972834944650802336e-01
1.449333300000000122e+02 4.267600000000000193e+01 3.462161602866007937e-01
1.414726699999999937e+02 4.155733299999999986e+01 0.000000000000000000e+00
1.413660000000000139e+02 4.155533299999999741e+01 0.000000000000000000e+00
1.410430000000000064e+02 3.858366699999999838e+01 7.976986491433709844e-03
1.409713299999999947e+02 3.861399999999999721e+01 0.000000000000000000e+00
1.447043299999999988e+02 4.252633300000000105e+01 4.106167046880856986e-01
1.417966700000000060e+02 3.987299999999999756e+01 0.000000000000000000e+00
1.418950000000000102e+02 3.987100000000000222e+01 0.000000000000000000e+00
1.439443300000000079e+02 4.278699999999999903e+01 0.000000000000000000e+00
1.439470000000000027e+02 4.284766700000000128e+01 0.000000000000000000e+00
1.441586700000000008e+02 4.047733300000000156e+01 4.214833741088700250e-03
1.442570000000000050e+02 4.048366699999999696e+01 1.408090176157552600e-03
1.439753300000000138e+02 4.040500000000000114e+01 1.087385081427011055e-02
1.417733299999999872e+02 3.971966700000000117e+01 0.000000000000000000e+00
1.417146700000000124e+02 3.964699999999999847e+01 0.000000000000000000e+00
1.441839999999999975e+02 4.195633300000000077e+01 5.385397833245537669e-01
1.445840000000000032e+02 4.169899999999999807e+01 2.820898384291172789e-01
1.425269999999999868e+02 3.628966700000000145e+01 0.000000000000000000e+00
1.406646700000000010e+02 3.634966699999999662e+01 1.481003422784409052e-01
1.408113299999999981e+02 3.643200000000000216e+01 1.516120478812871264e-01
1.423903300000000058e+02 4.001466700000000287e+01 0.000000000000000000e+00
1.423043299999999931e+02 4.004800000000000182e+01 0.000000000000000000e+00
1.411826700000000017e+02 3.670499999999999829e+01 1.578369388477368074e-01
1.431320000000000050e+02 3.844466700000000259e+01 1.280905416810004527e-01
1.431043300000000045e+02 3.851766700000000299e+01 1.402406819601423327e-01
1.439739999999999895e+02 4.186999999999999744e+01 5.132390117845140320e-01
1.438756700000000137e+02 4.184566699999999884e+01 4.849047763824639312e-01
1.414590000000000032e+02 3.574099999999999966e+01 0.000000000000000000e+00
1.413533299999999997e+02 3.573866699999999952e+01 0.000000000000000000e+00
1.427620000000000005e+02 4.267000000000000171e+01 0.000000000000000000e+00
1.409223299999999881e+02 3.718800000000000239e+01 2.952732373440837832e-01
1.440026699999999948e+02 4.195766700000000071e+01 5.461018542509519236e-01
1.441023299999999949e+02 4.199066700000000196e+01 5.543513377111112250e-01
1.435049999999999955e+02 3.754466699999999690e+01 2.809946844894884322e-04
1.449329999999999927e+02 4.224333299999999980e+01 4.934655259035234942e-01
1.450440000000000111e+02 4.225533300000000025e+01 4.717949733291628145e-01
1.410250000000000057e+02 3.781900000000000261e+01 3.615683811556670846e-01
1.410900000000000034e+02 3.777233300000000327e+01 3.673190092563101139e-01
1.424099999999999966e+02 4.018066699999999969e+01 0.000000000000000000e+00
1.424550000000000125e+02 4.025266700000000242e+01 0.000000000000000000e+00
1.409656699999999887e+02 3.581400000000000006e+01 0.000000000000000000e+00
1.409013300000000015e+02 3.586866700000000208e+01 0.000000000000000000e+00
1.419416699999999878e+02 3.757433300000000287e+01 1.870338095862712213e-01
1.418443300000000136e+02 3.757866700000000293e+01 2.002344718690679537e-01
1.414279999999999973e+02 3.871733300000000355e+01 0.000000000000000000e+00
1.414900000000000091e+02 3.866466700000000145e+01 2.612064748671217435e-02
1.415543299999999931e+02 3.746766699999999872e+01 1.905940574644742480e-01
1.415176700000000096e+02 3.923499999999999943e+01 0.000000000000000000e+00
1.436113300000000095e+02 4.272333299999999667e+01 0.000000000000000000e+00
1.435536700000000110e+02 4.276733300000000071e+01 0.000000000000000000e+00
1.433743299999999863e+02 4.273833299999999724e+01 0.000000000000000000e+00
1.434696700000000078e+02 4.276833299999999838e+01 0.000000000000000000e+00
1.416459999999999866e+02 3.677499999999999858e+01 0.000000000000000000e+00
1.415373299999999972e+02 3.678433299999999662e+01 0.000000000000000000e+00
1.416486700000000098e+02 3.669066699999999770e+01 0.000000000000000000e+00
1.438856700000000046e+02 3.980700000000000216e+01 6.266804702535304188e-03
1.438859999999999957e+02 3.972899999999999920e+01 7.273343574335761064e-03
1.413763299999999958e+02 3.633800000000000097e+01 1.560254008335838216e-01
1.412813299999999970e+02 3.627766700000000100e+01 1.599689343144845566e-01
1.410889999999999986e+02 3.965133300000000105e+01 0.000000000000000000e+00
1.410896700000000124e+02 3.958033300000000310e+01 0.000000000000000000e+00
1.413050000000000068e+02 3.742933299999999974e+01 2.325120960656540670e-01
1.412643300000000011e+02 3.748933300000000202e+01 2.644769921075491581e-01
1.416179999999999950e+02 3.900733300000000270e+01 0.000000000000000000e+00
1.416510000000000105e+02 3.895100000000000051e+01 0.000000000000000000e+00
1.413843300000000056e+02 3.558966699999999861e+01 0.000000000000000000e+00
1.414710000000000036e+02 3.560166699999999906e+01 0.000000000000000000e+00
1.399850000000000136e+02 3.631099999999999994e+01 5.041362976015759667e-01
1.399633300000000133e+02 3.638033300000000025e+01 3.962922976784882256e-01
1.424759999999999991e+02 3.671699999999999875e+01 0.000000000000000000e+00
1.425483299999999929e+02 3.678099999999999881e+01 0.000000000000000000e+00
1.404303299999999979e+02 3.799000000000000199e+01 4.116645385713858796e-03
1.405086699999999951e+02 3.798866699999999952e+01 3.620348880708185862e-02
1.410366699999999867e+02 3.918699999999999761e+01 0.000000000000000000e+00
1.409890000000000043e+02 3.925600000000000023e+01 0.000000000000000000e+00
1.432839999999999918e+02 3.867933299999999974e+01 9.980715211353462235e-02
1.433596699999999942e+02 3.863033300000000025e+01 7.988041291203963612e-02
1.421533300000000111e+02 3.752266699999999844e+01 1.489815165072863878e-01
1.422693299999999965e+02 3.751766700000000299e+01 1.269931946006856160e-01
1.424993299999999863e+02 4.038700000000000045e+01 0.000000000000000000e+00
1.424449999999999932e+02 4.045600000000000307e+01 0.000000000000000000e+00
1.413133300000000077e+02 3.753633299999999906e+01 2.782672170586746874e-01
1.412786700000000053e+02 3.760266699999999673e+01 3.063541225428780823e-01
1.414739999999999895e+02 4.023133299999999934e+01 0.000000000000000000e+00
1.415283300000000111e+02 4.018333299999999753e+01 0.000000000000000000e+00
1.412280000000000086e+02 3.821333299999999866e+01 2.707806609920420660e-01
1.411750000000000114e+02 3.814733300000000327e+01 2.972168473564563707e-01
1.410136699999999905e+02 3.752266699999999844e+01 3.317560755422739871e-01
1.410236700000000098e+02 3.743266700000000213e+01 3.156462349847441451e-01
1.396860000000000070e+02 3.622766699999999673e+01 2.335002049406205149e-01
1.397056699999999978e+02 3.630733299999999986e+01 1.941470443716908634e-01
1.419236699999999871e+02 3.896766699999999872e+01 1.471609432104114823e-01
1.418776699999999948e+02 3.901566700000000054e+01 1.049057663418013625e-01
1.412896700000000010e+02 3.599666700000000219e+01 0.000000000000000000e+00
1.409666699999999935e+02 3.777300000000000324e+01 3.535689347713888431e-01
1.409850000000000136e+02 3.768066699999999969e+01 3.525451645150598501e-01
1.462293300000000045e+02 4.275833300000000037e+01 2.188544875903837283e-01
1.461856699999999876e+02 4.269599999999999795e+01 2.119777084002428258e-01
1.429423299999999983e+02 3.744333300000000264e+01 3.366295958624268558e-02
1.415449999999999875e+02 3.665966699999999889e+01 0.000000000000000000e+00
1.414853300000000047e+02 3.670833300000000321e+01 0.000000000000000000e+00
1.454296699999999873e+02 4.283500000000000085e+01 3.234797832217503055e-01
1.405693300000000079e+02 3.565933299999999662e+01 0.000000000000000000e+00
1.405406700000000058e+02 3.574733299999999758e+01 0.000000000000000000e+00
1.434053299999999922e+02 3.756933300000000031e+01 3.428298520715184709e-03
1.433443300000000136e+02 3.742600000000000193e+01 2.618577957679618737e-03
1.440393300000000067e+02 3.989466699999999832e+01 1.234059551003942367e-03
1.439900000000000091e+02 3.997599999999999909e+01 2.056103204022433160e-03
1.405380000000000109e+02 3.714600000000000080e+01 2.973368723110467182e-01
1.421579999999999870e+02 4.187433300000000003e+01 0.000000000000000000e+00
1.420553299999999979e+02 4.190866700000000122e+01 0.000000000000000000e+00
1.418126699999999971e+02 3.589866700000000321e+01 4.632037254454388769e-02
1.418779999999999859e+02 3.594433300000000031e+01 4.508769802280370581e-02
1.413230000000000075e+02 3.821200000000000330e+01 2.973913162670689392e-01
1.413763299999999958e+02 3.827799999999999869e+01 2.587418378328571467e-01
1.439559999999999889e+02 3.934199999999999875e+01 6.826407013024247093e-03
1.412456699999999898e+02 3.943533299999999997e+01 0.000000000000000000e+00
1.402156699999999887e+02 3.724133299999999736e+01 4.461798516241329698e-02
1.437980000000000018e+02 3.995166700000000048e+01 7.095969513821450379e-03
1.438833300000000008e+02 3.999900000000000233e+01 4.548282506219134165e-03
1.428566700000000083e+02 3.676466700000000287e+01 0.000000000000000000e+00
1.429516700000000071e+02 3.678999999999999915e+01 0.000000000000000000e+00
1.454240000000000066e+02 4.300500000000000256e+01 2.260069856861398607e-01
1.424960000000000093e+02 4.013400000000000034e+01 0.000000000000000000e+00
1.426009999999999991e+02 4.018099999999999739e+01 0.000000000000000000e+00
1.425803300000000036e+02 4.025200000000000244e+01 0.000000000000000000e+00
1.443153299999999888e+02 4.093099999999999739e+01 1.420111176241128058e-02
1.443520000000000039e+02 4.085099999999999909e+01 5.891802774970248367e-03
1.431023299999999949e+02 3.706166699999999992e+01 1.729335103329861408e-03
1.430236700000000098e+02 3.712033300000000224e+01 5.550396640534912412e-03
1.419723299999999995e+02 3.748633300000000190e+01 1.574748421823957967e-01
1.418156700000000114e+02 3.749266699999999730e+01 1.727029983012678405e-01
1.418986700000000098e+02 3.744266700000000014e+01 1.451749134404304309e-01
1.413799999999999955e+02 4.030700000000000216e+01 0.000000000000000000e+00
1.412556700000000092e+02 4.036466699999999719e+01 0.000000000000000000e+00
1.413536699999999939e+02 4.036733300000000213e+01 0.000000000000000000e+00
1.413249999999999886e+02 4.023733299999999957e+01 0.000000000000000000e+00
1.412290000000000134e+02 4.021900000000000119e+01 0.000000000000000000e+00
1.411860000000000070e+02 4.028600000000000136e+01 0.000000000000000000e+00
1.412636699999999905e+02 3.867633299999999963e+01 0.000000000000000000e+00
1.417303300000000092e+02 3.746166699999999850e+01 1.640019296592007680e-01
1.409713299999999947e+02 3.605933300000000230e+01 0.000000000000000000e+00
1.414240000000000066e+02 3.920966700000000316e+01 0.000000000000000000e+00
1.415029999999999859e+02 3.909266699999999872e+01 0.000000000000000000e+00
1.437326700000000130e+02 4.276066699999999798e+01 0.000000000000000000e+00
1.437606700000000046e+02 4.283466700000000316e+01 0.000000000000000000e+00
1.436119999999999948e+02 4.282699999999999818e+01 0.000000000000000000e+00
1.436976699999999880e+02 4.285699999999999932e+01 0.000000000000000000e+00
1.436160000000000139e+02 4.292666700000000191e+01 0.000000000000000000e+00
1.437166699999999935e+02 4.292366700000000179e+01 0.000000000000000000e+00
1.435583300000000122e+02 4.286800000000000210e+01 0.000000000000000000e+00
1.433936699999999860e+02 4.285366700000000151e+01 0.000000000000000000e+00
1.433133300000000077e+02 4.279066699999999912e+01 0.000000000000000000e+00
1.434756700000000080e+02 4.283899999999999864e+01 0.000000000000000000e+00
1.430049999999999955e+02 3.685266699999999673e+01 0.000000000000000000e+00
1.429863300000000095e+02 3.692766699999999958e+01 0.000000000000000000e+00
1.448196700000000021e+02 4.198033300000000168e+01 3.818749106418914963e-01
1.446399999999999864e+02 4.194333300000000264e+01 4.294174412939834595e-01
1.447246700000000033e+02 4.201033300000000281e+01 4.427565722353338229e-01
1.447606700000000046e+02 4.182266700000000270e+01 3.034439581163433930e-01
1.448313300000000083e+02 4.188766700000000043e+01 3.212853289358831299e-01
1.446643300000000067e+02 4.184833299999999667e+01 3.658105891762034045e-01
1.416370000000000005e+02 3.751333300000000293e+01 2.038987187832028980e-01
1.416533300000000111e+02 3.760300000000000153e+01 2.407386124691851259e-01
1.440420000000000016e+02 3.974233300000000213e+01 2.276032151594757462e-03
1.439840000000000089e+02 3.982266700000000270e+01 2.760121544161419846e-03
1.439786699999999939e+02 3.969266700000000014e+01 4.281671988015399444e-03
1.410036699999999996e+02 3.966199999999999903e+01 0.000000000000000000e+00
1.409396700000000067e+02 3.959833299999999667e+01 0.000000000000000000e+00
1.409926700000000039e+02 3.954666699999999935e+01 0.000000000000000000e+00
1.432096699999999885e+02 3.752600000000000335e+01 1.630536019194549907e-02
1.433139999999999930e+02 3.750399999999999778e+01 5.796144146456107260e-03
1.411753300000000024e+02 3.749933300000000003e+01 2.927231439737842944e-01
1.414753300000000138e+02 3.582066700000000026e+01 0.000000000000000000e+00
1.416879999999999882e+02 3.908266700000000071e+01 0.000000000000000000e+00
1.417356699999999989e+02 3.896266700000000327e+01 2.704221929084263051e-02
1.415289999999999964e+02 3.553699999999999903e+01 0.000000000000000000e+00
1.413776699999999948e+02 3.550466699999999776e+01 0.000000000000000000e+00
1.399190000000000111e+02 3.624933300000000003e+01 5.417121841720351494e-01
1.398669999999999902e+02 3.638300000000000267e+01 3.002302911946352904e-01
1.425336700000000008e+02 3.664633299999999849e+01 0.000000000000000000e+00
1.426383299999999963e+02 3.667199999999999704e+01 0.000000000000000000e+00
1.426506699999999910e+02 3.675733300000000270e+01 0.000000000000000000e+00
1.426526700000000005e+02 3.691700000000000159e+01 0.000000000000000000e+00
1.408493300000000090e+02 3.721233300000000099e+01 3.117060254826956034e-01
1.408386700000000076e+02 3.727600000000000335e+01 3.116789462872812666e-01
1.408013300000000072e+02 3.716066699999999656e+01 3.212820163796387130e-01
1.404606699999999933e+02 3.769266700000000014e+01 6.538098109158627103e-02
1.403603300000000047e+02 3.790833299999999895e+01 9.082598970708816808e-07
1.405093300000000056e+02 3.789099999999999824e+01 4.339034801068623187e-02
1.418509999999999991e+02 4.153033299999999883e+01 0.000000000000000000e+00
1.419699999999999989e+02 4.153833300000000150e+01 0.000000000000000000e+00
1.409699999999999989e+02 3.912133299999999991e+01 0.000000000000000000e+00
1.408919999999999959e+02 3.925600000000000023e+01 0.000000000000000000e+00
1.404553300000000036e+02 3.589333299999999838e+01 2.359773040399288646e-01
1.416539999999999964e+02 3.527433299999999861e+01 0.000000000000000000e+00
1.415873300000000086e+02 3.850966700000000031e+01 1.512070517088126009e-01
1.416303299999999865e+02 3.859466700000000117e+01 1.154563988591860851e-01
1.434273300000000120e+02 3.875533300000000025e+01 6.922345495428006146e-02
1.433240000000000123e+02 3.875800000000000267e+01 9.554387318925489092e-02
1.434436699999999973e+02 3.867833300000000207e+01 6.369324891518542142e-02
1.435403300000000115e+02 3.854999999999999716e+01 3.409176846907167185e-02
1.427750000000000057e+02 3.849633299999999991e+01 2.383156717607054775e-01
1.427566700000000139e+02 3.855733299999999986e+01 2.508676669951935279e-01
1.437676700000000096e+02 4.161833299999999980e+01 3.589475056927420860e-01
1.437170000000000130e+02 4.203266699999999645e+01 5.119184060283954452e-01
1.437973299999999881e+02 4.197433300000000145e+01 5.269452653386108576e-01
1.455960000000000036e+02 4.210833300000000179e+01 1.680868712163801626e-01
1.415143300000000011e+02 3.539766699999999844e+01 0.000000000000000000e+00
1.414746700000000033e+02 3.547166699999999651e+01 0.000000000000000000e+00
1.421203299999999956e+02 3.760399999999999920e+01 1.757690775159102547e-01
1.422173300000000040e+02 3.765266700000000100e+01 1.830329803049493276e-01
1.424026700000000005e+02 3.745733299999999844e+01 8.577662214832217080e-02
1.423480000000000132e+02 4.061399999999999721e+01 0.000000000000000000e+00
1.423303300000000036e+02 4.032900000000000063e+01 0.000000000000000000e+00
1.424266700000000014e+02 4.031400000000000006e+01 0.000000000000000000e+00
1.423413299999999992e+02 4.042233300000000185e+01 0.000000000000000000e+00
1.443156700000000114e+02 4.124466699999999975e+01 8.317888127360552331e-02
1.443389999999999986e+02 4.132466699999999804e+01 1.018920864363957596e-01
1.401306700000000092e+02 3.641466700000000145e+01 4.252644095720691242e-01
1.405740000000000123e+02 3.617466699999999946e+01 0.000000000000000000e+00
1.411626699999999914e+02 3.779999999999999716e+01 3.770546577491636908e-01
1.412179999999999893e+02 3.774466699999999975e+01 3.692801339338832589e-01
1.414516700000000071e+02 3.761433300000000202e+01 2.849726038272208384e-01
1.414163299999999879e+02 3.754099999999999682e+01 2.581374828875057648e-01
1.413626700000000085e+02 3.765266700000000100e+01 3.205625976989918136e-01
1.427743299999999920e+02 4.254999999999999716e+01 0.000000000000000000e+00
1.427333299999999952e+02 4.261200000000000188e+01 0.000000000000000000e+00
1.426113300000000095e+02 4.259466700000000117e+01 0.000000000000000000e+00
1.413796700000000044e+02 4.019566700000000026e+01 0.000000000000000000e+00
1.414626700000000028e+02 4.010466699999999918e+01 0.000000000000000000e+00
1.413720000000000141e+02 4.012100000000000222e+01 0.000000000000000000e+00
1.424496699999999976e+02 3.722999999999999687e+01 3.403901772427005146e-02
1.424576700000000073e+02 3.714266700000000299e+01 2.205251581983577389e-02
1.410740000000000123e+02 3.825166699999999764e+01 2.086492366556812750e-01
1.410780000000000030e+02 3.817199999999999704e+01 2.537937545369169934e-01
1.411690000000000111e+02 3.828033299999999883e+01 2.052288053037452098e-01
1.429926700000000039e+02 4.036666699999999963e+01 0.000000000000000000e+00
1.429439999999999884e+02 4.029699999999999704e+01 0.000000000000000000e+00
1.410763300000000129e+02 3.758333300000000321e+01 3.365801702387382077e-01
1.410513300000000072e+02 3.765899999999999892e+01 3.517745611291323571e-01
1.410980000000000132e+02 3.770466700000000060e+01 3.594188672161829357e-01
1.411773300000000120e+02 3.768533299999999997e+01 3.526781769746499817e-01
1.411503299999999967e+02 3.756633300000000020e+01 3.175199652905026371e-01
1.412046699999999930e+02 3.762266699999999986e+01 3.285305329160527754e-01
1.416273300000000006e+02 3.790899999999999892e+01 3.745814994495255124e-01
1.416479999999999961e+02 3.799133299999999736e+01 3.758377768863913060e-01
1.443343299999999942e+02 4.170133299999999821e+01 3.623692239918168134e-01
1.443549999999999898e+02 4.179066699999999912e+01 4.207365640148638675e-01
1.408453299999999899e+02 3.742166699999999935e+01 3.189167598402433690e-01
1.409353299999999933e+02 3.737866700000000009e+01 3.155029155254370776e-01
1.398076700000000017e+02 3.632533300000000054e+01 3.263483579335055840e-01
1.397659999999999911e+02 3.620333300000000065e+01 3.981111195088430921e-01
1.398379999999999939e+02 3.626100000000000279e+01 4.160245479455392803e-01
1.412396699999999896e+02 4.165833299999999895e+01 0.000000000000000000e+00
1.413360000000000127e+02 4.164166699999999821e+01 0.000000000000000000e+00
1.420370000000000061e+02 3.898833299999999724e+01 2.135320397483903843e-01
1.419286700000000110e+02 3.908266700000000071e+01 1.098298659690245399e-01
1.403003300000000024e+02 3.606199999999999761e+01 5.274113458097400287e-01
1.408896699999999953e+02 3.664233300000000071e+01 2.355312131323436253e-01
1.413383300000000133e+02 3.908500000000000085e+01 0.000000000000000000e+00
1.414206700000000012e+02 3.911999999999999744e+01 0.000000000000000000e+00
1.410836700000000121e+02 3.605566699999999969e+01 0.000000000000000000e+00
1.411343300000000056e+02 3.613466700000000031e+01 0.000000000000000000e+00
1.402136700000000076e+02 3.671800000000000352e+01 2.221149453209286251e-01
1.403520000000000039e+02 3.683733300000000099e+01 2.657645941423724678e-01
1.410380000000000109e+02 3.979399999999999693e+01 0.000000000000000000e+00
1.411363299999999867e+02 3.978966700000000145e+01 0.000000000000000000e+00
1.440416700000000105e+02 4.148966699999999719e+01 2.667076865202376856e-01
1.440673299999999983e+02 4.141333300000000150e+01 2.132426822491342855e-01
1.417736700000000098e+02 3.907766699999999815e+01 0.000000000000000000e+00
1.417883300000000020e+02 3.901400000000000290e+01 3.737724361433392151e-02
1.460443300000000022e+02 4.276333300000000293e+01 2.466413287843432500e-01
1.461419999999999959e+02 4.281000000000000227e+01 2.377592422698929786e-01
1.460686699999999973e+02 4.269700000000000273e+01 2.315618112524489569e-01
1.430286700000000053e+02 3.749699999999999989e+01 3.346261808834663509e-02
1.431083299999999952e+02 3.738000000000000256e+01 1.507368134084661679e-02
1.431193299999999908e+02 3.746766699999999872e+01 2.041066673570998344e-02
1.444290000000000020e+02 4.069366699999999781e+01 0.000000000000000000e+00
1.444856699999999989e+02 4.074766699999999986e+01 0.000000000000000000e+00
1.419773299999999949e+02 3.531766700000000014e+01 0.000000000000000000e+00
1.419993299999999863e+02 3.540066699999999855e+01 0.000000000000000000e+00
1.420596700000000112e+02 3.528366700000000122e+01 0.000000000000000000e+00
1.411179999999999950e+02 4.081600000000000250e+01 0.000000000000000000e+00
1.411786700000000110e+02 4.076933300000000315e+01 0.000000000000000000e+00
1.410310000000000059e+02 3.803066700000000111e+01 3.163587391801727655e-01
1.400540000000000020e+02 3.628399999999999892e+01 5.827176706409091800e-01
1.401223300000000052e+02 3.632966700000000060e+01 5.132083230450540379e-01
1.420166700000000048e+02 4.161166699999999707e+01 0.000000000000000000e+00
1.421083299999999952e+02 4.163799999999999812e+01 0.000000000000000000e+00
1.414449999999999932e+02 3.698266699999999929e+01 1.486316610699061659e-02
1.414516700000000071e+02 3.706300000000000239e+01 3.505068458543834226e-02
1.412296699999999987e+02 3.613766700000000043e+01 0.000000000000000000e+00
1.412956700000000012e+02 3.607233300000000042e+01 0.000000000000000000e+00
1.406419999999999959e+02 3.730966699999999747e+01 2.854566520603242785e-01
1.407750000000000057e+02 3.729999999999999716e+01 3.115341723492553450e-01
1.407006700000000023e+02 3.725833300000000037e+01 3.122140878448033119e-01
1.459483299999999986e+02 4.304933299999999718e+01 2.460151795034249411e-01
1.460513300000000072e+02 4.303566699999999656e+01 2.473099244756213622e-01
1.416203299999999956e+02 3.705933300000000230e+01 3.176765273597156186e-02
1.415256699999999910e+02 3.709700000000000131e+01 4.553004612258627903e-02
1.408959999999999866e+02 3.944466700000000259e+01 0.000000000000000000e+00
1.409733300000000042e+02 3.948133299999999934e+01 0.000000000000000000e+00
1.411866699999999923e+02 3.630866699999999980e+01 1.641834958167554814e-01
1.420209999999999866e+02 3.724333299999999980e+01 6.736285303235016453e-02
1.419850000000000136e+02 3.732166699999999793e+01 9.203138323401056919e-02
1.406239999999999952e+02 3.580899999999999750e+01 0.000000000000000000e+00
1.407340000000000089e+02 3.579433300000000173e+01 0.000000000000000000e+00
1.420996700000000033e+02 3.540833299999999895e+01 0.000000000000000000e+00
1.421306700000000092e+02 3.534266699999999872e+01 0.000000000000000000e+00
1.411419999999999959e+02 3.571733300000000355e+01 0.000000000000000000e+00
1.410463300000000118e+02 3.568699999999999761e+01 0.000000000000000000e+00
1.449110000000000014e+02 4.237599999999999767e+01 5.134188036303330982e-01
1.448613300000000095e+02 4.230499999999999972e+01 5.182107779538339676e-01
1.440780000000000030e+02 4.124900000000000233e+01 1.240840049033447440e-01
1.413473299999999995e+02 3.855899999999999750e+01 3.545633755785788238e-02
1.413406699999999887e+02 3.865466700000000344e+01 0.000000000000000000e+00
1.409586700000000121e+02 3.593366699999999980e+01 0.000000000000000000e+00
1.409159999999999968e+02 3.599466699999999975e+01 0.000000000000000000e+00
1.440813300000000083e+02 4.155666699999999736e+01 2.959253692500734556e-01
1.444670000000000130e+02 4.190033300000000338e+01 4.589694028317786723e-01
1.444716699999999889e+02 4.182500000000000284e+01 4.196794397439355673e-01
1.418743299999999863e+02 4.091966699999999690e+01 0.000000000000000000e+00
1.417860000000000014e+02 4.088366700000000264e+01 0.000000000000000000e+00
1.435173299999999870e+02 3.947266700000000128e+01 5.334565325036965538e-02
1.434749999999999943e+02 3.954933299999999718e+01 5.398290149847478903e-02
1.416443299999999965e+02 3.583899999999999864e+01 5.947756418982013543e-02
1.415503300000000024e+02 3.586399999999999721e+01 0.000000000000000000e+00
1.416620000000000061e+02 3.561833299999999980e+01 0.000000000000000000e+00
1.416163300000000049e+02 3.568333299999999753e+01 0.000000000000000000e+00
1.418673300000000097e+02 3.912533299999999770e+01 5.783629918170341000e-02
1.409763299999999902e+02 3.724600000000000222e+01 2.886332564274537438e-01
1.417980000000000018e+02 4.159733299999999900e+01 0.000000000000000000e+00
1.434373300000000029e+02 3.849766699999999986e+01 5.088781266771005146e-02
1.433516700000000128e+02 3.854666699999999935e+01 7.705648155886611617e-02
1.448789999999999907e+02 4.216433299999999917e+01 4.720378179697037324e-01
1.447849999999999966e+02 4.216199999999999903e+01 5.014589525735230202e-01
1.457776700000000005e+02 4.216366699999999668e+01 1.298471940649653100e-01
1.457046699999999930e+02 4.210099999999999909e+01 1.197775485218098568e-01
1.424770000000000039e+02 3.755299999999999727e+01 1.057043208488672725e-01
1.424736699999999985e+02 3.749000000000000199e+01 9.154205775613151463e-02
1.441876699999999971e+02 4.156833300000000264e+01 2.860527941507109984e-01
1.442093299999999942e+02 4.166966699999999690e+01 3.527829755931236599e-01
1.426610000000000014e+02 4.103233300000000128e+01 0.000000000000000000e+00
1.425663299999999936e+02 4.100533300000000025e+01 0.000000000000000000e+00
1.428786699999999996e+02 4.244933300000000287e+01 0.000000000000000000e+00
1.428746700000000089e+02 4.253266699999999645e+01 0.000000000000000000e+00
1.416433299999999917e+02 3.725966700000000031e+01 9.150960232000776573e-02
1.415516700000000014e+02 3.737199999999999989e+01 1.599250600781572662e-01
1.416186700000000087e+02 3.733899999999999864e+01 1.249439597345462089e-01
1.432150000000000034e+02 3.709799999999999898e+01 6.677874275544900574e-04
1.432866699999999867e+02 3.705199999999999960e+01 4.882859444240635760e-05
1.442503299999999911e+02 4.139833300000000094e+01 1.551707308622298220e-01
1.411753300000000024e+02 3.700266700000000242e+01 1.246232205242938790e-01
1.438473299999999995e+02 4.147966699999999918e+01 2.761919424544252433e-01
1.438526699999999892e+02 4.139233300000000071e+01 2.332945523108791996e-01
1.412740000000000009e+02 4.082233300000000042e+01 0.000000000000000000e+00
1.411683299999999974e+02 4.089099999999999824e+01 0.000000000000000000e+00
1.412586699999999951e+02 4.089900000000000091e+01 0.000000000000000000e+00
1.410070000000000050e+02 3.811366699999999952e+01 2.715951919197995834e-01
1.409113299999999924e+02 3.811899999999999977e+01 2.098835750706155023e-01
1.408513299999999902e+02 3.803766699999999901e+01 2.172278777879967371e-01
1.417899999999999920e+02 3.574533300000000224e+01 0.000000000000000000e+00
1.418506700000000080e+02 3.580899999999999750e+01 3.314655986274594318e-02
1.445716700000000117e+02 4.142933299999999974e+01 8.831869304045258939e-02
1.445943300000000136e+02 4.151400000000000290e+01 1.168496866683508550e-01
1.435219999999999914e+02 3.746399999999999864e+01 3.209704381007934646e-06
1.434526700000000119e+02 3.741066699999999656e+01 2.153542007877410735e-04
1.400516700000000014e+02 3.618466699999999747e+01 6.876532081060153789e-01
1.401980000000000075e+02 3.628233300000000128e+01 5.161970102847256436e-01
1.456876699999999971e+02 4.194533299999999798e+01 6.137389983629498724e-02
1.436316700000000139e+02 4.147766699999999673e+01 2.716906468451423806e-01
1.419476699999999880e+02 4.168599999999999994e+01 0.000000000000000000e+00
1.420986699999999985e+02 4.172633299999999679e+01 0.000000000000000000e+00
1.419979999999999905e+02 4.175433300000000258e+01 0.000000000000000000e+00
1.413386700000000076e+02 3.694866700000000037e+01 4.007549962962193846e-02
1.412813299999999970e+02 3.700066699999999997e+01 6.280236927729730689e-02
1.415716700000000117e+02 3.916366699999999668e+01 0.000000000000000000e+00
1.416673299999999927e+02 3.915866700000000122e+01 0.000000000000000000e+00
1.414036700000000053e+02 3.609633300000000133e+01 1.354165644184626427e-01
1.414103299999999876e+02 3.616933300000000173e+01 1.415394362676552775e-01
1.412956700000000012e+02 3.620233300000000298e+01 1.561276179427083799e-01
1.452179999999999893e+02 4.301833299999999838e+01 1.972146504082344654e-01
1.452276699999999892e+02 4.308700000000000330e+01 1.651343289151321059e-01
1.452913299999999879e+02 4.213633300000000048e+01 3.073203761617029905e-01
1.402719999999999914e+02 3.632433300000000287e+01 4.155436561597078415e-01
1.404056699999999864e+02 3.632066700000000026e+01 2.903101218963584640e-01
1.403429999999999893e+02 3.628000000000000114e+01 3.559223270288788266e-01
1.417653300000000058e+02 3.725533300000000025e+01 8.513936628514522098e-02
1.417996699999999919e+02 3.732900000000000063e+01 1.073830672405130804e-01
1.417146700000000124e+02 3.738300000000000267e+01 1.365638359096707777e-01
1.414823299999999904e+02 3.849033299999999969e+01 1.368630815796933464e-01
1.414389999999999930e+02 3.856433299999999775e+01 6.872732921726008859e-02
1.430943300000000136e+02 3.784966699999999662e+01 6.371640254107331647e-02
1.410889999999999986e+02 3.628033299999999883e+01 1.577327113596501407e-01
1.416116700000000037e+02 3.719433300000000031e+01 7.029194852744499733e-02
1.416783299999999883e+02 3.711299999999999955e+01 4.571388157154521181e-02
1.415219999999999914e+02 3.718033299999999741e+01 6.760488666774165656e-02
1.406320000000000050e+02 3.798899999999999721e+01 1.035814177778801443e-01
1.408300000000000125e+02 3.919833299999999809e+01 0.000000000000000000e+00
1.408603300000000047e+02 3.913266699999999787e+01 0.000000000000000000e+00
1.410656700000000114e+02 3.943533299999999997e+01 0.000000000000000000e+00
1.409159999999999968e+02 3.937066699999999742e+01 0.000000000000000000e+00
1.409986700000000042e+02 3.932699999999999818e+01 0.000000000000000000e+00
1.410709999999999980e+02 3.935499999999999687e+01 0.000000000000000000e+00
1.404190000000000111e+02 3.639533300000000082e+01 2.745828206644873593e-01
1.410573300000000074e+02 3.641133299999999906e+01 1.714808668464712083e-01
1.411719999999999970e+02 3.639300000000000068e+01 1.708332202177872405e-01
1.410060000000000002e+02 3.634366700000000350e+01 1.547174132514814449e-01
1.424840000000000089e+02 4.248833299999999724e+01 0.000000000000000000e+00
1.424736699999999985e+02 4.241466700000000145e+01 0.000000000000000000e+00
1.425860000000000127e+02 4.252566699999999855e+01 0.000000000000000000e+00
1.426726700000000108e+02 4.242666700000000191e+01 0.000000000000000000e+00
1.425663299999999936e+02 4.238533300000000281e+01 0.000000000000000000e+00
1.426819999999999879e+02 4.249333299999999980e+01 0.000000000000000000e+00
1.457943300000000022e+02 4.295833300000000321e+01 2.664478298092367026e-01
1.457556700000000092e+02 4.288633300000000048e+01 2.865577305258339980e-01
1.408836699999999951e+02 3.874499999999999744e+01 0.000000000000000000e+00
1.409663299999999992e+02 3.871300000000000097e+01 0.000000000000000000e+00
1.408056699999999921e+02 3.586433300000000202e+01 0.000000000000000000e+00
1.412116699999999980e+02 3.595666700000000304e+01 0.000000000000000000e+00
1.411210000000000093e+02 3.598366699999999696e+01 0.000000000000000000e+00
1.410656700000000114e+02 3.709933300000000145e+01 2.080584060778933875e-01
1.411479999999999961e+02 3.706466700000000003e+01 1.521055464185269990e-01
1.405786699999999882e+02 3.652533300000000338e+01 2.213183021968910813e-01
1.441003300000000138e+02 3.920233300000000298e+01 2.360848707370113953e-04
1.440106700000000046e+02 3.921733300000000355e+01 2.008495831033739985e-03
1.405686699999999973e+02 3.831700000000000017e+01 1.239194089333549775e-03
1.406486700000000098e+02 3.832533300000000054e+01 1.357171465335907379e-02
1.429013300000000015e+02 3.724699999999999989e+01 1.795246596015299262e-02
1.429906699999999944e+02 3.726066699999999798e+01 1.473463435566307184e-02
1.428660000000000139e+02 3.731533300000000253e+01 2.417181734260265280e-02
1.403223299999999938e+02 3.590166700000000333e+01 5.090979357253669901e-01
1.405053299999999865e+02 3.722033299999999656e+01 2.584083586074393812e-01
1.405626699999999971e+02 3.730400000000000205e+01 2.517684005360248944e-01
1.430576700000000017e+02 3.721033299999999855e+01 8.240980851711515731e-03
1.431599999999999966e+02 3.723433299999999946e+01 4.886838319269882353e-03
1.429156700000000058e+02 3.710699999999999932e+01 8.414343673141318203e-03
1.409586700000000121e+02 3.619266700000000014e+01 0.000000000000000000e+00
1.410616699999999923e+02 3.620833300000000321e+01 0.000000000000000000e+00
1.459000000000000057e+02 4.297433300000000145e+01 2.595992796903558997e-01
1.460613299999999981e+02 4.294400000000000261e+01 2.537425660241005576e-01
1.459639999999999986e+02 4.291266699999999901e+01 2.643298765349367252e-01
1.421803299999999979e+02 3.734700000000000131e+01 8.136001756035562971e-02
1.421456699999999955e+02 3.725466699999999776e+01 6.323496247007037718e-02
1.420889999999999986e+02 3.738199999999999790e+01 1.061906726411981777e-01
1.406853299999999933e+02 3.563000000000000256e+01 0.000000000000000000e+00
1.422806699999999864e+02 3.706799999999999784e+01 0.000000000000000000e+00
1.423743299999999863e+02 3.706933300000000031e+01 0.000000000000000000e+00
1.411476700000000051e+02 3.581033299999999997e+01 0.000000000000000000e+00
1.410616699999999923e+02 3.585266699999999673e+01 0.000000000000000000e+00
1.412280000000000086e+02 3.585699999999999932e+01 0.000000000000000000e+00
1.410513300000000072e+02 3.592633299999999963e+01 0.000000000000000000e+00
1.420026699999999948e+02 3.610333299999999923e+01 3.994691914183470804e-02
1.417486700000000042e+02 3.923833299999999724e+01 0.000000000000000000e+00
1.414490000000000123e+02 3.531466700000000003e+01 0.000000000000000000e+00
1.413513299999999902e+02 3.530499999999999972e+01 0.000000000000000000e+00
1.407680000000000007e+02 3.737400000000000233e+01 3.080457155606948771e-01
1.406910000000000025e+02 3.738866699999999810e+01 2.848843222995384727e-01
1.461469999999999914e+02 4.289200000000000301e+01 2.439605569739684288e-01
1.462529999999999859e+02 4.292233300000000185e+01 2.361860864641907864e-01
1.409276700000000062e+02 3.712533299999999770e+01 2.881353944540573919e-01
1.409910000000000139e+02 3.708133300000000077e+01 2.443987167842465169e-01
1.430006700000000137e+02 4.264699999999999847e+01 0.000000000000000000e+00
1.429799999999999898e+02 4.257699999999999818e+01 0.000000000000000000e+00
1.407523300000000006e+02 3.815400000000000347e+01 1.059729805828994870e-01
1.406776700000000062e+02 3.819333300000000264e+01 5.592997256099244141e-02
1.407043299999999988e+02 3.828133299999999650e+01 3.705806587455958562e-02
1.439730000000000132e+02 4.135799999999999699e+01 1.930957456307097475e-01
1.439840000000000089e+02 4.127433299999999861e+01 1.554407917694780594e-01
1.402233300000000042e+02 3.645866699999999838e+01 3.676697975399890739e-01
1.402889999999999873e+02 3.641566699999999912e+01 3.657746384221113867e-01
1.403733300000000099e+02 3.644599999999999795e+01 2.956944993099793195e-01
1.402330000000000041e+02 3.654699999999999704e+01 3.158755438351139033e-01
1.441169999999999902e+02 3.933166700000000304e+01 2.058318999547093485e-04
1.441586700000000008e+02 3.927033300000000082e+01 1.039947067635735225e-05
1.440206699999999955e+02 3.930199999999999960e+01 2.694453619548346085e-03
1.406246700000000089e+02 3.844833299999999809e+01 1.131041260172545998e-03
1.405583300000000122e+02 3.839800000000000324e+01 0.000000000000000000e+00
1.406843299999999886e+02 3.841433299999999917e+01 7.938408918315218235e-03
1.409310000000000116e+02 3.754466699999999690e+01 3.382367110809385014e-01
1.409273300000000120e+02 3.762700000000000244e+01 3.446043541838442192e-01
1.401719999999999970e+02 3.582399999999999807e+01 8.104126207631404677e-01
1.402239999999999895e+02 3.577666700000000333e+01 6.921334594643063776e-01
1.403466699999999889e+02 3.761299999999999955e+01 3.434698683982324169e-02
1.404243299999999977e+02 3.762133299999999991e+01 6.591948851085556449e-02
1.403329999999999984e+02 3.754233299999999929e+01 3.963789571958716007e-02
1.403996699999999862e+02 3.750266700000000242e+01 7.853762064415512056e-02
1.416916699999999878e+02 3.542966700000000202e+01 0.000000000000000000e+00
1.416226699999999994e+02 3.537533299999999770e+01 0.000000000000000000e+00
1.405140000000000100e+02 3.647966699999999918e+01 2.329578176422557045e-01
1.404996700000000089e+02 3.641266699999999901e+01 2.335165697299752541e-01
1.423569999999999993e+02 3.615999999999999659e+01 7.227396134703766885e-03
1.424490000000000123e+02 3.625633299999999792e+01 0.000000000000000000e+00
1.424530000000000030e+02 3.616866699999999923e+01 3.373423932381207791e-03
1.402066700000000026e+02 3.756000000000000227e+01 2.407297485255793096e-03
1.402709999999999866e+02 3.751833299999999838e+01 2.056899283631155248e-02
1.404423299999999983e+02 3.607366700000000037e+01 3.023574092078782916e-01
1.403813299999999913e+02 3.602600000000000335e+01 3.852936209875947871e-01
1.403886699999999905e+02 3.594299999999999784e+01 3.753299467839742998e-01
1.445663299999999936e+02 4.315433300000000116e+01 0.000000000000000000e+00
1.446353300000000104e+02 4.310999999999999943e+01 0.000000000000000000e+00
1.413313300000000083e+02 3.714366700000000066e+01 9.631660879529373165e-02
1.413559999999999945e+02 3.707433300000000287e+01 6.648027763028864501e-02
1.408386700000000076e+02 3.841866699999999923e+01 3.692549166235304520e-02
1.408166699999999878e+02 3.832999999999999829e+01 5.868661713950867886e-02
1.411973299999999938e+02 3.720066700000000282e+01 1.774593721639806665e-01
1.412293300000000045e+02 3.713199999999999790e+01 1.460886002184383359e-01
1.408509999999999991e+02 3.749766699999999986e+01 3.217635897143986123e-01
1.404023300000000063e+02 3.721099999999999852e+01 1.903886675547109553e-01
1.405163300000000106e+02 3.738833300000000293e+01 1.986116124895554447e-01
1.423969999999999914e+02 3.760999999999999943e+01 1.337178741537037308e-01
1.423100000000000023e+02 3.759799999999999898e+01 1.446677230040468443e-01
1.442946699999999964e+02 4.185799999999999699e+01 4.750048022546703996e-01
1.441933300000000031e+02 4.187333300000000236e+01 5.087613114752849164e-01
1.404269999999999925e+02 3.651066699999999798e+01 2.665231428695989391e-01
1.430806699999999978e+02 3.764766699999999844e+01 4.243448896490422534e-02
1.410623300000000029e+02 3.725333299999999781e+01 2.521104124494240040e-01
1.410966699999999889e+02 3.717999999999999972e+01 2.167886594827348190e-01
1.403066699999999969e+02 3.581333300000000008e+01 4.851360461138288782e-01
