1.374310000000000116e+02 3.368800000000000239e+01 7.732279104032749317e-02
1.373689999999999998e+02 3.363166700000000020e+01 7.701749596689770605e-02
1.350383300000000020e+02 3.279500000000000171e+01 3.195893882357624116e-02
1.351573300000000017e+02 3.275766699999999787e+01 1.524613261833057849e-02
1.350873300000000086e+02 3.273566699999999940e+01 1.761415008557508724e-02
1.323826699999999903e+02 3.068833300000000008e+01 0.000000000000000000e+00
1.383746700000000089e+02 3.411733300000000213e+01 4.628241567395954500e-04
1.382069999999999936e+02 3.403733299999999673e+01 1.010147633086077266e-02
1.373710000000000093e+02 3.356300000000000239e+01 6.051262160090036674e-02
1.374196699999999964e+02 3.349733299999999758e+01 3.500343912831072740e-02
1.357889999999999873e+02 3.275166699999999764e+01 1.041337377479479263e-02
1.357806699999999864e+02 3.283366699999999838e+01 4.135660195478541717e-02
1.351160000000000139e+02 3.262766700000000242e+01 3.036926474964027865e-03
1.350813300000000083e+02 3.264733300000000327e+01 7.373099944596021339e-03
1.350663299999999936e+02 3.256066700000000225e+01 9.843425180314883949e-04
1.359979999999999905e+02 3.305499999999999972e+01 1.948247291717949414e-01
1.359493300000000033e+02 3.299166699999999963e+01 1.434553262271452134e-01
1.334213300000000118e+02 3.175199999999999889e+01 9.435695733137752783e-03
1.333506700000000080e+02 3.172100000000000009e+01 7.571851956738032650e-03
1.332609999999999957e+02 3.172700000000000031e+01 2.032056329142467935e-02
1.326210000000000093e+02 3.057866699999999938e+01 1.342809664530040090e-05
1.325639999999999930e+02 3.062666700000000120e+01 0.000000000000000000e+00
1.327853299999999876e+02 3.114399999999999835e+01 1.989036865187933899e-03
1.327319999999999993e+02 3.109233300000000000e+01 0.000000000000000000e+00
1.349519999999999982e+02 3.273666699999999707e+01 2.867201020703048775e-02
1.349780000000000086e+02 3.279533299999999940e+01 3.726075382669161856e-02
1.371583300000000065e+02 3.366899999999999693e+01 1.412355578656643851e-01
1.372216699999999889e+02 3.362733300000000014e+01 1.090242726873499740e-01
1.367880000000000109e+02 3.342366700000000179e+01 1.693108692327518761e-01
1.368573299999999904e+02 3.337833299999999781e+01 1.052241870744708568e-01
1.349956699999999898e+02 3.256033299999999997e+01 1.763155295665514181e-03
1.350173299999999870e+02 3.261633299999999736e+01 5.344276018139449379e-03
1.355229999999999961e+02 3.295400000000000063e+01 1.253549986659205639e-01
1.354806700000000035e+02 3.289066700000000054e+01 7.093104509944371527e-02
1.343830000000000098e+02 3.249833300000000236e+01 9.336022740070681891e-02
1.337760000000000105e+02 3.180900000000000105e+01 1.437725511705759682e-04
1.337829999999999870e+02 3.186299999999999955e+01 1.208523797634131680e-03
1.348000000000000114e+02 3.271433300000000344e+01 3.682494572350063222e-02
1.352173300000000040e+02 3.269733300000000042e+01 0.000000000000000000e+00
1.371696699999999964e+02 3.346366700000000094e+01 6.163520662106525966e-02
1.371586700000000008e+02 3.331433299999999775e+01 1.116909261685918552e-02
1.330423299999999927e+02 3.172166700000000006e+01 5.271138293522168589e-02
1.330913299999999992e+02 3.179200000000000159e+01 7.013966136301851007e-02
1.343643299999999954e+02 3.222899999999999920e+01 1.726023228855218554e-03
1.323480000000000132e+02 3.082366700000000037e+01 0.000000000000000000e+00
1.324613300000000038e+02 3.072800000000000153e+01 0.000000000000000000e+00
1.324476699999999880e+02 3.080133299999999963e+01 0.000000000000000000e+00
1.322510000000000048e+02 3.073400000000000176e+01 0.000000000000000000e+00
1.323073300000000074e+02 3.074599999999999866e+01 0.000000000000000000e+00
1.380723299999999938e+02 3.411200000000000188e+01 3.750707225873128881e-02
1.364840000000000089e+02 3.309933300000000145e+01 7.107500978198949548e-02
1.384190000000000111e+02 3.425000000000000000e+01 1.241660302809578743e-03
1.372913299999999879e+02 3.353799999999999670e+01 6.565641117764571544e-02
1.372649999999999864e+02 3.347366699999999895e+01 5.218837592267529246e-02
1.373396700000000124e+02 3.343900000000000006e+01 2.710016039187418402e-02
1.333886699999999905e+02 3.194766699999999915e+01 7.693565605088802106e-02
1.333616700000000037e+02 3.187966700000000131e+01 5.476381439893737019e-02
1.376239999999999952e+02 3.390599999999999881e+01 6.063494434029078478e-02
1.375566699999999969e+02 3.383933300000000344e+01 8.235594902430797004e-02
1.375819999999999936e+02 3.374266699999999730e+01 5.099690755597905550e-02
1.376953300000000127e+02 3.371800000000000352e+01 1.328782367173431990e-02
1.381286699999999996e+02 3.393433300000000230e+01 6.748505742840377013e-03
1.381150000000000091e+02 3.399466699999999975e+01 1.251322111780992299e-02
1.379443300000000079e+02 3.386166699999999707e+01 1.183678930035532602e-02
1.356833300000000122e+02 3.269166700000000247e+01 1.678447738729044257e-04
1.358470000000000084e+02 3.288933300000000060e+01 8.248955223053294761e-02
1.357856700000000103e+02 3.295833300000000321e+01 1.458489343363326418e-01
1.347573299999999961e+02 3.296500000000000341e+01 1.471421473614831221e-01
1.348499999999999943e+02 3.298966699999999719e+01 1.357040286175787702e-01
1.352036699999999882e+02 3.288600000000000279e+01 4.805566109494287252e-02
1.350639999999999930e+02 3.285000000000000142e+01 4.167740837872436349e-02
1.351519999999999868e+02 3.282833300000000065e+01 2.954887643804063671e-02
1.349919999999999902e+02 3.268933299999999775e+01 1.660855967542691075e-02
1.336576699999999960e+02 3.201866700000000066e+01 5.652206118927324136e-02
1.336740000000000066e+02 3.207699999999999818e+01 8.082942326700057190e-02
1.383083300000000122e+02 3.433899999999999864e+01 2.718948324640611119e-02
1.383230000000000075e+02 3.426933300000000315e+01 1.677276041570872900e-02
1.383669999999999902e+02 3.441533299999999684e+01 2.723919376754364852e-02
1.338646699999999896e+02 3.212366699999999753e+01 5.446939352169006404e-02
1.339023300000000063e+02 3.205866699999999980e+01 2.491215798624802150e-02
1.360980000000000132e+02 3.304566700000000168e+01 1.592953654407665010e-01
1.335999999999999943e+02 3.176433300000000060e+01 3.180873206015879563e-03
1.334436699999999973e+02 3.182499999999999929e+01 1.953704734835648785e-02
1.335546699999999873e+02 3.183366699999999838e+01 1.295189516125984548e-02
1.335219999999999914e+02 3.171866699999999994e+01 1.162244342381978015e-03
1.335166700000000048e+02 3.166733299999999929e+01 3.697956099590101321e-04
1.331693300000000022e+02 3.159933300000000145e+01 1.098913361429205982e-02
1.330869999999999891e+02 3.162933299999999903e+01 2.801775887754914124e-02
1.333656699999999944e+02 3.164266699999999943e+01 2.187681168366368504e-03
1.333006699999999967e+02 3.160233300000000156e+01 1.815228107428794486e-03
1.332290000000000134e+02 3.164966700000000088e+01 1.033533075722046883e-02
1.326069999999999993e+02 3.048666700000000063e+01 3.051938333028052615e-05
1.324749999999999943e+02 3.058533299999999855e+01 0.000000000000000000e+00
1.324799999999999898e+02 3.049733300000000114e+01 5.082976843958560164e-05
1.325550000000000068e+02 3.044666700000000148e+01 4.008138955396899571e-05
1.328636700000000133e+02 3.106400000000000006e+01 7.623557298271188662e-05
1.327796700000000101e+02 3.104533299999999940e+01 0.000000000000000000e+00
1.328766699999999901e+02 3.112233300000000114e+01 2.555958963766704890e-04
1.348516700000000128e+02 3.275533300000000025e+01 4.258948221340785878e-02
1.349093300000000113e+02 3.285933299999999946e+01 6.535246404095308714e-02
1.348269999999999982e+02 3.283433300000000088e+01 6.465194635766077780e-02
1.371930000000000121e+02 3.373666699999999707e+01 1.571850319057885303e-01
1.372696699999999908e+02 3.373166700000000162e+01 1.312956960002056028e-01
1.372883300000000020e+02 3.366400000000000148e+01 1.097888299631975539e-01
1.368176699999999926e+02 3.350966700000000031e+01 2.111798187919513570e-01
1.369023300000000063e+02 3.356633300000000020e+01 2.025391915755717642e-01
1.369600000000000080e+02 3.343200000000000216e+01 9.657775869110556133e-02
1.349590000000000032e+02 3.264266700000000299e+01 1.101024520103027586e-02
1.348940000000000055e+02 3.262433300000000003e+01 1.299400558675686129e-02
1.365616699999999923e+02 3.299499999999999744e+01 1.208486382941520443e-02
1.364953299999999956e+02 3.301866700000000066e+01 3.783235332873607221e-02
1.355696700000000021e+02 3.282833300000000065e+01 3.711781143448435183e-02
1.356289999999999907e+02 3.293166699999999736e+01 1.175511378223741826e-01
1.356649999999999920e+02 3.286099999999999710e+01 6.999506680349273924e-02
1.362669999999999959e+02 3.302766700000000100e+01 1.005764949059329005e-01
1.363449999999999989e+02 3.302199999999999847e+01 7.530607612088498215e-02
1.364960000000000093e+02 3.324366700000000208e+01 1.630927614789410840e-01
1.365403300000000115e+02 3.316933300000000173e+01 1.004364480582026486e-01
1.345346700000000055e+02 3.238033300000000025e+01 1.689954016460953196e-02
1.344886700000000133e+02 3.246300000000000097e+01 4.750675417085639674e-02
1.353256700000000023e+02 3.273700000000000188e+01 1.809774380585276723e-03
1.353926700000000096e+02 3.267466699999999946e+01 0.000000000000000000e+00
1.342966700000000060e+02 3.246033299999999855e+01 8.917550111122897472e-02
1.380973299999999995e+02 3.379866700000000179e+01 3.474083333732255145e-04
1.382069999999999936e+02 3.382233300000000042e+01 0.000000000000000000e+00
1.346583300000000065e+02 3.255533299999999741e+01 3.342415046602078416e-02
1.345616699999999923e+02 3.256333300000000008e+01 6.635805634073220494e-02
1.332050000000000125e+02 3.178800000000000026e+01 4.796815795500612711e-02
1.332410000000000139e+02 3.186666699999999963e+01 6.879765176822845441e-02
1.344633300000000133e+02 3.222866700000000151e+01 0.000000000000000000e+00
1.345223300000000108e+02 3.229099999999999682e+01 3.744673130380251746e-03
1.349146700000000010e+02 3.292900000000000205e+01 8.796225096868780235e-02
1.379463299999999890e+02 3.402100000000000080e+01 3.886970150633820009e-02
1.380436699999999917e+02 3.403199999999999648e+01 2.845871244578963843e-02
1.385056700000000092e+02 3.448899999999999721e+01 5.006253985546590957e-05
1.384490000000000123e+02 3.441933300000000173e+01 1.663175174583002595e-03
1.370603299999999933e+02 3.357533300000000054e+01 1.306182381131505976e-01
1.369753300000000138e+02 3.353399999999999892e+01 1.396251639884717455e-01
1.361283300000000054e+02 3.313266699999999787e+01 2.054841436028811974e-01
1.362236699999999985e+02 3.311999999999999744e+01 1.645906152361194530e-01
1.355796699999999930e+02 3.274099999999999966e+01 8.787952922490615063e-03
1.354989999999999952e+02 3.268399999999999750e+01 6.913209754829203666e-05
1.349413299999999936e+02 3.245733299999999844e+01 1.167469612844854480e-03
1.382486700000000042e+02 3.414833300000000094e+01 1.414249744710859881e-02
1.381763300000000072e+02 3.410499999999999687e+01 1.690351027921438778e-02
1.370106700000000046e+02 3.336433300000000202e+01 5.713160385071512637e-02
1.371080000000000041e+02 3.338566699999999798e+01 3.590591237806526476e-02
1.374300000000000068e+02 3.329833299999999952e+01 4.615153605579601722e-05
1.343236699999999928e+02 3.213566699999999798e+01 0.000000000000000000e+00
1.342493299999999863e+02 3.212800000000000011e+01 2.557151635828309837e-03
1.377833300000000065e+02 3.395000000000000284e+01 4.571419105277386291e-02
1.378926700000000096e+02 3.394133300000000020e+01 2.823380983106951389e-02
1.379470000000000027e+02 3.370866699999999838e+01 1.187759336099585049e-03
1.378810000000000002e+02 3.377900000000000347e+01 7.565111643175193891e-03
1.377189999999999941e+02 3.388233300000000270e+01 3.868935198004348069e-02
1.377649999999999864e+02 3.379099999999999682e+01 1.898343776273743455e-02
1.360243299999999920e+02 3.282966700000000060e+01 1.241999806501791620e-02
1.359610000000000127e+02 3.290466700000000344e+01 7.821876584927950349e-02
1.361260000000000048e+02 3.281566699999999770e+01 1.359602247804185819e-04
1.382653300000000058e+02 3.400133300000000247e+01 3.968159088784687684e-03
1.373236699999999928e+02 3.379800000000000182e+01 1.394944078261962650e-01
1.374043299999999874e+02 3.378666700000000134e+01 1.083817099849862520e-01
1.383983299999999872e+02 3.404266700000000156e+01 0.000000000000000000e+00
1.383396700000000124e+02 3.399600000000000222e+01 5.697849398429691205e-04
1.362009999999999934e+02 3.288499999999999801e+01 1.483563171244150526e-02
1.361876699999999971e+02 3.297666699999999906e+01 7.317120887753654490e-02
1.348880000000000052e+02 3.255400000000000205e+01 8.287897367340979482e-03
1.349313300000000027e+02 3.251633300000000304e+01 2.775893171856391294e-03
1.350049999999999955e+02 3.294866700000000037e+01 8.981948733556746611e-02
1.350623300000000029e+02 3.291333300000000150e+01 6.196225638562983390e-02
1.353066699999999969e+02 3.290999999999999659e+01 6.531084806888536043e-02
1.353710000000000093e+02 3.285600000000000165e+01 3.527395176502867713e-02
1.373400000000000034e+02 3.334199999999999875e+01 6.037722261540542402e-03
1.372620000000000005e+02 3.329433300000000173e+01 1.906992869036734217e-03
1.384826700000000130e+02 3.526766700000000299e+01 6.028261572288838750e-04
1.384646700000000124e+02 3.517866699999999724e+01 3.538491278345409080e-02
1.356500000000000057e+02 3.303466699999999889e+01 2.255238686842550022e-01
1.366250000000000000e+02 3.399399999999999977e+01 5.652978096153996601e-01
1.378716699999999946e+02 3.470033300000000054e+01 2.225484684037330185e-01
1.380223300000000108e+02 3.475566700000000253e+01 1.833137462588456945e-01
1.368613300000000095e+02 3.415633299999999650e+01 4.803609018729769753e-01
1.369439999999999884e+02 3.419366699999999781e+01 4.528263713870571139e-01
1.369603299999999990e+02 3.427400000000000091e+01 4.607151333487359279e-01
1.353046699999999873e+02 3.342533300000000196e+01 5.270567499002904999e-01
1.370093300000000056e+02 3.414666700000000077e+01 4.156999419757325676e-01
1.331816699999999969e+02 3.194166699999999892e+01 1.122107069512467553e-01
1.329110000000000014e+02 3.207433300000000287e+01 2.384203982888510043e-01
1.370136699999999905e+02 3.372500000000000142e+01 2.170541018974666003e-01
1.379546699999999930e+02 3.468166699999999736e+01 1.893995105603914764e-01
1.379796699999999987e+02 3.459233300000000355e+01 1.806895086934360850e-01
1.363653300000000002e+02 3.359300000000000352e+01 5.268681269398636235e-01
1.369796699999999987e+02 3.405966699999999747e+01 4.022216327973416328e-01
1.368810000000000002e+02 3.407066700000000026e+01 4.598846594469327420e-01
1.359139999999999873e+02 3.350300000000000011e+01 7.410605969369333801e-01
1.329633300000000133e+02 3.200733300000000270e+01 1.934272148175284201e-01
1.330603299999999933e+02 3.201666699999999821e+01 1.776821736500287796e-01
1.382883300000000020e+02 3.453566699999999656e+01 7.140251431773363133e-02
1.382959999999999923e+02 3.446466699999999861e+01 5.775469642575047774e-02
1.322393299999999954e+02 3.249333299999999980e+01 3.288760613742051642e-01
1.318249999999999886e+02 3.180633299999999863e+01 1.324239190492183249e-01
1.329526700000000119e+02 3.215333300000000349e+01 2.786526566069434385e-01
1.359449999999999932e+02 3.357999999999999829e+01 7.619767328482608404e-01
1.319256699999999967e+02 3.049866700000000108e+01 9.193685659641185652e-06
1.378076700000000017e+02 3.456666700000000247e+01 2.391684653853625164e-01
1.379126699999999914e+02 3.446533300000000111e+01 1.991031370645061915e-01
1.379116699999999867e+02 3.454099999999999682e+01 2.079990345245650851e-01
1.356093299999999999e+02 3.348166700000000162e+01 7.319107519748533353e-01
1.355023300000000006e+02 3.346333299999999866e+01 6.649326573325615719e-01
1.356356700000000046e+02 3.332166699999999793e+01 5.980808530247574417e-01
1.380056700000000092e+02 3.417199999999999704e+01 6.717348248148351242e-02
1.338940000000000055e+02 3.226733300000000071e+01 1.079160356349122135e-01
1.352166699999999935e+02 3.337500000000000000e+01 4.587930889393854184e-01
1.351339999999999861e+02 3.342433299999999718e+01 4.656827337366393205e-01
1.364879999999999995e+02 3.352066700000000310e+01 4.058922723920636577e-01
1.363953300000000013e+02 3.351433300000000060e+01 4.617862643482826268e-01
1.330999999999999943e+02 3.194333299999999909e+01 1.354689963212664661e-01
1.330456700000000012e+02 3.187233300000000114e+01 1.084110874473328406e-01
1.344253300000000024e+02 3.289600000000000080e+01 2.808360936642186334e-01
1.361949999999999932e+02 3.372633299999999679e+01 6.998782951699269450e-01
1.362880000000000109e+02 3.362033300000000224e+01 6.116725337607762381e-01
1.362743299999999920e+02 3.371166699999999850e+01 6.532542972097205025e-01
1.361009999999999991e+02 3.367999999999999972e+01 7.194374241155707672e-01
1.326330000000000098e+02 3.284466700000000117e+01 6.156193177222942792e-01
1.365083300000000008e+02 3.338166700000000020e+01 2.783072509674280326e-01
1.383779999999999859e+02 3.458666699999999850e+01 5.529943532788497706e-02
1.323676700000000039e+02 3.264466699999999832e+01 4.417104599134952236e-01
1.357123300000000086e+02 3.309333300000000122e+01 2.910731314888351795e-01
1.354679999999999893e+02 3.340599999999999881e+01 6.027475044903929380e-01
1.353779999999999859e+02 3.338166700000000020e+01 5.247784344735197948e-01
1.332503299999999911e+02 3.280100000000000193e+01 6.838269511258295852e-01
1.333360000000000127e+02 3.286999999999999744e+01 7.103257496984778374e-01
1.352133300000000133e+02 3.328533300000000139e+01 4.015584920140417013e-01
1.343300000000000125e+02 3.285333299999999923e+01 3.000252454693578819e-01
1.358133300000000077e+02 3.351433300000000060e+01 7.782140795645483555e-01
1.357946699999999964e+02 3.309166700000000105e+01 2.751749672275007330e-01
1.324146700000000010e+02 3.241466700000000145e+01 3.722945649931003187e-01
1.337473300000000052e+02 3.219533299999999798e+01 1.230844874149319701e-01
1.354936700000000087e+02 3.300833300000000037e+01 1.754588086909922018e-01
1.353996699999999862e+02 3.303300000000000125e+01 1.938959125771063663e-01
1.353243300000000033e+02 3.300000000000000000e+01 1.186090791979600018e-01
1.355663299999999936e+02 3.304733300000000185e+01 2.448042518711755489e-01
1.355670000000000073e+02 3.312400000000000233e+01 3.066332533725503184e-01
1.354933299999999861e+02 3.316433299999999917e+01 3.527839995626134151e-01
1.377076700000000073e+02 3.466033300000000139e+01 2.640752435923244823e-01
1.377926699999999869e+02 3.463666700000000276e+01 2.456103180400042441e-01
1.375993300000000090e+02 3.398766700000000185e+01 8.457809202200336496e-02
1.358569999999999993e+02 3.334433299999999889e+01 6.161246491270282455e-01
1.356606700000000103e+02 3.315899999999999892e+01 3.672573631989083376e-01
1.356980000000000075e+02 3.324333299999999980e+01 4.858986102142362484e-01
1.358166699999999878e+02 3.325766699999999787e+01 5.017639326898342134e-01
1.337800000000000011e+02 3.235166699999999906e+01 1.948082641875380772e-01
1.338106699999999876e+02 3.226933300000000315e+01 1.460859633426714599e-01
1.339006699999999910e+02 3.335066700000000139e+01 7.685352009269773577e-01
1.343273299999999892e+02 3.277233300000000327e+01 2.535522038261751043e-01
1.355333300000000065e+02 3.332000000000000028e+01 5.469704554942783625e-01
1.354793300000000045e+02 3.325399999999999778e+01 4.492003459788275199e-01
1.353886699999999905e+02 3.328999999999999915e+01 4.578998981866849172e-01
1.353986700000000098e+02 3.311233299999999957e+01 2.613669552427054787e-01
1.332826699999999960e+02 3.271733300000000355e+01 6.314740960572472472e-01
1.342669999999999959e+02 3.299133299999999736e+01 4.475362928817098740e-01
1.342460000000000093e+02 3.289900000000000091e+01 3.987808101175375763e-01
1.331566699999999912e+02 3.283666699999999850e+01 7.222597138997975952e-01
1.341636699999999962e+02 3.356766700000000014e+01 5.787442848112220872e-01
1.342549999999999955e+02 3.361200000000000188e+01 4.968842883234160790e-01
1.353120000000000118e+02 3.324399999999999977e+01 3.768537216533313083e-01
1.353079999999999927e+02 3.315599999999999881e+01 3.027619223744649202e-01
1.316063300000000140e+02 3.115966699999999889e+01 0.000000000000000000e+00
1.385080000000000098e+02 3.510733299999999701e+01 6.966675602521422983e-02
1.344569999999999936e+02 3.364433300000000315e+01 3.900265153013495745e-01
1.370380000000000109e+02 3.431400000000000006e+01 4.256673168676771701e-01
1.327729999999999961e+02 3.292333299999999952e+01 6.829279277122943803e-01
1.327466699999999946e+02 3.285433299999999690e+01 6.744936229994792365e-01
1.379699999999999989e+02 3.432333299999999809e+01 1.323354906199979975e-01
1.380416700000000105e+02 3.425666700000000020e+01 8.392043116842935746e-02
1.360406700000000058e+02 3.357266700000000270e+01 7.107677973630326385e-01
1.361053300000000092e+02 3.362333300000000236e+01 7.070508933041305122e-01
1.320223300000000108e+02 3.185466699999999918e+01 1.367935583237109287e-01
1.320323300000000017e+02 3.177133299999999849e+01 1.147368033844046037e-01
1.326826700000000017e+02 3.271200000000000330e+01 5.981919129338687524e-01
1.351946700000000021e+02 3.312100000000000222e+01 2.226995569949224429e-01
1.316036699999999939e+02 3.086033300000000068e+01 0.000000000000000000e+00
1.376323299999999961e+02 3.461666699999999963e+01 2.663177253177036463e-01
1.375120000000000005e+02 3.453266699999999645e+01 2.559877176508410512e-01
1.376016700000000128e+02 3.454899999999999949e+01 2.598768048809922959e-01
1.321510000000000105e+02 3.132766700000000171e+01 0.000000000000000000e+00
1.328096700000000112e+02 3.206766700000000014e+01 2.447362755474953577e-01
1.327676700000000096e+02 3.213700000000000045e+01 2.818807005441381075e-01
1.319166700000000105e+02 3.141366700000000023e+01 0.000000000000000000e+00
1.331469999999999914e+02 3.264399999999999835e+01 6.092981180031690203e-01
1.332383299999999906e+02 3.264999999999999858e+01 5.976428176765652411e-01
1.362036699999999882e+02 3.325633299999999792e+01 2.828610599720989827e-01
1.316583300000000065e+02 3.122733300000000156e+01 0.000000000000000000e+00
1.316250000000000000e+02 3.128699999999999903e+01 0.000000000000000000e+00
1.343083300000000122e+02 3.349233300000000213e+01 5.688197856453052204e-01
1.381363299999999867e+02 3.427166700000000077e+01 5.354777138186694874e-02
1.365130000000000052e+02 3.360300000000000153e+01 4.404228527934666015e-01
1.364399999999999977e+02 3.364900000000000091e+01 5.181793393295942574e-01
1.373496700000000033e+02 3.453766699999999901e+01 2.560224112748987202e-01
1.374056699999999864e+02 3.460266699999999673e+01 2.599419278619531370e-01
1.339766700000000128e+02 3.232500000000000284e+01 1.240707991803536858e-01
1.326043300000000045e+02 3.277566699999999855e+01 5.938179275082141606e-01
1.330976699999999937e+02 3.224566699999999742e+01 3.252042313119908878e-01
1.382030000000000030e+02 3.434300000000000352e+01 5.588824684828454931e-02
1.381956700000000069e+02 3.440933299999999662e+01 7.193574927268105157e-02
1.379976699999999994e+02 3.441266699999999901e+01 1.554429496483900608e-01
1.380989999999999895e+02 3.444566700000000026e+01 1.200490409619077992e-01
1.360986699999999985e+02 3.349666700000000219e+01 6.391441710302444568e-01
1.362129999999999939e+02 3.357833300000000065e+01 6.303483169309167522e-01
1.361970000000000027e+02 3.350433300000000258e+01 5.932145116601567070e-01
1.339910000000000139e+02 3.333033300000000310e+01 7.531313074306084099e-01
1.328276700000000119e+02 3.258466700000000316e+01 5.692495318124407566e-01
1.350373299999999972e+02 3.302833300000000349e+01 1.332182065185212871e-01
1.316346699999999998e+02 3.076300000000000168e+01 0.000000000000000000e+00
1.317196700000000078e+02 3.071799999999999997e+01 0.000000000000000000e+00
1.331416700000000048e+02 3.309633300000000133e+01 7.491453199258559792e-01
1.375550000000000068e+02 3.464200000000000301e+01 2.679876362707352411e-01
1.374890000000000043e+02 3.459300000000000352e+01 2.612325709890253034e-01
1.320749999999999886e+02 3.163266700000000142e+01 8.257326288117321222e-02
1.330229999999999961e+02 3.230533299999999741e+01 3.885622591822836536e-01
1.333876700000000142e+02 3.269899999999999807e+01 5.928569745900067467e-01
1.323016700000000014e+02 3.195033300000000054e+01 1.692006533587937789e-01
1.330449999999999875e+02 3.307466699999999804e+01 7.491717117713174723e-01
1.331426700000000096e+02 3.293433300000000230e+01 7.529801999431093851e-01
1.320966699999999889e+02 3.108500000000000085e+01 0.000000000000000000e+00
1.320813300000000083e+02 3.117599999999999838e+01 0.000000000000000000e+00
1.374950000000000045e+02 3.400133300000000247e+01 1.121643354079801397e-01
1.374319999999999879e+02 3.393833300000000008e+01 1.530602825023450464e-01
1.333956699999999955e+02 3.261133300000000190e+01 5.435666695808974991e-01
1.327136700000000076e+02 3.258266700000000071e+01 5.384120272237870042e-01
1.326436699999999860e+02 3.264166699999999821e+01 5.598443599177531649e-01
1.349890000000000043e+02 3.315833299999999895e+01 2.277554094464918077e-01
1.316550000000000011e+02 3.108999999999999986e+01 0.000000000000000000e+00
1.360666699999999878e+02 3.344166700000000247e+01 6.065918011684974243e-01
1.361056700000000035e+02 3.337333300000000236e+01 5.264455550715300136e-01
1.318736700000000042e+02 3.133866700000000094e+01 0.000000000000000000e+00
1.317876699999999914e+02 3.131599999999999895e+01 0.000000000000000000e+00
1.361083299999999952e+02 3.321433300000000344e+01 2.789457887558896565e-01
1.360303299999999922e+02 3.323366699999999696e+01 3.766217001689834420e-01
1.319523299999999892e+02 3.201500000000000057e+01 1.899643905348133988e-01
1.366363299999999867e+02 3.346966700000000117e+01 2.762209220441573798e-01
1.365456700000000012e+02 3.345833300000000321e+01 3.208038477421051859e-01
1.324739999999999895e+02 3.269033300000000253e+01 5.035061346238588476e-01
1.324986700000000042e+02 3.276633300000000304e+01 5.235712374487563325e-01
1.320840000000000032e+02 3.146600000000000108e+01 0.000000000000000000e+00
1.320540000000000020e+02 3.152100000000000080e+01 0.000000000000000000e+00
1.366246700000000089e+02 3.391299999999999670e+01 5.416457400538015055e-01
1.367179999999999893e+02 3.388033300000000025e+01 4.526376350487738565e-01
1.331676699999999869e+02 3.315466700000000344e+01 7.338595283632344257e-01
1.315756700000000023e+02 3.071266699999999972e+01 0.000000000000000000e+00
1.333009999999999877e+02 3.257800000000000296e+01 5.404764427269238558e-01
1.332729999999999961e+02 3.250333299999999781e+01 4.954866416949838537e-01
1.325253299999999967e+02 3.155266699999999958e+01 5.551810342025719630e-02
1.367106699999999933e+02 3.404933299999999718e+01 5.409581348485990038e-01
1.334693300000000136e+02 3.256633300000000020e+01 4.756823079398009302e-01
1.325883300000000133e+02 3.234166700000000105e+01 3.748052105439390602e-01
1.326806699999999921e+02 3.250766699999999787e+01 4.988699943991338759e-01
1.325010000000000048e+02 3.255499999999999972e+01 4.748998054687934567e-01
1.325406700000000058e+02 3.262933300000000258e+01 5.088253512383004162e-01
1.352173300000000040e+02 3.300466699999999776e+01 1.142076563310572834e-01
1.351566699999999912e+02 3.304999999999999716e+01 1.589086209750545930e-01
1.348700000000000045e+02 3.305966699999999747e+01 1.692147059142173060e-01
1.349670000000000130e+02 3.307866700000000293e+01 1.792380201807545481e-01
1.350973299999999995e+02 3.317900000000000205e+01 2.738923676294630072e-01
1.351119999999999948e+02 3.325533300000000025e+01 3.300386883038647357e-01
1.375889999999999986e+02 3.433333300000000321e+01 2.174777445566661027e-01
1.375763300000000129e+02 3.441400000000000148e+01 2.374915187064644828e-01
1.378009999999999877e+02 3.442999999999999972e+01 2.173297045700598451e-01
1.376390000000000100e+02 3.414733300000000327e+01 1.345681588620289693e-01
1.321603299999999876e+02 3.066300000000000026e+01 0.000000000000000000e+00
1.318086700000000064e+02 3.075866699999999909e+01 0.000000000000000000e+00
1.323486699999999985e+02 3.162733300000000014e+01 6.815626693581729179e-02
1.322556700000000092e+02 3.164399999999999835e+01 7.582954168387280591e-02
1.322466699999999946e+02 3.180766699999999858e+01 1.228577191045971129e-01
1.359776699999999892e+02 3.344066699999999770e+01 6.530684205129264619e-01
1.359540000000000077e+02 3.336200000000000188e+01 6.015036927167828340e-01
1.360333300000000065e+02 3.331799999999999784e+01 4.875422930898212215e-01
1.316040000000000134e+02 3.101433300000000060e+01 0.000000000000000000e+00
1.316593300000000113e+02 3.092766699999999958e+01 0.000000000000000000e+00
1.343643299999999954e+02 3.302199999999999847e+01 3.969046081547905058e-01
1.344386700000000019e+02 3.297233299999999900e+01 3.168734594783761960e-01
1.327493299999999863e+02 3.199800000000000111e+01 2.041016077231987969e-01
1.361873300000000029e+02 3.336433300000000202e+01 4.519229388346620579e-01
1.362419999999999902e+02 3.330833299999999753e+01 3.419697928636953876e-01
1.329516700000000071e+02 3.187600000000000122e+01 1.265283712968587604e-01
1.329089999999999918e+02 3.193766700000000114e+01 1.591673555421237729e-01
1.338433300000000088e+02 3.241966699999999690e+01 2.257857841300731083e-01
1.338403299999999945e+02 3.327600000000000335e+01 7.824442073867436953e-01
1.338669999999999902e+02 3.318433300000000230e+01 7.678597208536395158e-01
1.326349999999999909e+02 3.221300000000000097e+01 3.140155501509311331e-01
1.326593300000000113e+02 3.214333299999999838e+01 2.849661151379846435e-01
1.385130000000000052e+02 3.494433300000000031e+01 8.699149716467176330e-02
1.320853299999999990e+02 3.048333299999999824e+01 0.000000000000000000e+00
1.321440000000000055e+02 3.052033300000000082e+01 0.000000000000000000e+00
1.368813299999999913e+02 3.364699999999999847e+01 2.482966551768707175e-01
1.369176699999999869e+02 3.372266700000000128e+01 2.673248734136233207e-01
1.331763300000000072e+02 3.249033299999999969e+01 5.004112781740823745e-01
1.331129999999999995e+02 3.255899999999999750e+01 5.635606970873732191e-01
1.374886700000000133e+02 3.429999999999999716e+01 2.161678586878554020e-01
1.375156700000000001e+02 3.414900000000000091e+01 1.624814343760148938e-01
1.374490000000000123e+02 3.407366700000000037e+01 1.432860782826227974e-01
1.348979999999999961e+02 3.321566700000000338e+01 2.791041020360395808e-01
1.333319999999999936e+02 3.236999999999999744e+01 3.919745295385849149e-01
1.333356699999999933e+02 3.244700000000000273e+01 4.321473274697665290e-01
1.336696699999999964e+02 3.235699999999999932e+01 2.445106284181849110e-01
1.336166699999999992e+02 3.243399999999999750e+01 3.111524443384011684e-01
1.345130000000000052e+02 3.353199999999999648e+01 4.297749273184952590e-01
1.346030000000000086e+02 3.354733300000000185e+01 3.940167922683356361e-01
1.376676699999999869e+02 3.430666699999999736e+01 1.893742398959543938e-01
1.376973299999999938e+02 3.421866700000000350e+01 1.562307556835689504e-01
1.339879999999999995e+02 3.305299999999999727e+01 6.678113211064973243e-01
1.370413299999999879e+02 3.439266700000000299e+01 4.235484170057714493e-01
1.345526700000000062e+02 3.364633299999999849e+01 3.523808468015728890e-01
1.346163300000000049e+02 3.360433299999999690e+01 3.746773077243829575e-01
1.346993300000000033e+02 3.360999999999999943e+01 3.589741155834336173e-01
1.320109999999999957e+02 3.077733299999999872e+01 0.000000000000000000e+00
1.345320000000000107e+02 3.299900000000000233e+01 2.910647541250013792e-01
1.326399999999999864e+02 3.200766699999999787e+01 2.064236240148409063e-01
1.326469999999999914e+02 3.187000000000000099e+01 1.412143939991367947e-01
1.363460000000000036e+02 3.344500000000000028e+01 4.291891858184961883e-01
1.364013300000000015e+02 3.337466700000000230e+01 3.331095212456245958e-01
1.362466699999999946e+02 3.344033300000000253e+01 5.051747984204700836e-01
1.363566700000000083e+02 3.331400000000000006e+01 2.868205296559939166e-01
1.327593300000000056e+02 3.245499999999999829e+01 4.672224365203681007e-01
1.337453299999999956e+02 3.329299999999999926e+01 7.793148525747732869e-01
1.334780000000000086e+02 3.318633299999999764e+01 7.793581881109964415e-01
1.335616699999999923e+02 3.317566699999999713e+01 7.720780069886110653e-01
1.325920000000000130e+02 3.208366699999999838e+01 2.422798813009428842e-01
1.383296699999999930e+02 3.493599999999999994e+01 2.250745900319700288e-01
1.321113300000000095e+02 3.061133299999999835e+01 0.000000000000000000e+00
1.319919999999999902e+02 3.052100000000000080e+01 0.000000000000000000e+00
1.368616700000000037e+02 3.379266700000000156e+01 3.308430160122287078e-01
1.367586699999999951e+02 3.379733300000000185e+01 3.921631965904003314e-01
1.330236700000000098e+02 3.256000000000000227e+01 5.669201144662837644e-01
1.330536700000000110e+02 3.238700000000000045e+01 4.386577863250684661e-01
1.331516699999999958e+02 3.240733300000000128e+01 4.513626380658846693e-01
1.371213300000000004e+02 3.426800000000000068e+01 3.878582267854429610e-01
1.371090000000000089e+02 3.418099999999999739e+01 3.751309451253694860e-01
1.349590000000000032e+02 3.347200000000000131e+01 4.328767124150516010e-01
1.334373300000000029e+02 3.247666699999999906e+01 4.237494107500852092e-01
1.336503299999999967e+02 3.220000000000000284e+01 1.550540447046368231e-01
1.335970000000000084e+02 3.212800000000000011e+01 1.262323039211857567e-01
1.334350000000000023e+02 3.234899999999999665e+01 3.267820164579295916e-01
1.334846699999999942e+02 3.228066700000000111e+01 2.579204888651607241e-01
1.335006700000000137e+02 3.242466699999999946e+01 3.619989927007336572e-01
1.336033299999999997e+02 3.227933300000000116e+01 2.092819112684739802e-01
1.317486700000000042e+02 3.110000000000000142e+01 0.000000000000000000e+00
1.337906700000000058e+02 3.311966699999999975e+01 7.418883812640321151e-01
1.324713299999999947e+02 3.142433300000000074e+01 3.467385158939377543e-02
1.323723300000000052e+02 3.153933299999999917e+01 5.369361057830517731e-02
1.324566700000000026e+02 3.150733299999999915e+01 4.512660464310036534e-02
1.337030000000000030e+02 3.315100000000000335e+01 7.628004229749896226e-01
1.347940000000000111e+02 3.356600000000000250e+01 3.939081006966690945e-01
1.347920000000000016e+02 3.352100000000000080e+01 3.983702185093633275e-01
1.345180000000000007e+02 3.346699999999999875e+01 4.426228241214664738e-01
1.346839999999999975e+02 3.350800000000000267e+01 4.001184483660865654e-01
1.378556700000000035e+02 3.430166700000000191e+01 1.558539191827522652e-01
1.377716700000000003e+02 3.435566699999999685e+01 1.941223722477210256e-01
1.378153299999999888e+02 3.421933299999999889e+01 1.326932859397096931e-01
1.327423300000000097e+02 3.176233300000000170e+01 9.941658904482683634e-02
1.326513300000000015e+02 3.179166700000000034e+01 1.186954290331463935e-01
1.323706699999999898e+02 3.187566699999999997e+01 1.441009186377826823e-01
1.323436700000000030e+02 3.180199999999999960e+01 1.269137363319844669e-01
1.324606699999999933e+02 3.186700000000000088e+01 1.463202334878379585e-01
1.343139999999999930e+02 3.333466700000000316e+01 6.021329776124084709e-01
1.341996699999999976e+02 3.331933300000000031e+01 6.890714958242936117e-01
1.319573300000000131e+02 3.221766699999999872e+01 2.145740179776968182e-01
1.320143300000000011e+02 3.229399999999999693e+01 2.280904095182977875e-01
1.319970000000000141e+02 3.102166700000000077e+01 0.000000000000000000e+00
1.320159999999999911e+02 3.092899999999999849e+01 0.000000000000000000e+00
1.334476699999999880e+02 3.275900000000000034e+01 6.230827174606181629e-01
1.335516700000000014e+02 3.275500000000000256e+01 5.877642050486403535e-01
1.326020000000000039e+02 3.166933300000000173e+01 8.395818599460976028e-02
1.325923300000000040e+02 3.175300000000000011e+01 1.043988151762055699e-01
1.318763299999999958e+02 3.063100000000000023e+01 0.000000000000000000e+00
1.318799999999999955e+02 3.070700000000000074e+01 0.000000000000000000e+00
1.328669999999999902e+02 3.264566700000000310e+01 6.095523552486010743e-01
1.367196700000000078e+02 3.373066699999999685e+01 3.747631914506041606e-01
1.366203299999999956e+02 3.372200000000000131e+01 4.335207994197068926e-01
1.329070000000000107e+02 3.241199999999999903e+01 4.654560347127723596e-01
1.329873299999999858e+02 3.243233299999999986e+01 4.848438182235503824e-01
1.345236700000000098e+02 3.334866699999999895e+01 4.473352865398564915e-01
1.347930000000000064e+02 3.319533299999999798e+01 2.663563241790372071e-01
1.337236699999999985e+02 3.297133300000000133e+01 6.687107224462204291e-01
1.341529999999999916e+02 3.271866700000000350e+01 3.168469416575187547e-01
1.384946700000000135e+02 3.485499999999999687e+01 6.376788252240031540e-02
1.376766700000000014e+02 3.405833299999999753e+01 9.748172663893360512e-02
1.377656700000000001e+02 3.404433300000000173e+01 6.781770805907440247e-02
1.321990000000000123e+02 3.157366700000000037e+01 6.394550783075658718e-02
1.321140000000000043e+02 3.157266699999999915e+01 7.143059423350144044e-02
1.319606699999999933e+02 3.129233299999999929e+01 0.000000000000000000e+00
1.319673300000000040e+02 3.121533300000000111e+01 0.000000000000000000e+00
1.318916700000000048e+02 3.116633300000000162e+01 0.000000000000000000e+00
1.317549999999999955e+02 3.124066699999999841e+01 0.000000000000000000e+00
1.317966700000000060e+02 3.118299999999999983e+01 0.000000000000000000e+00
1.328903300000000058e+02 3.181500000000000128e+01 1.013224897071802605e-01
1.327963300000000118e+02 3.193499999999999872e+01 1.701098240904765635e-01
1.327936699999999917e+02 3.182066700000000026e+01 1.154452827127239456e-01
1.327423300000000097e+02 3.187900000000000134e+01 1.417229125813895541e-01
1.318196700000000021e+02 3.051533299999999826e+01 0.000000000000000000e+00
1.337996699999999919e+02 3.251200000000000045e+01 2.985033808017024115e-01
1.372576699999999903e+02 3.454899999999999949e+01 2.629075713480551468e-01
1.374509999999999934e+02 3.422666699999999906e+01 1.983860851104892464e-01
1.373383300000000133e+02 3.407833300000000065e+01 2.553305984914698290e-01
1.349043299999999874e+02 3.330566699999999969e+01 3.256994279961169525e-01
1.339726699999999937e+02 3.315599999999999881e+01 7.325515888142918319e-01
1.340800000000000125e+02 3.300900000000000034e+01 5.775768771152843817e-01
1.342523300000000006e+02 3.271966700000000117e+01 2.463916804336778454e-01
1.342706699999999955e+02 3.264366700000000066e+01 2.061798238309672238e-01
1.319060000000000059e+02 3.106366699999999881e+01 0.000000000000000000e+00
1.319499999999999886e+02 3.085866700000000051e+01 0.000000000000000000e+00
1.334283299999999883e+02 3.284633300000000133e+01 6.656319467557429981e-01
1.319850000000000136e+02 3.163166700000000020e+01 0.000000000000000000e+00
1.317789999999999964e+02 3.166600000000000037e+01 0.000000000000000000e+00
1.319699999999999989e+02 3.156200000000000117e+01 0.000000000000000000e+00
1.325176700000000096e+02 3.163266700000000142e+01 7.026355816498190687e-02
1.324253300000000024e+02 3.167533299999999841e+01 8.619159749147713157e-02
1.325016699999999901e+02 3.178766699999999901e+01 1.214906404060035749e-01
1.324190000000000111e+02 3.174666699999999864e+01 1.053410544493376122e-01
1.332700000000000102e+02 3.317966700000000202e+01 7.484857127524137121e-01
1.319633300000000133e+02 3.059033300000000111e+01 0.000000000000000000e+00
1.319739999999999895e+02 3.071833300000000122e+01 0.000000000000000000e+00
1.320240000000000009e+02 3.064366700000000066e+01 0.000000000000000000e+00
1.328629999999999995e+02 3.235699999999999932e+01 4.267387880007931233e-01
1.327993299999999977e+02 3.221433300000000344e+01 3.158257158110964191e-01
1.327233300000000042e+02 3.225733300000000270e+01 3.447704211785804773e-01
1.326986699999999928e+02 3.233200000000000074e+01 3.811440783123529741e-01
1.327649999999999864e+02 3.237866700000000009e+01 4.315566918256329432e-01
1.329666699999999935e+02 3.263799999999999812e+01 6.210434466465223347e-01
1.328273299999999892e+02 3.278733299999999673e+01 6.784079934916071863e-01
1.327920000000000016e+02 3.271399999999999864e+01 6.442269633202478696e-01
1.336006700000000080e+02 3.325099999999999767e+01 7.743372497404277244e-01
1.336843299999999886e+02 3.323266699999999929e+01 7.751999292522175899e-01
1.316836700000000064e+02 3.141233300000000028e+01 0.000000000000000000e+00
1.317036699999999882e+02 3.134666700000000006e+01 0.000000000000000000e+00
1.365993300000000090e+02 3.363233300000000270e+01 3.987745050489678866e-01
1.366649999999999920e+02 3.356133299999999764e+01 3.135288190134161157e-01
1.367526699999999948e+02 3.357066700000000026e+01 2.725644672790246692e-01
1.367863299999999924e+02 3.365033300000000338e+01 2.962510918917448111e-01
1.328870000000000005e+02 3.252199999999999847e+01 5.270538020760241471e-01
1.329833299999999952e+02 3.250500000000000256e+01 5.251646498425684984e-01
1.328516700000000128e+02 3.246733300000000355e+01 4.932580235619341558e-01
1.348633299999999906e+02 3.347200000000000131e+01 4.069848066113903040e-01
1.346103300000000047e+02 3.336800000000000210e+01 4.110596886543282924e-01
1.347003300000000081e+02 3.308200000000000074e+01 2.342476963509210752e-01
1.347870000000000061e+02 3.311899999999999977e+01 2.290213928897974760e-01
1.321173300000000097e+02 3.238900000000000290e+01 2.590389425222138775e-01
1.336026699999999892e+02 3.283666699999999850e+01 6.171913331950963366e-01
1.335296700000000101e+02 3.289399999999999835e+01 6.760366956250508652e-01
1.320883300000000133e+02 3.231266699999999759e+01 2.482501576582080705e-01
1.321476700000000051e+02 3.225600000000000023e+01 2.521199454576925625e-01
1.319099999999999966e+02 3.208066699999999827e+01 1.957852600724257763e-01
1.319840000000000089e+02 3.216033300000000139e+01 2.159579395867352036e-01
1.337870000000000061e+02 3.270566699999999827e+01 4.665946696282642359e-01
1.336839999999999975e+02 3.282600000000000051e+01 5.834005055140690787e-01
1.337369999999999948e+02 3.288100000000000023e+01 6.086553096487831160e-01
1.337206700000000126e+02 3.272566700000000139e+01 5.203909570829540199e-01
1.371680000000000064e+02 3.404133300000000162e+01 3.016010087101907988e-01
1.371776700000000062e+02 3.412966699999999776e+01 3.251671504541790991e-01
1.320506699999999967e+02 3.133766699999999972e+01 0.000000000000000000e+00
1.320246699999999862e+02 3.141266699999999901e+01 0.000000000000000000e+00
1.324963300000000004e+02 3.193933300000000131e+01 1.708830232784895320e-01
1.325916699999999935e+02 3.193566699999999869e+01 1.730942694044311780e-01
1.378936699999999860e+02 3.415633299999999650e+01 8.670266707549881269e-02
1.378629999999999995e+02 3.408533299999999855e+01 6.738787370916160535e-02
1.341850000000000023e+02 3.258733300000000099e+01 1.988443395097390376e-01
1.341873300000000029e+02 3.251899999999999835e+01 1.584707808887261815e-01
1.346049999999999898e+02 3.343399999999999750e+01 4.163840009735378378e-01
1.346810000000000116e+02 3.345966700000000316e+01 4.016165351777474801e-01
1.322786700000000053e+02 3.107000000000000028e+01 0.000000000000000000e+00
1.321990000000000123e+02 3.103333299999999895e+01 0.000000000000000000e+00
1.325289999999999964e+02 3.241033300000000139e+01 4.091677712609305684e-01
1.325709999999999980e+02 3.249233300000000213e+01 4.571732217124138131e-01
1.321076700000000130e+02 3.171933299999999889e+01 9.592249137005548487e-02
1.322033299999999940e+02 3.172966699999999918e+01 9.790203724890898795e-02
1.383259999999999934e+02 3.486033299999999713e+01 1.937314076062432444e-01
1.384190000000000111e+02 3.481166699999999992e+01 9.995721245674948907e-02
1.335399999999999920e+02 3.297999999999999687e+01 7.182448150416638200e-01
1.316283300000000054e+02 3.056733300000000142e+01 0.000000000000000000e+00
1.315753300000000081e+02 3.062133299999999991e+01 0.000000000000000000e+00
1.340406700000000058e+02 3.346500000000000341e+01 6.880116018300697078e-01
1.341493299999999920e+02 3.338533300000000281e+01 6.888514168074860722e-01
1.340453300000000070e+02 3.338966700000000287e+01 7.169521185156368936e-01
1.334316699999999969e+02 3.302266699999999844e+01 7.635798327500252780e-01
1.381033299999999997e+02 3.472899999999999920e+01 1.487911778926281348e-01
1.382593300000000056e+02 3.469166700000000247e+01 1.171731108540653155e-01
1.372760000000000105e+02 3.428866699999999668e+01 2.384736732838182716e-01
1.373063300000000027e+02 3.437166700000000219e+01 2.486196938848267424e-01
1.371896700000000067e+02 3.430566699999999969e+01 3.680810596244068478e-01
1.318986700000000098e+02 3.155199999999999960e+01 0.000000000000000000e+00
1.318036700000000110e+02 3.159499999999999886e+01 0.000000000000000000e+00
1.318676700000000039e+02 3.147266700000000128e+01 0.000000000000000000e+00
1.322266700000000128e+02 3.151066700000000154e+01 5.448916913935372697e-02
1.323069999999999879e+02 3.149299999999999855e+01 4.701087155069917645e-02
1.338553300000000092e+02 3.256766700000000014e+01 3.338557176075055422e-01
1.338393299999999897e+02 3.264166699999999821e+01 3.897044843965614680e-01
1.370490000000000066e+02 3.379433300000000173e+01 2.328879242252954174e-01
1.330833299999999895e+02 3.270199999999999818e+01 6.613911110248879011e-01
1.329923300000000097e+02 3.269500000000000028e+01 6.531948998105077120e-01
1.322646699999999953e+02 3.211166699999999707e+01 2.297346151917761259e-01
1.323156700000000114e+02 3.217799999999999727e+01 2.590458018825259057e-01
1.339423299999999983e+02 3.273633300000000190e+01 4.289455934940258897e-01
1.381116700000000037e+02 3.452133299999999849e+01 1.250478580529393868e-01
1.382006700000000023e+02 3.455599999999999739e+01 1.057760600892560937e-01
1.380603299999999933e+02 3.457999999999999829e+01 1.435988625933446172e-01
1.333290000000000077e+02 3.296033299999999855e+01 7.461587582252484641e-01
1.332293300000000045e+02 3.298899999999999721e+01 7.628973610422095097e-01
1.332256700000000080e+02 3.306633300000000020e+01 7.648180449172833351e-01
1.322126700000000028e+02 3.139133299999999949e+01 0.000000000000000000e+00
1.321716700000000060e+02 3.145466700000000060e+01 0.000000000000000000e+00
1.323000000000000114e+02 3.141300000000000026e+01 4.045146054614365272e-02
1.317136700000000076e+02 3.061366699999999952e+01 0.000000000000000000e+00
1.317990000000000066e+02 3.057833300000000065e+01 0.000000000000000000e+00
1.339346700000000112e+02 3.266733299999999929e+01 3.871908784239168066e-01
1.339643299999999897e+02 3.253799999999999670e+01 2.733654314443154654e-01
1.372829999999999870e+02 3.414666700000000077e+01 2.936213114089113452e-01
1.373290000000000077e+02 3.421966700000000117e+01 2.151437606024042548e-01
1.317223299999999995e+02 3.154366699999999923e+01 0.000000000000000000e+00
1.317563299999999913e+02 3.147200000000000131e+01 0.000000000000000000e+00
1.318136700000000019e+02 3.102633300000000105e+01 0.000000000000000000e+00
1.334436699999999973e+02 3.205633300000000219e+01 1.095502577582577464e-01
1.333009999999999877e+02 3.218999999999999773e+01 2.421933236063530948e-01
1.330846699999999885e+02 3.278766699999999901e+01 7.002795268061784428e-01
1.329799999999999898e+02 3.283433300000000088e+01 7.229986225850201231e-01
1.329279999999999973e+02 3.277600000000000335e+01 6.947352236529388270e-01
1.323233299999999986e+02 3.202700000000000102e+01 1.967749290821508013e-01
1.324279999999999973e+02 3.202466700000000088e+01 2.063568759512716955e-01
1.324216700000000060e+02 3.216566699999999912e+01 2.693032099286752357e-01
1.324753300000000138e+02 3.209700000000000131e+01 2.388157594716491250e-01
1.346963299999999890e+02 3.332500000000000284e+01 3.640679559156660416e-01
1.346983299999999986e+02 3.325000000000000000e+01 3.363269139630876703e-01
1.323543300000000045e+02 3.236566700000000196e+01 3.328909161409503437e-01
1.322456699999999898e+02 3.241566699999999912e+01 3.136905525255673233e-01
1.323723300000000052e+02 3.229566700000000168e+01 3.110381279653033348e-01
1.322883300000000020e+02 3.225399999999999778e+01 2.776980024585358198e-01
1.322199999999999989e+02 3.228466699999999889e+01 2.727685411217705691e-01
1.321953300000000127e+02 3.237633300000000247e+01 2.853229341483773385e-01
1.339116699999999867e+02 3.289566700000000310e+01 5.728322279832170905e-01
1.371469999999999914e+02 3.379599999999999937e+01 1.967481530117315691e-01
1.371703300000000070e+02 3.387100000000000222e+01 2.141395792270603393e-01
1.376399999999999864e+02 3.448799999999999955e+01 2.536797035244640619e-01
