1.323379999999999939e+02 3.359100000000000108e+01 7.135234059070204304e-02
1.361693300000000022e+02 3.538466700000000031e+01 3.623710331280466379e-02
1.361939999999999884e+02 3.532300000000000040e+01 4.715835153364251325e-02
1.327239999999999895e+02 3.390966699999999889e+01 1.146899310982900377e-01
1.371419999999999959e+02 3.507233300000000042e+01 4.099971724410896023e-02
1.362386700000000133e+02 3.515966699999999889e+01 1.222687781120530975e-01
1.362379999999999995e+02 3.499833300000000236e+01 1.984181262362043063e-01
1.361713300000000118e+02 3.498466700000000174e+01 1.437010996879939939e-01
1.315860000000000127e+02 3.214399999999999835e+01 1.083922172598230371e-01
1.364413299999999936e+02 3.457399999999999807e+01 3.587882143758396314e-01
1.367549999999999955e+02 3.539000000000000057e+01 0.000000000000000000e+00
1.361423299999999870e+02 3.518033299999999741e+01 5.493921138149227001e-02
1.361703300000000070e+02 3.513199999999999790e+01 8.565438498449763627e-02
1.365373299999999972e+02 3.567233300000000185e+01 0.000000000000000000e+00
1.365623300000000029e+02 3.563300000000000267e+01 0.000000000000000000e+00
1.326443299999999965e+02 3.379466699999999690e+01 1.207144051969392395e-01
1.326390000000000100e+02 3.386233299999999957e+01 1.106634589489656900e-01
1.311040000000000134e+02 3.094166699999999892e+01 0.000000000000000000e+00
1.366283300000000054e+02 3.521633299999999878e+01 4.817926304449694080e-02
1.365863300000000038e+02 3.527766700000000100e+01 3.771613588908016845e-02
1.314306699999999921e+02 3.187000000000000099e+01 7.388735946683824829e-02
1.314773299999999949e+02 3.181099999999999994e+01 1.085233140588636042e-01
1.314863300000000095e+02 3.192666699999999835e+01 9.461692326410515996e-02
1.323676700000000039e+02 3.353933299999999917e+01 9.205274686165566822e-02
1.324619999999999891e+02 3.351466700000000287e+01 1.365315397556585431e-01
1.322296699999999987e+02 3.346533300000000111e+01 6.291944702244597898e-02
1.325833299999999895e+02 3.399933300000000003e+01 7.896429192160620003e-02
1.326959999999999980e+02 3.399566699999999742e+01 1.002180675021096951e-01
1.325480000000000018e+02 3.391266699999999901e+01 8.432767368401203334e-02
1.378520000000000039e+02 3.521733300000000355e+01 4.555328330849047203e-01
1.379493300000000033e+02 3.521833300000000122e+01 5.758246003277395220e-01
1.364396700000000067e+02 3.515666699999999878e+01 1.479947403408750639e-01
1.365509999999999877e+02 3.515066699999999855e+01 1.180715560973216033e-01
1.363556700000000035e+02 3.478366700000000122e+01 3.648519907150040154e-01
1.363733300000000099e+02 3.471566700000000338e+01 3.707773321477367823e-01
1.363120000000000118e+02 3.449433299999999747e+01 3.389264085767564882e-01
1.364310000000000116e+02 3.547366699999999895e+01 3.374297660045169622e-02
1.364883299999999906e+02 3.540066699999999855e+01 3.322372754123750771e-02
1.315553299999999979e+02 3.183866700000000094e+01 1.649947524736024018e-01
1.315493299999999977e+02 3.191066700000000012e+01 1.516772472332630628e-01
1.331466700000000003e+02 3.407766699999999815e+01 8.615780546345970514e-02
1.324596699999999885e+02 3.343599999999999994e+01 1.565750830909102276e-01
1.323566700000000083e+02 3.342066700000000168e+01 1.307589927263568541e-01
1.323029999999999973e+02 3.348199999999999932e+01 9.520611579114419964e-02
1.348019999999999925e+02 3.411833299999999980e+01 0.000000000000000000e+00
1.362126700000000028e+02 3.447500000000000142e+01 2.847355672071966715e-01
1.361116700000000037e+02 3.547999999999999687e+01 2.444315921992507371e-02
1.374399999999999977e+02 3.520600000000000307e+01 1.319974567074808369e-01
1.372273299999999949e+02 3.503033299999999883e+01 1.115732478331752792e-01
1.372863299999999924e+02 3.519533299999999798e+01 0.000000000000000000e+00
1.380926699999999983e+02 3.531366700000000236e+01 5.382497873240090769e-01
1.361703300000000070e+02 3.544533299999999798e+01 3.613264540281946324e-02
1.375133299999999963e+02 3.505066699999999713e+01 2.985596747220667369e-01
1.373499999999999943e+02 3.515699999999999648e+01 1.240369452755037821e-01
1.362270000000000039e+02 3.436899999999999977e+01 2.948351466888154415e-01
1.380399999999999920e+02 3.544299999999999784e+01 1.998358719725373267e-01
1.381713300000000118e+02 3.537700000000000244e+01 3.945351564778312170e-01
1.347026700000000119e+02 3.409599999999999653e+01 0.000000000000000000e+00
1.346260000000000048e+02 3.414933299999999861e+01 0.000000000000000000e+00
1.366220000000000141e+02 3.545166700000000048e+01 1.465297792920460841e-02
1.365900000000000034e+02 3.552033300000000082e+01 1.894087088522083961e-02
1.367033299999999940e+02 3.544700000000000273e+01 0.000000000000000000e+00
1.363566700000000083e+02 3.563433299999999804e+01 0.000000000000000000e+00
1.363636700000000133e+02 3.570166700000000048e+01 0.000000000000000000e+00
1.376843299999999886e+02 3.509266699999999872e+01 3.647420409186705736e-01
1.367286699999999939e+02 3.498966699999999719e+01 1.091715427805570043e-01
1.367093299999999942e+02 3.506400000000000006e+01 8.113433984295573276e-02
1.363273299999999892e+02 3.457699999999999818e+01 3.524196629508848932e-01
1.325426699999999869e+02 3.332099999999999795e+01 2.488220802774330498e-01
1.325453300000000070e+02 3.339399999999999835e+01 2.192423204342950904e-01
1.322443299999999908e+02 3.316933300000000173e+01 2.140035403200983566e-01
1.367340000000000089e+02 3.549866699999999753e+01 0.000000000000000000e+00
1.366709999999999923e+02 3.554833299999999952e+01 0.000000000000000000e+00
1.371223300000000052e+02 3.514500000000000313e+01 0.000000000000000000e+00
1.371916699999999878e+02 3.519299999999999784e+01 0.000000000000000000e+00
1.362500000000000000e+02 3.558500000000000085e+01 5.492358988594407687e-02
1.362823300000000017e+02 3.572699999999999676e+01 0.000000000000000000e+00
1.376073299999999904e+02 3.524833300000000236e+01 2.004973638604447550e-01
1.377256700000000080e+02 3.516133299999999906e+01 3.645217271565959205e-01
1.376876699999999971e+02 3.523700000000000188e+01 2.626395903172649704e-01
1.361003300000000138e+02 3.453566699999999656e+01 1.720535683788576020e-01
1.363956699999999955e+02 3.522866700000000151e+01 1.123126766584792574e-01
1.364283299999999883e+02 3.534533299999999656e+01 5.985228867334862340e-02
1.364650000000000034e+02 3.528399999999999892e+01 7.420301989918337560e-02
1.362930000000000064e+02 3.523400000000000176e+01 9.942237010831211919e-02
1.363276700000000119e+02 3.536266700000000185e+01 6.137191033885245478e-02
1.362616700000000094e+02 3.530666699999999736e+01 7.090242592665409183e-02
1.374053299999999922e+02 3.503666700000000134e+01 2.610663800029654480e-01
1.373296699999999930e+02 3.507766699999999815e+01 1.625281300207381818e-01
1.365376699999999914e+02 3.501133300000000048e+01 1.994584808080961391e-01
1.365906699999999887e+02 3.508500000000000085e+01 1.427783497376090283e-01
1.379696700000000078e+02 3.536766699999999730e+01 3.378540508910903295e-01
1.380000000000000000e+02 3.529899999999999949e+01 5.007044047111428586e-01
1.364916699999999992e+02 3.553566699999999656e+01 2.952059355056372084e-02
1.364716699999999889e+02 3.560666700000000162e+01 2.992633631637630839e-02
1.323396700000000124e+02 3.316133299999999906e+01 2.806641649859915599e-01
1.324203300000000070e+02 3.321999999999999886e+01 2.736925682854501884e-01
1.324196699999999964e+02 3.328866699999999668e+01 2.400702665199629660e-01
1.321733299999999929e+02 3.324833300000000236e+01 1.213664832578351116e-01
1.322056699999999978e+02 3.333033300000000310e+01 1.004403156789481499e-01
1.323193300000000079e+02 3.334633300000000133e+01 1.502666885543017250e-01
1.362496700000000089e+02 3.548633300000000190e+01 5.347815814284097996e-02
1.363340000000000032e+02 3.544766700000000270e+01 5.583301332655849630e-02
1.361476700000000051e+02 3.423599999999999710e+01 2.921082504348900266e-01
1.361343300000000056e+02 3.432900000000000063e+01 2.544735923880145356e-01
1.359116699999999867e+02 3.419899999999999807e+01 1.047301898265083353e-01
1.359910000000000139e+02 3.415433300000000116e+01 2.201782604621750350e-01
1.360826700000000073e+02 3.416466700000000145e+01 2.902212117788025569e-01
1.312069999999999936e+02 3.099566700000000097e+01 0.000000000000000000e+00
1.311390000000000100e+02 3.100866699999999909e+01 0.000000000000000000e+00
1.375936700000000030e+02 3.515699999999999648e+01 2.494904717404173300e-01
1.375276700000000005e+02 3.514066700000000054e+01 2.326149150784609654e-01
1.364310000000000116e+02 3.484700000000000131e+01 3.689506306655024881e-01
1.363839999999999861e+02 3.492533300000000196e+01 3.168735442858922613e-01
1.361153300000000002e+02 3.537433300000000003e+01 2.632664722604191945e-02
1.360873300000000086e+02 3.542199999999999704e+01 1.988080058264377753e-02
1.327683299999999917e+02 3.412500000000000000e+01 7.572765057823165058e-02
1.327729999999999961e+02 3.404833299999999952e+01 9.219397375715433773e-02
1.337990000000000066e+02 3.406333300000000008e+01 5.751401975627055269e-02
1.337390000000000043e+02 3.400800000000000267e+01 5.397836271816556369e-02
1.318700000000000045e+02 3.270566699999999827e+01 8.606241493995785141e-02
1.319493300000000033e+02 3.273033300000000168e+01 1.320515228692409060e-01
1.318866700000000094e+02 3.260533300000000168e+01 1.186628487068875637e-01
1.318083300000000122e+02 3.257999999999999829e+01 8.964583789224217503e-02
1.337266700000000128e+02 3.421466699999999861e+01 5.683483552577563158e-02
1.337933299999999974e+02 3.416266699999999901e+01 6.481960266730944775e-02
1.321296700000000044e+02 3.306433299999999775e+01 1.705318320130830567e-01
1.322133300000000133e+02 3.307800000000000296e+01 2.303612146818864448e-01
1.315860000000000127e+02 3.222233299999999900e+01 8.958186090018112335e-02
1.316599999999999966e+02 3.225000000000000000e+01 1.355584998939969865e-01
1.317353300000000047e+02 3.246033299999999855e+01 9.914466708405196560e-02
1.318153299999999888e+02 3.248466700000000174e+01 1.341810211692703869e-01
1.333343299999999942e+02 3.413733299999999815e+01 6.137302615996303307e-02
1.332626700000000142e+02 3.406233300000000241e+01 8.166647444333559325e-02
1.369746700000000033e+02 3.510699999999999932e+01 8.192505258611520319e-03
1.369039999999999964e+02 3.507666700000000048e+01 2.522916261328812457e-02
1.366276699999999948e+02 3.488366700000000264e+01 2.412080580994896140e-01
1.366186700000000087e+02 3.495966700000000316e+01 2.078079947656782667e-01
1.381490000000000009e+02 3.543766699999999759e+01 2.665522292229845491e-01
1.382066700000000026e+02 3.549799999999999756e+01 1.189018195826409968e-01
1.360013299999999958e+02 3.449000000000000199e+01 1.036378155769893811e-01
1.361903299999999888e+02 3.571099999999999852e+01 1.666012863712001621e-02
1.360753300000000081e+02 3.462333300000000236e+01 1.648071580947485792e-01
1.361506699999999910e+02 3.466899999999999693e+01 2.273845791476032663e-01
1.359019999999999868e+02 3.426466700000000287e+01 6.280738739842312013e-02
1.320156700000000001e+02 3.309333300000000122e+01 4.957705263698494735e-02
1.320766700000000071e+02 3.313233300000000270e+01 9.131114486510574779e-02
1.329170000000000016e+02 3.375233300000000014e+01 1.985721972559278958e-01
1.328230000000000075e+02 3.378600000000000136e+01 1.573479183333939824e-01
1.367943300000000022e+02 3.511433300000000202e+01 3.109896051762015348e-02
1.367529999999999859e+02 3.520100000000000051e+01 2.252644654390977344e-02
1.362866699999999867e+02 3.507900000000000063e+01 1.769409379319390740e-01
1.363849999999999909e+02 3.508133300000000077e+01 1.985424745101873889e-01
1.360836700000000121e+02 3.553933299999999917e+01 2.070861754490802009e-02
1.361306700000000092e+02 3.566266699999999901e+01 2.197954071341313986e-02
1.361426700000000096e+02 3.560333299999999923e+01 3.002187837715562108e-02
1.362273299999999949e+02 3.468099999999999739e+01 2.850555155110584549e-01
1.362796700000000101e+02 3.465733300000000128e+01 3.347936508122129617e-01
1.365493299999999977e+02 3.467466699999999946e+01 3.293148765801963695e-01
1.364629999999999939e+02 3.466400000000000148e+01 3.674451248679347359e-01
1.359329999999999927e+02 3.435166699999999906e+01 5.885369699551278727e-02
1.360209999999999866e+02 3.438933300000000060e+01 1.213417061820826065e-01
1.320980000000000132e+02 3.381000000000000227e+01 0.000000000000000000e+00
1.381606700000000103e+02 3.555633300000000219e+01 1.608322573455745960e-02
1.380713299999999890e+02 3.555766700000000213e+01 5.935969019738484209e-04
1.382266700000000128e+02 3.560399999999999920e+01 0.000000000000000000e+00
1.383123300000000029e+02 3.561166699999999707e+01 0.000000000000000000e+00
1.311160000000000139e+02 3.139366700000000066e+01 0.000000000000000000e+00
1.310496699999999919e+02 3.135666700000000162e+01 0.000000000000000000e+00
1.311766700000000014e+02 3.151899999999999835e+01 0.000000000000000000e+00
1.311106699999999989e+02 3.148166700000000162e+01 0.000000000000000000e+00
1.380083300000000008e+02 3.550466699999999776e+01 3.956464363426736436e-02
1.379156700000000058e+02 3.551233299999999815e+01 9.194009765529926725e-04
1.312386700000000133e+02 3.173066700000000040e+01 0.000000000000000000e+00
1.321453300000000013e+02 3.375099999999999767e+01 1.567730950485170206e-03
1.313040000000000020e+02 3.176833299999999838e+01 0.000000000000000000e+00
1.316573300000000017e+02 3.252133299999999849e+01 8.640524488545851464e-03
1.314989999999999952e+02 3.228566699999999656e+01 4.965736252145944857e-03
1.314323300000000074e+02 3.224900000000000233e+01 3.769736475699973647e-04
1.317853299999999876e+02 3.277066700000000310e+01 6.357738192602709754e-03
1.317210000000000036e+02 3.273366699999999696e+01 2.050763282546905729e-04
1.319579999999999984e+02 3.315166700000000333e+01 5.752995796960122359e-03
1.318880000000000052e+02 3.311699999999999733e+01 0.000000000000000000e+00
1.312400000000000091e+02 3.164399999999999835e+01 0.000000000000000000e+00
1.311766700000000014e+02 3.160533300000000168e+01 0.000000000000000000e+00
1.358243300000000033e+02 3.479833299999999952e+01 1.390320705015732545e-04
1.309410000000000025e+02 3.068933300000000131e+01 1.612195544677355488e-04
1.308723300000000052e+02 3.074299999999999855e+01 1.117936151936439298e-04
1.310206699999999955e+02 3.072633300000000034e+01 0.000000000000000000e+00
1.317273299999999949e+02 3.264333299999999838e+01 7.516496489329557891e-03
1.316563299999999970e+02 3.260900000000000176e+01 2.608922436935763676e-04
1.310276700000000005e+02 3.081700000000000017e+01 0.000000000000000000e+00
1.308873299999999915e+02 3.083299999999999841e+01 0.000000000000000000e+00
1.326473300000000108e+02 3.430066699999999713e+01 2.139043394380442040e-02
1.360226700000000051e+02 3.554800000000000182e+01 8.950134149471204725e-03
1.309963300000000004e+02 3.087566699999999997e+01 0.000000000000000000e+00
1.309293299999999931e+02 3.088333300000000037e+01 0.000000000000000000e+00
1.345459999999999923e+02 3.442499999999999716e+01 0.000000000000000000e+00
1.359086700000000008e+02 3.554866700000000179e+01 0.000000000000000000e+00
1.325283300000000111e+02 3.443766699999999759e+01 0.000000000000000000e+00
1.346273300000000006e+02 3.445766700000000071e+01 0.000000000000000000e+00
1.347170000000000130e+02 3.455166700000000191e+01 0.000000000000000000e+00
1.310353299999999876e+02 3.095966699999999960e+01 0.000000000000000000e+00
1.309120000000000061e+02 3.097400000000000020e+01 1.682142618212353999e-04
1.309790000000000134e+02 3.101166699999999921e+01 0.000000000000000000e+00
1.369936700000000087e+02 3.545100000000000051e+01 0.000000000000000000e+00
1.325323300000000017e+02 3.430199999999999960e+01 1.331806217637837748e-02
1.341020000000000039e+02 3.462299999999999756e+01 5.241848865879909916e-05
1.370813300000000083e+02 3.544866700000000037e+01 0.000000000000000000e+00
1.370740000000000123e+02 3.556199999999999761e+01 0.000000000000000000e+00
1.371323299999999961e+02 3.539300000000000068e+01 0.000000000000000000e+00
1.346370000000000005e+02 3.453799999999999670e+01 0.000000000000000000e+00
1.340529999999999973e+02 3.456600000000000250e+01 1.851581028370945497e-03
1.350366699999999867e+02 3.433299999999999841e+01 0.000000000000000000e+00
1.372713300000000061e+02 3.545966700000000316e+01 0.000000000000000000e+00
1.372259999999999991e+02 3.539533300000000082e+01 0.000000000000000000e+00
1.327110000000000127e+02 3.435199999999999676e+01 1.343412072784864845e-02
1.324910000000000139e+02 3.422800000000000153e+01 2.057828038128728040e-02
1.347019999999999982e+02 3.440066699999999855e+01 0.000000000000000000e+00
1.339593299999999942e+02 3.457200000000000273e+01 8.206604559771295282e-05
1.372193300000000136e+02 3.551566700000000054e+01 0.000000000000000000e+00
1.371229999999999905e+02 3.550699999999999790e+01 0.000000000000000000e+00
1.348826699999999903e+02 3.430833299999999753e+01 0.000000000000000000e+00
1.349720000000000084e+02 3.439733300000000327e+01 0.000000000000000000e+00
1.323679999999999950e+02 3.436999999999999744e+01 0.000000000000000000e+00
1.324723299999999995e+02 3.437133299999999991e+01 2.487074479305002080e-03
1.372873299999999972e+02 3.533866700000000094e+01 0.000000000000000000e+00
1.373810000000000002e+02 3.547333299999999667e+01 0.000000000000000000e+00
1.326336699999999951e+02 3.446099999999999852e+01 0.000000000000000000e+00
1.327059999999999889e+02 3.442699999999999960e+01 3.211724521991250140e-03
1.347760000000000105e+02 3.441499999999999915e+01 0.000000000000000000e+00
1.348619999999999948e+02 3.436266700000000185e+01 0.000000000000000000e+00
1.347813299999999970e+02 3.448566699999999940e+01 0.000000000000000000e+00
1.349623300000000086e+02 3.424699999999999989e+01 0.000000000000000000e+00
1.350360000000000014e+02 3.425633299999999792e+01 0.000000000000000000e+00
1.336453300000000013e+02 3.445633300000000077e+01 0.000000000000000000e+00
1.348583299999999952e+02 3.448366699999999696e+01 0.000000000000000000e+00
1.349133300000000020e+02 3.440833299999999895e+01 0.000000000000000000e+00
1.378600000000000136e+02 3.544500000000000028e+01 5.462037889874108570e-02
1.339136699999999962e+02 3.449300000000000210e+01 5.350198019266478623e-03
1.358660000000000139e+02 3.472666699999999906e+01 6.315374996534376187e-03
1.359650000000000034e+02 3.471900000000000119e+01 6.930389280749994774e-02
1.357996699999999919e+02 3.465033300000000338e+01 1.395595274239349671e-04
1.341113300000000095e+02 3.450966700000000031e+01 1.251901147215151583e-02
1.360310000000000059e+02 3.478099999999999881e+01 1.169643789459076655e-01
1.359766700000000128e+02 3.464033299999999826e+01 7.795055138860526589e-02
1.342056699999999978e+02 3.438833300000000293e+01 3.993327682113577415e-02
1.341896700000000067e+02 3.453600000000000136e+01 6.348141156535425100e-03
1.362106699999999933e+02 3.587100000000000222e+01 0.000000000000000000e+00
1.337236699999999985e+02 3.429966699999999946e+01 4.494882839514275502e-02
1.337916700000000105e+02 3.434466700000000117e+01 3.669373824093871694e-02
1.338953300000000013e+02 3.431400000000000006e+01 5.660226234922832722e-02
1.334639999999999986e+02 3.444100000000000250e+01 0.000000000000000000e+00
1.360610000000000070e+02 3.583599999999999852e+01 0.000000000000000000e+00
1.361696699999999964e+02 3.578066700000000111e+01 0.000000000000000000e+00
1.361373299999999915e+02 3.574499999999999744e+01 1.023918332029674118e-02
1.361383299999999963e+02 3.582733300000000298e+01 0.000000000000000000e+00
1.359339999999999975e+02 3.561866700000000208e+01 9.308729818925620637e-04
1.353133300000000077e+02 3.415299999999999869e+01 3.028189393140955261e-04
1.328180000000000121e+02 3.431766700000000014e+01 2.467672883934188266e-02
1.328093299999999886e+02 3.447500000000000142e+01 0.000000000000000000e+00
1.341846700000000112e+02 3.460199999999999676e+01 1.629810267045227060e-03
1.342496700000000089e+02 3.463633300000000048e+01 0.000000000000000000e+00
1.360420000000000016e+02 3.566633300000000162e+01 9.992574673404277380e-03
1.359929999999999950e+02 3.561566700000000196e+01 6.259155153853458373e-03
1.360533299999999883e+02 3.572500000000000142e+01 7.026297759640730452e-03
1.360083300000000008e+02 3.576933300000000315e+01 1.375305358577397219e-03
1.359079999999999870e+02 3.567966700000000202e+01 4.226414087645944463e-05
1.359443300000000079e+02 3.575399999999999778e+01 0.000000000000000000e+00
1.374623300000000086e+02 3.530366699999999724e+01 6.696318759978740764e-02
1.375699999999999932e+02 3.530866699999999980e+01 1.093862823096600351e-01
1.376270000000000095e+02 3.535933299999999946e+01 6.653212982525022468e-02
1.375593299999999886e+02 3.545266699999999815e+01 0.000000000000000000e+00
1.376229999999999905e+02 3.542666700000000191e+01 1.870324484189764963e-02
1.377696699999999908e+02 3.543733300000000241e+01 2.613866791326785455e-02
1.377199999999999989e+02 3.535933299999999946e+01 1.109582452431547017e-01
1.377179999999999893e+02 3.548166700000000162e+01 7.161862715704908709e-04
1.330283300000000111e+02 3.425500000000000256e+01 4.104483442311049335e-02
1.344623300000000086e+02 3.447233299999999900e+01 0.000000000000000000e+00
1.343756700000000137e+02 3.442466699999999946e+01 0.000000000000000000e+00
1.322110000000000127e+02 3.418800000000000239e+01 6.255786738422247552e-05
1.328856700000000046e+02 3.435199999999999676e+01 1.426424144653684438e-02
1.329950000000000045e+02 3.431466700000000003e+01 2.336181698165711723e-02
1.351179999999999950e+02 3.419400000000000261e+01 0.000000000000000000e+00
1.351870000000000118e+02 3.420300000000000296e+01 0.000000000000000000e+00
1.342826699999999960e+02 3.445233300000000298e+01 2.078353689272471189e-02
1.342683299999999917e+02 3.452100000000000080e+01 1.037635086834027068e-02
1.351173300000000097e+02 3.411766699999999730e+01 0.000000000000000000e+00
1.374010000000000105e+02 3.535033299999999912e+01 0.000000000000000000e+00
1.374493300000000033e+02 3.542066700000000168e+01 0.000000000000000000e+00
1.323753299999999911e+02 3.413000000000000256e+01 1.557535512712247654e-02
1.329733300000000042e+02 3.448199999999999932e+01 0.000000000000000000e+00
1.328820000000000050e+02 3.443433300000000230e+01 3.140457027658184047e-03
1.323946699999999908e+02 3.420633300000000077e+01 1.185298857092209959e-02
1.322923299999999927e+02 3.430899999999999750e+01 1.324041710659984619e-05
1.323033299999999883e+02 3.424066700000000196e+01 1.016603223222254521e-03
1.343186699999999973e+02 3.458700000000000330e+01 2.174677458264757599e-03
1.330393300000000067e+02 3.444766700000000270e+01 2.101148111706654074e-03
1.330573300000000074e+02 3.436266700000000185e+01 9.443959054140371040e-03
1.344746700000000033e+02 3.456400000000000006e+01 0.000000000000000000e+00
1.343996699999999862e+02 3.461566700000000196e+01 0.000000000000000000e+00
1.345680000000000121e+02 3.459700000000000131e+01 0.000000000000000000e+00
1.352570000000000050e+02 3.414800000000000324e+01 0.000000000000000000e+00
1.332063300000000083e+02 3.443866700000000236e+01 0.000000000000000000e+00
1.331303299999999865e+02 3.448633300000000190e+01 0.000000000000000000e+00
1.331703300000000070e+02 3.436200000000000188e+01 0.000000000000000000e+00
1.353433300000000088e+02 3.402733299999999872e+01 4.201332426838313983e-02
1.338093299999999886e+02 3.450233300000000014e+01 1.252916252070907736e-04
1.337510000000000048e+02 3.443133300000000219e+01 8.746301406280550597e-03
1.339643299999999897e+02 3.435433299999999690e+01 4.513905786594680364e-02
1.339733300000000042e+02 3.442733299999999730e+01 2.834032865463207221e-02
1.340553299999999979e+02 3.432966700000000060e+01 5.470139530749958123e-02
1.341183299999999861e+02 3.439366700000000066e+01 3.990700142664306560e-02
1.340773299999999892e+02 3.445000000000000284e+01 2.626773479495178587e-02
1.333779999999999859e+02 3.441199999999999903e+01 5.588440931378316559e-03
1.333026700000000062e+02 3.445900000000000318e+01 0.000000000000000000e+00
1.333526699999999892e+02 3.434266699999999872e+01 1.903718037755000939e-02
1.333103299999999933e+02 3.421066700000000083e+01 4.803971572776166710e-02
1.358609999999999900e+02 3.488266699999999787e+01 0.000000000000000000e+00
1.320386699999999962e+02 3.351466700000000287e+01 1.860667223017995657e-04
1.321589999999999918e+02 3.348899999999999721e+01 2.780802692471467247e-02
1.359730000000000132e+02 3.550633299999999792e+01 1.573239257432257733e-03
1.331233300000000099e+02 3.421566700000000338e+01 5.200380275732552349e-02
1.362726700000000051e+02 3.577100000000000080e+01 0.000000000000000000e+00
1.315780000000000030e+02 3.249066700000000196e+01 2.848388951655856315e-04
1.321116700000000037e+02 3.354466699999999690e+01 6.808591315803052234e-03
1.356160000000000139e+02 3.407866700000000293e+01 5.141248091227194894e-02
1.369016699999999958e+02 3.564833300000000094e+01 0.000000000000000000e+00
1.360576700000000017e+02 3.512633300000000247e+01 1.346650097941319742e-02
1.360023300000000006e+02 3.517033299999999940e+01 1.797281811048802086e-04
1.357356699999999989e+02 3.417433299999999718e+01 1.547154283415541100e-02
1.357839999999999918e+02 3.425366700000000009e+01 8.796576699813374312e-03
1.314476699999999880e+02 3.215733300000000128e+01 1.540368093304863607e-02
1.364513300000000129e+02 3.578733299999999673e+01 0.000000000000000000e+00
1.365263300000000015e+02 3.581600000000000250e+01 0.000000000000000000e+00
1.335130000000000052e+02 3.427766700000000100e+01 4.438765954475570180e-02
1.335989999999999895e+02 3.433366699999999838e+01 0.000000000000000000e+00
1.333956699999999955e+02 3.428000000000000114e+01 3.401570910455940094e-02
1.335613299999999981e+02 3.440366699999999867e+01 0.000000000000000000e+00
1.355196699999999908e+02 3.403966700000000145e+01 6.303971207332571824e-02
1.354876700000000085e+02 3.415899999999999892e+01 0.000000000000000000e+00
1.362966700000000060e+02 3.582500000000000284e+01 0.000000000000000000e+00
1.363806700000000092e+02 3.585333299999999923e+01 0.000000000000000000e+00
1.358726699999999994e+02 3.460266699999999673e+01 1.785266512897747126e-02
1.357916700000000105e+02 3.449666700000000219e+01 0.000000000000000000e+00
1.358723300000000052e+02 3.453999999999999915e+01 1.432006027577932723e-02
1.322626700000000142e+02 3.412233299999999758e+01 3.525436409086915666e-03
1.369833299999999952e+02 3.552466700000000088e+01 0.000000000000000000e+00
1.368940000000000055e+02 3.554033299999999684e+01 0.000000000000000000e+00
1.368650000000000091e+02 3.559766700000000128e+01 0.000000000000000000e+00
1.367396699999999896e+02 3.560166699999999906e+01 0.000000000000000000e+00
1.368110000000000070e+02 3.569666699999999793e+01 0.000000000000000000e+00
1.367303300000000092e+02 3.567399999999999949e+01 0.000000000000000000e+00
1.353799999999999955e+02 3.408133300000000077e+01 1.079203662349023651e-02
1.354509999999999934e+02 3.408866700000000094e+01 3.486708158645204000e-03
1.313580000000000041e+02 3.189600000000000080e+01 9.797270409208632541e-03
1.312959999999999923e+02 3.185733300000000057e+01 0.000000000000000000e+00
1.315763300000000129e+02 3.240466700000000344e+01 1.048713095252190933e-02
1.314963300000000004e+02 3.237366699999999753e+01 6.255985539738018858e-05
1.313403299999999945e+02 3.198833300000000079e+01 0.000000000000000000e+00
1.313706699999999898e+02 3.207533300000000054e+01 5.027590747806253519e-04
1.314193300000000022e+02 3.207000000000000028e+01 1.446585180541073816e-02
1.318393299999999897e+02 3.289900000000000091e+01 9.424893130893171461e-03
1.317760000000000105e+02 3.286200000000000188e+01 2.442795140652661277e-04
1.320183299999999917e+02 3.327799999999999869e+01 8.702204058538606096e-03
1.319480000000000075e+02 3.324366700000000208e+01 1.803544442302132714e-04
1.318280000000000030e+02 3.299099999999999966e+01 1.695105097436276739e-04
1.318959999999999866e+02 3.302600000000000335e+01 4.586245736065037992e-03
1.320049999999999955e+02 3.337100000000000222e+01 2.290638996641962757e-04
1.320596700000000112e+02 3.341933300000000173e+01 4.037884757898247030e-03
1.321210000000000093e+02 3.340733300000000128e+01 3.188889364777659080e-02
1.321570000000000107e+02 3.403066700000000111e+01 0.000000000000000000e+00
1.322433299999999861e+02 3.405100000000000193e+01 4.602897831277420054e-03
1.320893299999999897e+02 3.367399999999999949e+01 0.000000000000000000e+00
1.321433299999999917e+02 3.361500000000000199e+01 4.477212813349001376e-03
1.356006700000000080e+02 3.413600000000000279e+01 1.563935794386425715e-02
1.356423299999999870e+02 3.417033299999999940e+01 3.047022504455122673e-04
1.360443300000000022e+02 3.526100000000000279e+01 2.032912434890741908e-03
1.359926700000000039e+02 3.530533299999999741e+01 0.000000000000000000e+00
1.358326700000000073e+02 3.440899999999999892e+01 3.590736112059234042e-03
1.357549999999999955e+02 3.433966699999999861e+01 0.000000000000000000e+00
1.321676699999999869e+02 3.388433299999999804e+01 2.539045187490349392e-03
1.321316700000000139e+02 3.394233299999999787e+01 4.002896067403001484e-05
1.310016699999999901e+02 3.122733300000000156e+01 0.000000000000000000e+00
1.310680000000000121e+02 3.126433300000000060e+01 0.000000000000000000e+00
1.310316699999999912e+02 3.113266700000000142e+01 0.000000000000000000e+00
1.309670000000000130e+02 3.109499999999999886e+01 0.000000000000000000e+00
1.359666699999999935e+02 3.543900000000000006e+01 1.289484925768416871e-04
1.360263300000000015e+02 3.539633299999999849e+01 3.188293642991719794e-03
1.360730000000000075e+02 3.504033299999999684e+01 2.384385608675299376e-02
1.359853300000000047e+02 3.500500000000000256e+01 3.553661956780886132e-04
1.351996699999999976e+02 3.406300000000000239e+01 0.000000000000000000e+00
1.352703300000000013e+02 3.408433300000000088e+01 0.000000000000000000e+00
1.360633300000000077e+02 3.486733300000000213e+01 9.764058895279603689e-02
1.359813300000000140e+02 3.491700000000000159e+01 8.295681679722990629e-03
1.366289999999999907e+02 3.570166700000000048e+01 0.000000000000000000e+00
1.366203299999999956e+02 3.577133299999999849e+01 0.000000000000000000e+00
1.332093299999999942e+02 3.423599999999999710e+01 3.848405079899856751e-02
1.332413300000000049e+02 3.431300000000000239e+01 2.264691137062153914e-02
1.420443300000000022e+02 3.421166699999999850e+01 4.544724911846477427e-06
1.399593299999999942e+02 3.712233299999999758e+01 5.425206535320390897e-05
1.418763299999999958e+02 3.442633299999999963e+01 3.896488686377914262e-02
1.420786699999999882e+02 3.433800000000000097e+01 1.157004606002347550e-05
1.420376699999999914e+02 3.440666699999999878e+01 1.490845857207154191e-03
1.421260000000000048e+02 3.461099999999999710e+01 3.410842799175149508e-05
1.419540000000000077e+02 3.439033299999999826e+01 1.212028571062431781e-02
1.466286699999999996e+02 4.227766700000000100e+01 3.755077850936336392e-02
1.395416700000000105e+02 3.584566699999999884e+01 3.541051813908520363e-02
1.394900000000000091e+02 3.589433300000000315e+01 2.079529102051975531e-04
1.423533299999999997e+02 3.566700000000000159e+01 1.821242729438766539e-05
1.399376699999999971e+02 3.704466699999999690e+01 9.713870820951493734e-03
1.398673300000000097e+02 3.701266700000000043e+01 8.087064061726247414e-05
1.420860000000000127e+02 3.446733300000000355e+01 5.783836312843689719e-05
1.420560000000000116e+02 3.454633299999999707e+01 2.386342534764527429e-03
1.395190000000000055e+02 3.627766700000000100e+01 9.972023100128181081e-05
1.420269999999999868e+02 3.428533300000000139e+01 3.154744605358192192e-04
1.419530000000000030e+02 3.431366700000000236e+01 6.536627705019581493e-03
1.422513299999999958e+02 3.527033300000000082e+01 7.130401920225805994e-06
1.398053299999999979e+02 3.582566700000000282e+01 4.117648913270635647e-01
1.397909999999999968e+02 3.689666700000000077e+01 3.786527293301082485e-05
1.398603300000000047e+02 3.693333299999999753e+01 1.098702758071028879e-02
1.423066699999999969e+02 3.832233300000000042e+01 4.638148764096559629e-01
1.424506700000000023e+02 3.806400000000000006e+01 3.513740800992914970e-01
1.417073300000000131e+02 3.777933300000000116e+01 4.649526484988575348e-01
1.401066700000000083e+02 3.681700000000000017e+01 4.751099193427004153e-01
1.424979999999999905e+02 3.789833300000000094e+01 2.820665620913274663e-01
1.454739999999999895e+02 4.311133300000000190e+01 2.850227620197687273e-01
1.456076700000000130e+02 4.323366699999999696e+01 2.365801291360723202e-01
1.396453300000000013e+02 3.666133299999999906e+01 5.887639347906346296e-05
1.425333300000000065e+02 3.636966699999999975e+01 1.535961135901992188e-02
1.450360000000000014e+02 4.327066700000000310e+01 0.000000000000000000e+00
1.394853300000000047e+02 3.613533300000000281e+01 6.726056610721149927e-05
1.451953300000000127e+02 4.347899999999999920e+01 3.251093906676327995e-05
1.424036700000000053e+02 3.579666699999999935e+01 2.675305217272540523e-05
1.423266700000000071e+02 3.573533299999999713e+01 1.293823569581897858e-03
1.418686700000000087e+02 3.450933299999999804e+01 5.674198361711489669e-02
1.453293299999999988e+02 4.316133299999999906e+01 2.345336742386092133e-01
1.454253300000000024e+02 4.316766700000000156e+01 2.456366936164263715e-01
1.457839999999999918e+02 4.347099999999999653e+01 1.314333774643018926e-01
1.465476700000000108e+02 4.232933299999999832e+01 6.122668792671325660e-02
1.428156700000000114e+02 3.639866700000000321e+01 2.073857563632378775e-06
1.422290000000000134e+02 3.826866700000000066e+01 4.997419237330910646e-01
1.421306700000000092e+02 3.828466699999999889e+01 5.608845352700089215e-01
1.420893299999999897e+02 3.836899999999999977e+01 5.754677812014157290e-01
1.419933299999999861e+02 3.836833299999999980e+01 6.144373705933775520e-01
1.415146699999999953e+02 3.786500000000000199e+01 4.602607522885417413e-01
1.418023300000000120e+02 3.772699999999999676e+01 4.363325240463102883e-01
1.459983300000000099e+02 4.232200000000000273e+01 1.945582817485335680e-01
1.459399999999999977e+02 4.239033299999999826e+01 2.544877715995071399e-01
1.411783299999999883e+02 3.911333299999999724e+01 0.000000000000000000e+00
1.414480000000000075e+02 4.208633300000000332e+01 6.473075114787050534e-05
1.426303299999999865e+02 3.648633300000000190e+01 1.304312190569771775e-02
1.426313299999999913e+02 3.639900000000000091e+01 8.894723155280930688e-03
1.448460000000000036e+02 4.334199999999999875e+01 0.000000000000000000e+00
1.424723299999999995e+02 3.643266700000000213e+01 2.928804717321339263e-02
1.425349999999999966e+02 3.651033300000000281e+01 2.919720617884234357e-02
1.396223300000000052e+02 3.617533300000000196e+01 2.135597699810305172e-01
1.395416700000000105e+02 3.619766700000000270e+01 2.419769660414706342e-02
1.396469999999999914e+02 3.608599999999999852e+01 2.474300910056875802e-01
1.452560000000000002e+02 4.337299999999999756e+01 6.091551026913556016e-02
1.453016700000000014e+02 4.352533300000000338e+01 0.000000000000000000e+00
1.453650000000000091e+02 4.339633299999999849e+01 5.960071730243375610e-02
1.399183299999999974e+02 3.678499999999999659e+01 2.233062724787400477e-01
1.414443300000000079e+02 3.486733300000000213e+01 2.777696227009273655e-01
1.419550000000000125e+02 3.456866699999999781e+01 3.462572217136059005e-02
1.461040000000000134e+02 4.317666700000000191e+01 3.152685403788129670e-01
1.459000000000000057e+02 4.310266699999999673e+01 3.254802428280110793e-01
1.458236699999999928e+02 4.321933299999999889e+01 2.763766296774404774e-01
1.457983299999999929e+02 4.328366700000000122e+01 2.387170678676994451e-01
1.460089999999999861e+02 4.329533299999999940e+01 2.710248982568486675e-01
1.464103299999999876e+02 4.274533300000000224e+01 2.629293773430720349e-01
1.440560000000000116e+02 3.887800000000000011e+01 0.000000000000000000e+00
1.457040000000000077e+02 4.352266699999999844e+01 8.376923688994246386e-02
1.463743299999999863e+02 4.244566700000000026e+01 1.341844563390649780e-01
1.465759999999999934e+02 4.240633299999999650e+01 8.838758635858502688e-02
1.464976699999999994e+02 4.202866699999999867e+01 3.588225173479728665e-05
1.411100000000000136e+02 3.864333299999999838e+01 0.000000000000000000e+00
1.432350000000000136e+02 3.822366699999999895e+01 7.923008148466381684e-02
1.433660000000000139e+02 3.834100000000000108e+01 5.686042145001878739e-02
1.434413299999999936e+02 3.839766699999999844e+01 4.507371898742108113e-02
1.432019999999999982e+02 3.829699999999999704e+01 9.238799019812060642e-02
1.425939999999999941e+02 3.901800000000000068e+01 3.631492720631575577e-01
1.426586700000000008e+02 3.895199999999999818e+01 3.398472582204465908e-01
1.434553300000000036e+02 4.122333299999999667e+01 4.009338740534219014e-01
1.434333300000000122e+02 4.114833300000000094e+01 3.888168705135403580e-01
1.433890000000000100e+02 3.765566700000000111e+01 7.940170354211807321e-03
1.419626700000000028e+02 3.717733299999999730e+01 2.361490080179786399e-01
1.434276700000000062e+02 3.998199999999999932e+01 1.565952117241321828e-01
1.434633300000000133e+02 4.006033299999999997e+01 1.564511538589162254e-01
1.436026699999999892e+02 4.012466700000000230e+01 1.200191317030943061e-01
1.435476700000000108e+02 4.006133299999999764e+01 1.277392543381687118e-01
1.399636700000000076e+02 3.686066699999999940e+01 1.877347725379175658e-01
1.399310000000000116e+02 3.691499999999999915e+01 8.944193498388124108e-02
1.421556699999999864e+02 3.598499999999999943e+01 5.210246765544009062e-02
1.397426700000000039e+02 3.586333299999999724e+01 3.268301135072678720e-01
1.397236699999999985e+02 3.593333299999999753e+01 3.304016229983496866e-01
1.461676699999999869e+02 4.236266700000000185e+01 1.499803415708704790e-01
1.460946700000000078e+02 4.230966699999999747e+01 1.474898970681824406e-01
1.430563300000000027e+02 4.216533299999999684e+01 4.628216007179845604e-01
1.411469999999999914e+02 3.903566699999999656e+01 0.000000000000000000e+00
1.425089999999999861e+02 4.212733300000000014e+01 2.613185653191201774e-01
1.457916700000000105e+02 4.309000000000000341e+01 3.253654448133150301e-01
1.397373299999999858e+02 3.656066700000000225e+01 1.215502136797426691e-01
1.404413299999999936e+02 3.689699999999999847e+01 5.177350994881206869e-01
1.405153300000000058e+02 3.687966699999999776e+01 4.477164477342813753e-01
1.423353299999999990e+02 3.690999999999999659e+01 1.159056401248881457e-01
1.422573299999999961e+02 3.691066699999999656e+01 1.351696143103423842e-01
1.410240000000000009e+02 3.838700000000000045e+01 8.647858697871846356e-02
1.454076699999999960e+02 4.345799999999999841e+01 3.419367136476079982e-02
1.453826699999999903e+02 4.352133299999999849e+01 6.095964611026952716e-03
1.421943300000000079e+02 3.500066699999999997e+01 4.641353168442258784e-05
1.416126700000000085e+02 4.182666700000000048e+01 7.974093265006100550e-02
1.397046699999999930e+02 3.670700000000000074e+01 9.947552996995614669e-03
1.397829999999999870e+02 3.669266700000000014e+01 8.152991060811128066e-02
1.453143300000000124e+02 4.326666699999999821e+01 1.543869676382155220e-01
1.452383299999999906e+02 4.330733299999999986e+01 1.075976356871360257e-01
1.439173299999999927e+02 3.892866699999999724e+01 3.499845368633430331e-03
1.438943299999999965e+02 3.884966699999999662e+01 3.691993028505623393e-03
1.463549999999999898e+02 4.235233300000000156e+01 9.918421782621188176e-02
1.466036699999999939e+02 4.220566699999999827e+01 2.133695785163603961e-02
1.465126700000000142e+02 4.216233299999999673e+01 1.630285294993134848e-02
1.395963299999999947e+02 3.601166700000000276e+01 1.422032925688311578e-01
1.394793300000000045e+02 3.598433299999999946e+01 0.000000000000000000e+00
1.395153300000000058e+02 3.603866699999999668e+01 1.041333083662268968e-02
1.417703300000000013e+02 3.454133300000000162e+01 1.147071020746817521e-01
1.454886700000000133e+02 4.323066699999999685e+01 2.133833727939327407e-01
1.454596699999999885e+02 4.334833299999999667e+01 1.113516769451332045e-01
1.455656700000000114e+02 4.338733299999999815e+01 1.020924277017354470e-01
1.454266700000000014e+02 4.328433299999999662e+01 1.558135717272954579e-01
1.444606699999999933e+02 4.061299999999999955e+01 0.000000000000000000e+00
1.422210000000000036e+02 3.698599999999999710e+01 1.513763945753942297e-01
1.457773300000000063e+02 4.341199999999999903e+01 1.613341916872496618e-01
1.456863299999999981e+02 4.329166699999999679e+01 2.096864138255010446e-01
1.456670000000000016e+02 4.336566700000000196e+01 1.597517965572582133e-01
1.441263299999999958e+02 3.914233300000000071e+01 5.729697549622732552e-06
1.400900000000000034e+02 3.579066699999999912e+01 3.775983953225557910e-01
1.429230000000000018e+02 3.792866699999999724e+01 1.291253818946476728e-01
1.429116699999999867e+02 3.784266699999999872e+01 1.229365605023787222e-01
1.424003299999999967e+02 3.827966700000000344e+01 4.198555786402213830e-01
1.422523300000000006e+02 4.116299999999999670e+01 5.061794319281637256e-01
1.421330000000000098e+02 4.105899999999999750e+01 4.351069285523175845e-01
1.431753300000000024e+02 3.815933299999999662e+01 8.386996776251506858e-02
1.435296700000000101e+02 3.834233300000000355e+01 2.798577089327521777e-02
1.436090000000000089e+02 3.838000000000000256e+01 1.628282566639979376e-02
1.430960000000000036e+02 3.830633300000000219e+01 1.247918299285928068e-01
1.432693299999999965e+02 3.836766699999999730e+01 8.606800866325459154e-02
1.430780000000000030e+02 4.010633299999999934e+01 2.554863242966927683e-01
1.431493299999999920e+02 3.999133299999999736e+01 2.300255279405260256e-01
1.432506700000000137e+02 3.994899999999999807e+01 1.995196999191589937e-01
1.432616700000000094e+02 3.952133299999999849e+01 1.892559972826588777e-01
1.432596699999999998e+02 3.942266699999999702e+01 1.865702207420619485e-01
1.431566699999999912e+02 4.007399999999999807e+01 2.341739510538491664e-01
1.424943299999999908e+02 3.901899999999999835e+01 3.906691579200178288e-01
1.425600000000000023e+02 3.925566700000000253e+01 3.849224550617665330e-01
1.425689999999999884e+02 3.918066699999999969e+01 3.850186008353650435e-01
1.424636700000000076e+02 3.927100000000000080e+01 3.908418714356762802e-01
1.427546700000000044e+02 3.881666700000000247e+01 2.915149259589349118e-01
1.427613299999999867e+02 3.897999999999999687e+01 3.198959284857093577e-01
1.428436700000000030e+02 3.893866700000000236e+01 2.869179086510877386e-01
1.457526699999999948e+02 4.241299999999999670e+01 3.581654010380449504e-01
1.458306699999999978e+02 4.236766699999999730e+01 2.847499413219400366e-01
1.433023300000000120e+02 4.153199999999999648e+01 5.567007908150672923e-01
1.429506700000000023e+02 4.123633300000000190e+01 5.631692399011976047e-01
1.430086699999999951e+02 4.116700000000000159e+01 5.381307988894217242e-01
1.429666699999999935e+02 4.109833299999999667e+01 5.345589531902323888e-01
1.433240000000000123e+02 4.144566700000000026e+01 5.225393184418478665e-01
1.434283299999999883e+02 4.142966700000000202e+01 4.880930436934594052e-01
1.432549999999999955e+02 4.137366699999999753e+01 4.978123815505947070e-01
1.431550000000000011e+02 4.122800000000000153e+01 5.051450316505825544e-01
1.428416699999999935e+02 4.123966699999999719e+01 5.830934683389170647e-01
1.429846699999999942e+02 4.095900000000000318e+01 5.028211027401788824e-01
1.430486699999999871e+02 4.089366700000000066e+01 4.742014850360836142e-01
1.428909999999999911e+02 4.081733299999999787e+01 4.880286768948968734e-01
1.430099999999999909e+02 4.082266700000000270e+01 4.601580236576489069e-01
1.430243299999999920e+02 4.102499999999999858e+01 5.071039067723178695e-01
1.431100000000000136e+02 4.115733300000000128e+01 5.065885338515030423e-01
1.430709999999999980e+02 4.075733300000000270e+01 4.182547310449645228e-01
1.434456700000000069e+02 4.135133299999999679e+01 4.545682910049761993e-01
1.436246700000000089e+02 4.138400000000000034e+01 4.183807067610914032e-01
1.435376699999999914e+02 4.133433300000000088e+01 4.195981650443650901e-01
1.435413299999999879e+02 4.125466699999999776e+01 3.820206769935178825e-01
1.423400000000000034e+02 3.955333300000000207e+01 2.749094321138090824e-01
1.412086700000000121e+02 3.896633299999999878e+01 0.000000000000000000e+00
1.432323299999999904e+02 4.067066700000000168e+01 3.525055519409123206e-01
1.431863299999999981e+02 4.075333299999999781e+01 3.808364350967545775e-01
1.429190000000000111e+02 3.985300000000000153e+01 2.795197905491705881e-01
1.430253299999999967e+02 3.988266699999999787e+01 2.552882733584358466e-01
1.430023300000000006e+02 4.003966700000000145e+01 2.629928037334497426e-01
1.430519999999999925e+02 3.996500000000000341e+01 2.508918650940117900e-01
1.423926700000000096e+02 3.698666699999999707e+01 1.147437195229177587e-01
1.409143300000000067e+02 3.559133299999999878e+01 0.000000000000000000e+00
1.435796699999999930e+02 3.759666699999999651e+01 8.168845953002102096e-06
1.436743299999999977e+02 3.782300000000000040e+01 1.958492916460617130e-05
1.437649999999999864e+02 3.810666700000000162e+01 0.000000000000000000e+00
1.421370000000000005e+02 3.568599999999999994e+01 2.445031460551849722e-02
1.422163299999999992e+02 3.574866699999999753e+01 1.765113175688762248e-02
1.421936699999999973e+02 3.581966700000000259e+01 2.668394727613692535e-02
1.460660000000000025e+02 4.179599999999999937e+01 4.372883636960926294e-05
1.415393300000000067e+02 3.486733300000000213e+01 2.595689578177228785e-01
1.443356699999999933e+02 4.035733299999999701e+01 0.000000000000000000e+00
1.423543300000000045e+02 3.947633299999999679e+01 3.080545619956299719e-01
1.424173299999999927e+02 3.933433300000000088e+01 3.780690282021592630e-01
1.424426699999999926e+02 3.887133299999999991e+01 3.869619226776899734e-01
1.424209999999999923e+02 3.895266699999999815e+01 3.935905822359427320e-01
1.436783299999999883e+02 4.218933299999999775e+01 5.932111884405999458e-01
1.431810000000000116e+02 4.176299999999999812e+01 6.353730494509014504e-01
1.425380000000000109e+02 4.204433300000000173e+01 3.439898878346409061e-01
1.424633300000000133e+02 4.199633299999999991e+01 3.586514117841330673e-01
1.426543299999999874e+02 4.176433300000000060e+01 5.952128935516892705e-01
1.425446699999999964e+02 3.605266699999999958e+01 1.898525863880641543e-05
1.442709999999999866e+02 4.258233299999999844e+01 2.410798458685602663e-01
1.433456700000000126e+02 4.064433300000000315e+01 3.024097107036430865e-01
1.436136700000000133e+02 4.098866699999999952e+01 2.691218872793615935e-01
1.434240000000000066e+02 4.070433299999999832e+01 2.903878881662688149e-01
1.433813299999999913e+02 4.079200000000000159e+01 3.197317614775965766e-01
1.434546699999999930e+02 4.085900000000000176e+01 3.070826866808916145e-01
1.432570000000000050e+02 4.081466700000000003e+01 3.790349346048431101e-01
1.432223299999999995e+02 4.090266700000000100e+01 4.129988822785827240e-01
1.435083300000000008e+02 4.109566699999999884e+01 3.393731268274919888e-01
1.435053299999999865e+02 4.101200000000000045e+01 3.194241505495077904e-01
1.435846699999999885e+02 4.020733299999999844e+01 1.341126491089047745e-01
1.433449999999999989e+02 3.937466700000000230e+01 1.539347238803210061e-01
1.433303300000000036e+02 3.928199999999999648e+01 1.541295881504280707e-01
1.433293299999999988e+02 3.999633299999999991e+01 1.862914993483165971e-01
1.431336699999999951e+02 4.092766699999999958e+01 4.585921953039717724e-01
1.431146699999999896e+02 4.101200000000000045e+01 4.800962071681224574e-01
1.432676700000000096e+02 4.106499999999999773e+01 4.339559420227146469e-01
1.431583300000000065e+02 4.107566700000000282e+01 4.777952768413082363e-01
1.427466699999999946e+02 4.278166699999999878e+01 0.000000000000000000e+00
1.401096699999999942e+02 3.695866699999999838e+01 2.819518128024441905e-01
1.400553299999999979e+02 3.701599999999999824e+01 1.331682892605921265e-01
1.400649999999999977e+02 3.687666699999999764e+01 3.358870775392859831e-01
1.399780000000000086e+02 3.698833299999999724e+01 6.610276283641335071e-02
1.417860000000000014e+02 4.028099999999999881e+01 0.000000000000000000e+00
1.417210000000000036e+02 4.039666700000000077e+01 0.000000000000000000e+00
1.422390000000000043e+02 3.958899999999999864e+01 2.019848703428050729e-01
1.396773300000000120e+02 3.582633299999999821e+01 2.283833511109460701e-01
1.396129999999999995e+02 3.587166700000000219e+01 1.414789590002983322e-01
1.396386699999999905e+02 3.593833300000000008e+01 1.789477641259419882e-01
1.417003300000000081e+02 4.047533299999999912e+01 0.000000000000000000e+00
