1.406690000000000111e+02 3.866266699999999901e+01 4.542219893919248474e-05
1.419416699999999878e+02 4.246999999999999886e+01 0.000000000000000000e+00
1.422733299999999872e+02 3.738566699999999798e+01 2.953538907651828693e-01
1.408806700000000092e+02 3.649766699999999986e+01 0.000000000000000000e+00
1.397280000000000086e+02 3.606433299999999775e+01 4.651451701203697664e-01
1.398733300000000099e+02 3.605100000000000193e+01 6.394495466097553926e-01
1.397833300000000065e+02 3.612933300000000258e+01 5.765806366242486325e-01
1.398533299999999997e+02 3.611599999999999966e+01 6.588710439407526875e-01
1.429076699999999960e+02 3.873466700000000174e+01 2.424618987622478850e-01
1.429876700000000085e+02 3.867133299999999707e+01 2.177508163303257804e-01
1.457596699999999998e+02 4.187766700000000242e+01 4.044766408113243533e-02
1.428246699999999976e+02 4.028266699999999645e+01 3.777256973165286635e-01
1.423139999999999930e+02 3.987766700000000242e+01 4.013272831853850198e-01
1.423569999999999993e+02 3.981199999999999761e+01 4.174109550417164916e-01
1.453153299999999888e+02 4.310266699999999673e+01 3.006100347278319873e-01
1.441606700000000103e+02 3.989066700000000054e+01 5.183894872498538134e-04
1.442100000000000080e+02 3.981366700000000236e+01 0.000000000000000000e+00
1.432980000000000018e+02 4.169066699999999770e+01 5.735347627135715110e-01
1.433893300000000011e+02 4.167133299999999707e+01 5.788514844758840816e-01
1.432833300000000065e+02 4.176500000000000057e+01 5.922373454422286132e-01
1.435029999999999859e+02 4.172533299999999912e+01 6.302275964528529784e-01
1.419473299999999938e+02 4.232366700000000037e+01 0.000000000000000000e+00
1.420456700000000012e+02 4.216199999999999903e+01 0.000000000000000000e+00
1.420563300000000027e+02 4.235199999999999676e+01 0.000000000000000000e+00
1.417286699999999939e+02 3.786333299999999724e+01 3.534237394244146846e-01
1.418400000000000034e+02 3.789900000000000091e+01 4.065026621231435655e-01
1.417373299999999858e+02 4.230266699999999958e+01 0.000000000000000000e+00
1.415759999999999934e+02 4.201733300000000071e+01 9.386022421149160799e-02
1.417383299999999906e+02 4.208566700000000083e+01 0.000000000000000000e+00
1.416983299999999986e+02 4.215633299999999650e+01 0.000000000000000000e+00
1.416740000000000066e+02 4.200866700000000264e+01 0.000000000000000000e+00
1.431009999999999991e+02 3.674733299999999758e+01 1.655965126192193623e-05
1.431013299999999902e+02 3.682466699999999804e+01 5.785898459976998587e-04
1.430203300000000013e+02 3.672299999999999898e+01 5.329253105989488612e-04
1.407820000000000107e+02 3.906866699999999781e+01 1.245546368110719739e-05
1.408100000000000023e+02 3.899933300000000003e+01 1.838610873819845545e-03
1.425370000000000061e+02 3.979866700000000179e+01 4.241188754533123384e-01
1.424513300000000129e+02 3.984199999999999875e+01 4.206599696245681419e-01
1.446406700000000001e+02 4.285066700000000139e+01 3.102766574297749491e-01
1.447346699999999942e+02 4.289500000000000313e+01 3.121639157541299392e-01
1.412529999999999859e+02 3.960433299999999690e+01 0.000000000000000000e+00
1.447736700000000098e+02 4.137866700000000009e+01 3.956998254202742649e-02
1.449726699999999937e+02 4.145833300000000321e+01 2.652206841018506928e-02
1.420200000000000102e+02 3.963600000000000279e+01 3.168482065778751022e-01
1.419163299999999879e+02 3.964066700000000054e+01 2.488231858128738538e-01
1.420666699999999878e+02 3.971500000000000341e+01 3.232916399411668307e-01
1.420183299999999917e+02 3.979399999999999693e+01 2.885136408348653592e-01
1.423149999999999977e+02 4.014300000000000068e+01 3.781300437830601990e-01
1.419269999999999925e+02 4.002333300000000094e+01 1.897220634010013673e-01
1.419929999999999950e+02 4.009199999999999875e+01 2.190682477628243807e-01
1.443283299999999940e+02 4.070799999999999841e+01 5.531304011979903089e-03
1.416083299999999952e+02 4.090800000000000125e+01 1.642938668780413169e-01
1.423009999999999877e+02 4.122533299999999912e+01 3.812951652885499532e-01
1.424163299999999879e+02 4.122099999999999653e+01 4.225425681181797510e-01
1.424486699999999928e+02 4.129466699999999690e+01 4.330824764243200176e-01
1.442069999999999936e+02 4.094200000000000017e+01 5.122939717914162805e-02
1.441626699999999914e+02 4.102033300000000082e+01 8.156497325085164396e-02
1.412703300000000013e+02 3.839866700000000321e+01 3.649251153912758117e-01
1.443596699999999942e+02 4.278099999999999881e+01 2.743587358067306470e-01
1.444543299999999988e+02 4.279099999999999682e+01 2.888361150964219304e-01
1.444773299999999949e+02 4.287166700000000219e+01 2.356527089955586796e-01
1.421970000000000027e+02 3.811566700000000196e+01 4.998119191268369232e-01
1.420863300000000038e+02 3.813400000000000034e+01 5.431061217061795565e-01
1.420503300000000024e+02 3.795400000000000063e+01 4.386450029146784502e-01
1.426759999999999877e+02 3.942933299999999974e+01 3.861050673052623394e-01
1.427760000000000105e+02 3.940066699999999855e+01 3.454364294280726777e-01
1.414233299999999929e+02 3.789766699999999844e+01 3.421557580942657384e-01
1.413323300000000131e+02 3.785133299999999679e+01 2.831869813250967871e-01
1.414106700000000103e+02 3.797500000000000142e+01 3.839817968844812524e-01
1.422170000000000130e+02 3.893500000000000227e+01 4.471017626414435786e-01
1.422486700000000042e+02 3.885266699999999673e+01 4.498360352289653696e-01
1.421576699999999960e+02 3.881633300000000020e+01 4.650542039896535251e-01
1.436920000000000073e+02 3.939066700000000054e+01 5.303281509780861241e-02
1.435056700000000092e+02 3.932999999999999829e+01 9.112945052802277901e-02
1.434550000000000125e+02 3.940066699999999855e+01 1.043056459842201938e-01
1.443716699999999946e+02 4.192133299999999707e+01 6.742871292035085284e-01
1.417246700000000033e+02 3.478566699999999656e+01 0.000000000000000000e+00
1.417419999999999902e+02 3.491633300000000162e+01 0.000000000000000000e+00
1.416910000000000025e+02 3.484366700000000350e+01 0.000000000000000000e+00
1.410730000000000075e+02 3.517033299999999940e+01 0.000000000000000000e+00
1.428913300000000106e+02 4.095533300000000310e+01 4.704087096160095016e-01
1.428286699999999882e+02 4.101500000000000057e+01 4.845221760108903153e-01
1.462446700000000135e+02 4.222999999999999687e+01 9.214671791513044663e-02
1.461133299999999906e+02 4.207933299999999832e+01 4.869917573130050359e-02
1.459250000000000114e+02 4.205466700000000202e+01 7.871407052823131689e-02
1.460253299999999967e+02 4.202333300000000094e+01 4.087937616959332748e-02
1.459710000000000036e+02 4.219066699999999770e+01 1.450441114519720742e-01
1.458976700000000051e+02 4.213633300000000048e+01 1.287307749733873630e-01
1.429689999999999941e+02 4.241733299999999929e+01 4.590990316688976502e-01
1.432216699999999889e+02 4.264366700000000066e+01 3.899638640068975870e-01
1.432016700000000071e+02 4.256466700000000003e+01 4.924696543974989016e-01
1.415763300000000129e+02 3.867566699999999713e+01 3.839230840920472843e-01
1.431636699999999962e+02 3.929299999999999926e+01 1.967654540034932953e-01
1.432533300000000054e+02 3.924600000000000222e+01 1.639811153775166952e-01
1.430876700000000028e+02 3.925500000000000256e+01 2.172927501310610854e-01
1.412463300000000004e+02 3.645566699999999827e+01 2.100491910437085608e-01
1.430980000000000132e+02 4.049900000000000233e+01 3.264589489335222305e-01
1.431703300000000070e+02 4.054933299999999718e+01 3.217760823948369597e-01
1.431659999999999968e+02 4.043133300000000219e+01 3.017650869141740855e-01
1.414726699999999937e+02 3.894299999999999784e+01 1.474081451691529321e-01
1.399806700000000035e+02 3.614066700000000054e+01 7.074759809104954611e-01
1.399526700000000119e+02 3.606366700000000236e+01 6.646548774561257256e-01
1.399170000000000016e+02 3.617833300000000207e+01 7.135918072113540678e-01
1.430303299999999922e+02 4.275966700000000031e+01 0.000000000000000000e+00
1.440043300000000102e+02 4.162366699999999753e+01 5.045638446796181231e-01
1.439263300000000072e+02 4.159799999999999898e+01 5.009671755502819179e-01
1.439550000000000125e+02 4.209433299999999889e+01 8.127835872484241442e-01
1.439180000000000064e+02 4.201033300000000281e+01 8.003088924942111104e-01
1.440826700000000073e+02 4.211800000000000210e+01 8.116247566756776832e-01
1.414476699999999880e+02 4.085133299999999679e+01 1.190952446830363665e-01
1.411703300000000070e+02 4.159866699999999895e+01 3.053261811649748508e-05
1.411606700000000103e+02 4.150900000000000034e+01 1.263576903277500349e-05
1.427303300000000092e+02 3.662633300000000247e+01 1.916994440343578257e-02
1.428376700000000028e+02 3.666899999999999693e+01 9.245265434600968835e-03
1.404113299999999924e+02 3.804166699999999679e+01 9.669733018034243062e-05
1.404439999999999884e+02 3.812833299999999781e+01 0.000000000000000000e+00
1.405113299999999867e+02 3.817533300000000196e+01 1.418832413030198143e-02
1.405846699999999885e+02 3.813799999999999812e+01 9.815381483197789525e-02
1.405980000000000132e+02 3.807133300000000276e+01 1.266611759133940140e-01
1.449953299999999956e+02 4.193133300000000219e+01 4.118067534330375201e-01
1.449350000000000023e+02 4.186733300000000213e+01 3.727362601370129425e-01
1.449696700000000078e+02 4.131733299999999787e+01 6.132365743934184031e-05
1.448580000000000041e+02 4.130700000000000216e+01 3.612919630657622939e-03
1.417930000000000064e+02 3.810799999999999699e+01 5.389471555844926876e-01
1.417676700000000096e+02 3.802266699999999844e+01 4.925598143291246567e-01
1.422863299999999924e+02 4.164200000000000301e+01 3.601901845153233084e-01
1.421706700000000012e+02 4.177600000000000335e+01 4.165353744574414319e-01
1.414353299999999933e+02 3.649166699999999963e+01 2.683905675566352067e-01
1.414306699999999921e+02 3.657033299999999798e+01 2.533995480770377950e-01
1.415373299999999972e+02 3.647233299999999900e+01 2.835403652597847657e-01
1.417576699999999903e+02 3.645333300000000065e+01 2.663872541858662846e-01
1.416980000000000075e+02 3.637766700000000242e+01 2.709949130987250876e-01
1.416690000000000111e+02 3.656000000000000227e+01 2.774899055811873017e-01
1.417379999999999995e+02 3.652533300000000338e+01 2.710454349083991077e-01
1.418196700000000021e+02 3.665999999999999659e+01 2.728955650773042807e-01
1.417086700000000121e+02 3.664800000000000324e+01 2.770995171082433761e-01
1.418396700000000124e+02 3.658599999999999852e+01 2.642421465190527008e-01
1.455600000000000023e+02 4.249133299999999736e+01 5.678099967182321794e-01
1.455543299999999931e+02 4.241033300000000139e+01 5.311037521258126226e-01
1.454526700000000119e+02 4.250433300000000258e+01 6.374913427654326226e-01
1.456579999999999870e+02 4.167099999999999937e+01 1.859436931206386425e-03
1.457563299999999913e+02 4.166100000000000136e+01 4.997889102047928364e-05
1.456406700000000001e+02 4.175733300000000270e+01 1.299244709694694425e-02
1.415819999999999936e+02 3.495066700000000282e+01 0.000000000000000000e+00
1.415033300000000054e+02 3.500566700000000253e+01 0.000000000000000000e+00
1.415140000000000100e+02 3.507600000000000051e+01 0.000000000000000000e+00
1.418536699999999939e+02 3.508500000000000085e+01 0.000000000000000000e+00
1.419183299999999974e+02 3.515800000000000125e+01 0.000000000000000000e+00
1.423899999999999864e+02 4.097433300000000145e+01 4.148813065326957261e-01
1.424246699999999919e+02 4.090966699999999889e+01 4.224676453493653172e-01
1.433666699999999992e+02 3.891333300000000150e+01 9.853195982806675635e-02
1.434766700000000128e+02 3.889233300000000071e+01 6.637918682030026496e-02
1.459730000000000132e+02 4.246633299999999878e+01 3.233045874985609469e-01
1.435749999999999886e+02 4.059533299999999656e+01 1.988418520091502495e-01
1.435373299999999972e+02 4.067900000000000205e+01 2.227238822936428442e-01
1.449666699999999935e+02 4.200133300000000247e+01 4.823622020328470761e-01
1.454046700000000101e+02 4.213199999999999790e+01 3.518143564279274105e-01
1.416790000000000020e+02 3.575766699999999787e+01 1.026785964783288874e-01
1.413133300000000077e+02 3.581933300000000031e+01 1.208085306183127733e-01
1.425190000000000055e+02 4.165333300000000349e+01 4.615450665829078924e-01
1.424610000000000127e+02 4.158833299999999866e+01 4.312048118691424459e-01
1.425146699999999953e+02 4.152199999999999847e+01 4.538023788892791011e-01
1.425463300000000118e+02 4.140433300000000116e+01 4.710185723547021808e-01
1.424756700000000080e+02 4.145233300000000298e+01 4.480101501540431075e-01
1.421430000000000007e+02 3.858899999999999864e+01 5.225606162284867073e-01
1.421033299999999997e+02 3.851966699999999832e+01 5.424128979815246998e-01
1.422439999999999998e+02 3.845600000000000307e+01 5.184878059162758568e-01
1.421473300000000108e+02 3.844733300000000042e+01 5.537311270136568986e-01
1.418520000000000039e+02 3.862933300000000258e+01 5.034972002855448991e-01
1.419170000000000016e+02 3.866133299999999906e+01 4.974806762139987182e-01
1.442213299999999947e+02 4.232833300000000065e+01 7.444663300624223545e-01
1.441296700000000044e+02 4.219033300000000253e+01 8.060335509963384437e-01
1.444850000000000136e+02 4.241966699999999690e+01 7.514133476256307231e-01
1.444389999999999930e+02 4.249733299999999758e+01 6.435706213741867465e-01
1.443990000000000009e+02 4.237266699999999986e+01 7.660437650013495192e-01
1.443033299999999883e+02 4.250900000000000034e+01 5.708661362306622911e-01
1.442293300000000045e+02 4.244866700000000037e+01 6.272395001436646966e-01
1.442789999999999964e+02 4.239000000000000057e+01 7.110259979857922463e-01
1.429900000000000091e+02 4.050466699999999776e+01 3.608943402996458993e-01
1.429313300000000027e+02 4.055966699999999747e+01 3.819895015679496963e-01
1.429316699999999969e+02 4.043966700000000003e+01 3.627861133389078674e-01
1.425960000000000036e+02 4.038900000000000290e+01 4.096950707805178671e-01
1.426486700000000098e+02 4.031533300000000253e+01 4.074514133368762892e-01
1.427593300000000056e+02 4.033700000000000330e+01 3.936964421789175272e-01
1.428483300000000042e+02 3.747566700000000139e+01 1.175696526453595681e-01
1.421579999999999870e+02 4.038900000000000290e+01 3.212572717814301537e-01
1.421663299999999879e+02 4.057533300000000054e+01 3.392067893142717838e-01
1.422506700000000137e+02 4.027466700000000088e+01 3.506121630934310729e-01
1.422403300000000002e+02 4.018399999999999750e+01 3.484107451074732742e-01
1.421616699999999867e+02 4.030100000000000193e+01 3.188999241420402142e-01
1.416126700000000085e+02 4.106933300000000031e+01 1.466876450419347111e-01
1.415313299999999970e+02 4.103466699999999889e+01 1.209356198429459572e-01
1.415310000000000059e+02 4.095333300000000065e+01 1.294181295686630540e-01
1.424403299999999888e+02 4.264533300000000082e+01 0.000000000000000000e+00
1.425323300000000017e+02 4.230533299999999741e+01 0.000000000000000000e+00
1.424060000000000059e+02 4.228133299999999650e+01 0.000000000000000000e+00
1.422523300000000006e+02 4.258766700000000327e+01 0.000000000000000000e+00
1.423760000000000048e+02 4.250966700000000031e+01 0.000000000000000000e+00
1.423619999999999948e+02 4.258033300000000310e+01 0.000000000000000000e+00
1.422656700000000001e+02 4.245033300000000054e+01 0.000000000000000000e+00
1.405989999999999895e+02 3.678366700000000122e+01 0.000000000000000000e+00
1.405683300000000031e+02 3.682666700000000048e+01 0.000000000000000000e+00
1.407016700000000071e+02 3.678900000000000148e+01 0.000000000000000000e+00
1.445749999999999886e+02 4.101233299999999815e+01 4.007962183458019993e-05
1.452073300000000131e+02 4.286500000000000199e+01 5.260874953898848627e-01
1.445720000000000027e+02 4.289766699999999844e+01 2.438779175941987176e-01
1.448193300000000079e+02 4.278866699999999668e+01 4.649449102662789324e-01
1.448203300000000127e+02 4.286599999999999966e+01 3.872120592764867752e-01
1.435643300000000124e+02 4.084133299999999878e+01 2.412408779916569990e-01
1.436386699999999905e+02 4.091433299999999917e+01 2.327107218996888327e-01
1.413526699999999892e+02 3.836333299999999724e+01 4.367235080022783822e-01
1.415203300000000013e+02 3.693333299999999753e+01 2.337948823126691500e-01
1.414859999999999900e+02 3.684566699999999884e+01 2.247311406652948151e-01
1.432779999999999916e+02 3.778466699999999889e+01 3.799198433866897429e-02
1.414343299999999886e+02 3.995000000000000284e+01 0.000000000000000000e+00
1.414943299999999908e+02 4.002933300000000116e+01 0.000000000000000000e+00
1.426213300000000004e+02 4.119233299999999787e+01 4.856550738462243055e-01
1.426963299999999890e+02 4.113966700000000287e+01 4.961532102901531904e-01
1.418423300000000040e+02 3.468933299999999775e+01 2.502502388230439315e-02
1.419396700000000067e+02 3.466400000000000148e+01 1.373059169746078390e-02
1.403509999999999991e+02 3.619299999999999784e+01 0.000000000000000000e+00
1.412416699999999992e+02 4.064666700000000077e+01 4.622947188692401455e-02
1.413240000000000123e+02 4.066333300000000150e+01 1.011621736116418563e-01
1.416920000000000073e+02 3.506900000000000261e+01 0.000000000000000000e+00
1.417706699999999955e+02 3.512233299999999758e+01 0.000000000000000000e+00
1.447143299999999897e+02 4.120466700000000060e+01 3.486898297339768252e-03
1.426443299999999965e+02 3.867366700000000179e+01 3.373431311246272712e-01
1.426419999999999959e+02 3.859400000000000119e+01 3.414948522038204759e-01
1.420266699999999958e+02 4.247433300000000145e+01 0.000000000000000000e+00
1.421726700000000108e+02 4.246500000000000341e+01 0.000000000000000000e+00
1.420816700000000026e+02 4.242633299999999963e+01 0.000000000000000000e+00
1.438729999999999905e+02 3.958599999999999852e+01 2.831788870862277097e-02
1.438253300000000081e+02 3.967133299999999707e+01 3.741474202757781586e-02
1.414416699999999878e+02 3.811766699999999730e+01 4.600518515007073206e-01
1.447379999999999995e+02 4.159766700000000128e+01 1.850538965590670382e-01
1.446943300000000079e+02 4.153099999999999881e+01 1.420167424977530901e-01
1.421013299999999902e+02 3.775666700000000020e+01 3.757125214435521610e-01
1.420053299999999865e+02 3.771166699999999850e+01 3.680622241656995031e-01
1.432913299999999879e+02 3.735000000000000142e+01 6.082037959507951598e-03
1.418473299999999995e+02 4.024799999999999756e+01 1.717375084556848064e-01
1.418489999999999895e+02 4.017399999999999949e+01 1.551021115644099779e-01
1.412386700000000133e+02 3.676733300000000071e+01 1.155075458622476653e-01
1.412006700000000023e+02 3.654599999999999937e+01 1.644979911131061734e-01
1.412510000000000048e+02 3.661800000000000210e+01 1.617606710930221403e-01
1.410730000000000075e+02 3.655899999999999750e+01 7.616297174874148146e-02
1.416773300000000120e+02 4.077900000000000347e+01 2.032475043032219986e-01
1.440169999999999959e+02 4.111066699999999940e+01 1.552705534277274146e-01
1.440456700000000012e+02 4.102966700000000344e+01 1.221917478965996867e-01
1.407306700000000035e+02 3.808433300000000088e+01 2.067707448193915054e-01
1.407763300000000015e+02 3.803666700000000134e+01 2.202775893959235953e-01
1.426606700000000103e+02 3.950500000000000256e+01 3.970388253657752275e-01
1.437110000000000127e+02 3.952433299999999861e+01 5.958463762909531336e-02
1.436473300000000108e+02 3.946266700000000327e+01 6.401838864880279867e-02
1.434396700000000067e+02 4.262599999999999767e+01 4.902765295128525547e-01
1.434130000000000109e+02 4.255466700000000202e+01 5.622092241430183268e-01
1.425246699999999862e+02 3.972399999999999665e+01 4.294048057850266553e-01
1.411993300000000033e+02 3.522500000000000142e+01 0.000000000000000000e+00
1.411519999999999868e+02 3.515899999999999892e+01 0.000000000000000000e+00
1.415863300000000038e+02 3.600099999999999767e+01 1.995883816176717840e-01
1.416776700000000062e+02 3.599499999999999744e+01 1.862732619341920248e-01
1.418259999999999934e+02 3.888033300000000025e+01 3.954010964092644631e-01
1.418993299999999920e+02 3.890733300000000128e+01 4.139750097630710002e-01
1.419406700000000114e+02 4.138300000000000267e+01 2.446399047266162863e-01
1.418363300000000038e+02 4.139266700000000299e+01 2.322585194551426979e-01
1.401363299999999867e+02 3.604999999999999716e+01 0.000000000000000000e+00
1.402306700000000035e+02 3.601800000000000068e+01 0.000000000000000000e+00
1.417429999999999950e+02 3.844299999999999784e+01 5.554406453118501119e-01
1.416450000000000102e+02 3.842600000000000193e+01 5.267339380686457684e-01
1.425406700000000058e+02 4.114300000000000068e+01 4.557088623746131661e-01
1.425209999999999866e+02 4.106333300000000008e+01 4.501172589703891780e-01
1.425496699999999919e+02 4.083566700000000083e+01 4.492134076713390489e-01
1.425159999999999911e+02 4.091466700000000145e+01 4.470747012253043495e-01
1.432316700000000083e+02 3.844100000000000250e+01 1.148572495518339343e-01
1.432680000000000007e+02 3.851266700000000043e+01 1.102521919747072726e-01
1.429370000000000118e+02 3.847033299999999656e+01 2.232752633503075623e-01
1.430000000000000000e+02 3.852799999999999869e+01 2.067716423877123122e-01
1.463009999999999877e+02 4.259333300000000122e+01 2.730791258608996630e-01
1.462046699999999930e+02 4.262800000000000011e+01 3.308582161307968561e-01
1.438456700000000126e+02 4.177333300000000094e+01 6.561657085259208211e-01
1.438903300000000058e+02 4.171933299999999889e+01 5.942827262815421063e-01
1.435876700000000028e+02 4.186566700000000196e+01 7.245349386799596614e-01
1.436966700000000117e+02 4.184700000000000131e+01 7.165498591677682549e-01
1.451013299999999902e+02 4.218933299999999775e+01 6.207357308404367613e-01
1.450363299999999924e+02 4.211866700000000208e+01 5.648913410240425925e-01
1.448946699999999908e+02 4.203000000000000114e+01 5.422392426974217416e-01
1.423549999999999898e+02 3.873066699999999685e+01 4.424524501089067141e-01
1.424486699999999928e+02 3.868633299999999764e+01 4.152909631639036259e-01
1.422620000000000005e+02 4.054766699999999702e+01 3.668704522981134919e-01
1.446553299999999922e+02 4.136366699999999952e+01 5.616799813133799973e-02
1.428530000000000086e+02 4.270366700000000293e+01 0.000000000000000000e+00
1.451976699999999880e+02 4.279133300000000162e+01 5.878169020821757407e-01
1.451093299999999999e+02 4.275999999999999801e+01 6.013362696179143096e-01
1.447379999999999995e+02 4.297399999999999665e+01 2.439904307392748994e-01
1.414550000000000125e+02 3.735333299999999923e+01 2.624383674231930974e-01
1.423040000000000020e+02 3.610499999999999687e+01 3.383559106701309466e-02
1.423410000000000082e+02 3.602766700000000100e+01 2.063234333159946754e-02
1.416620000000000061e+02 4.135900000000000176e+01 2.003763176114836120e-01
1.417410000000000139e+02 4.117533300000000196e+01 1.861194122744133927e-01
1.417943300000000022e+02 4.124766699999999986e+01 2.023972276210687926e-01
1.417566700000000139e+02 4.132433300000000287e+01 2.085634897370318153e-01
1.427680000000000007e+02 3.974233300000000213e+01 3.772321852305831613e-01
1.427483300000000099e+02 3.957566700000000282e+01 3.786345309259583347e-01
1.412283299999999997e+02 4.042799999999999727e+01 5.483137916048445859e-02
1.422943300000000022e+02 3.920499999999999829e+01 4.637367349345307144e-01
1.428969999999999914e+02 3.926933300000000315e+01 2.871561574315485976e-01
1.429670000000000130e+02 3.939466699999999832e+01 2.733570656846947000e-01
1.429853300000000047e+02 3.930299999999999727e+01 2.625237009095968133e-01
1.436113300000000095e+02 3.879366699999999923e+01 3.312772837927217134e-02
1.437196700000000078e+02 3.867933299999999974e+01 1.200259639104439731e-02
1.436303299999999865e+02 3.870300000000000296e+01 2.713432609764274486e-02
1.414323300000000074e+02 3.879633299999999707e+01 2.162229024392682275e-01
1.414656699999999887e+02 3.748566699999999940e+01 2.641286766843890521e-01
1.417659999999999911e+02 4.079666699999999935e+01 2.224817162108255753e-01
1.419556699999999978e+02 4.088166700000000020e+01 2.729291137087920815e-01
1.419823299999999904e+02 4.080966699999999747e+01 2.852676414366123181e-01
1.422283299999999997e+02 4.090466700000000344e+01 3.669366573674288645e-01
1.422803299999999922e+02 4.083833299999999866e+01 3.785644507263477010e-01
1.422833300000000065e+02 4.096766699999999872e+01 3.806791055661812306e-01
1.423700000000000045e+02 4.083666699999999850e+01 4.063179457875183975e-01
1.411879999999999882e+02 3.787966699999999776e+01 2.355626135598602178e-01
1.431469999999999914e+02 4.232999999999999829e+01 5.833947388307296755e-01
1.430356700000000103e+02 4.230433299999999974e+01 5.234530033764692725e-01
1.431719999999999970e+02 4.240800000000000125e+01 5.790090695247822605e-01
1.430749999999999886e+02 4.245433299999999832e+01 5.098504575932291116e-01
1.416680000000000064e+02 4.010933299999999946e+01 1.173874032789514466e-01
1.417756699999999910e+02 4.010733299999999701e+01 1.094283317494208485e-01
1.417529999999999859e+02 3.995033300000000054e+01 7.641153905233769028e-02
1.418163299999999936e+02 4.002700000000000102e+01 1.092596157784126165e-01
1.409190000000000111e+02 3.612266699999999986e+01 5.604010808227487261e-02
1.415286700000000053e+02 3.901233299999999815e+01 1.348323637983070422e-01
1.405070000000000050e+02 3.559300000000000352e+01 0.000000000000000000e+00
1.404323300000000074e+02 3.561733300000000213e+01 0.000000000000000000e+00
1.427226699999999937e+02 4.141799999999999926e+01 5.134450789768753021e-01
1.426833300000000122e+02 4.156600000000000250e+01 4.952431405087847072e-01
1.426366700000000094e+02 4.144566700000000026e+01 4.929924100117887842e-01
1.426166699999999992e+02 4.151633300000000304e+01 4.860881854963063353e-01
1.416503299999999967e+02 4.063700000000000045e+01 2.303190785509872107e-01
1.416299999999999955e+02 4.070900000000000318e+01 2.097870527220882242e-01
1.414720000000000084e+02 4.069299999999999784e+01 1.646869104333233969e-01
1.446193299999999908e+02 4.213133299999999792e+01 7.631079641398343938e-01
1.418669999999999902e+02 3.646600000000000108e+01 2.409277072676053177e-01
1.424250000000000114e+02 3.738966700000000287e+01 2.511462699909157159e-01
1.423553300000000092e+02 3.734466700000000117e+01 2.662418534925565794e-01
1.423533299999999997e+02 3.725999999999999801e+01 2.568706382613704098e-01
1.425649999999999977e+02 3.702700000000000102e+01 1.353232691738598392e-01
1.425646700000000067e+02 3.711599999999999966e+01 1.491205012881448855e-01
1.426583300000000065e+02 3.699900000000000233e+01 1.003054688354067109e-01
1.426416700000000048e+02 3.715999999999999659e+01 1.344502093054078806e-01
1.417669999999999959e+02 3.866066699999999656e+01 4.647144448195957289e-01
1.417286699999999939e+02 3.873166700000000162e+01 4.117238170452631185e-01
1.417609999999999957e+02 3.878900000000000148e+01 3.952804406533738102e-01
1.430883300000000133e+02 3.697699999999999676e+01 5.838527136607640604e-03
1.464846699999999942e+02 4.261833299999999980e+01 2.300050317572570890e-01
1.464003299999999967e+02 4.265066699999999855e+01 2.725416705498589498e-01
1.437503299999999911e+02 4.089966700000000088e+01 1.817374299856399644e-01
1.436043300000000045e+02 4.074900000000000233e+01 2.120062608346439392e-01
1.437079999999999984e+02 4.072833299999999923e+01 1.669223553955626604e-01
1.414676699999999983e+02 3.827533300000000338e+01 4.923330144009731013e-01
1.414470000000000027e+02 3.840433300000000116e+01 4.668625622963473720e-01
1.417266700000000128e+02 3.682900000000000063e+01 2.909563327099801699e-01
1.422136700000000076e+02 3.641366699999999668e+01 1.134315617054571929e-01
1.432016700000000071e+02 3.784700000000000131e+01 6.154234162998192120e-02
1.413369999999999891e+02 3.994200000000000017e+01 0.000000000000000000e+00
1.418216700000000117e+02 3.477499999999999858e+01 0.000000000000000000e+00
1.420200000000000102e+02 3.471433300000000344e+01 5.197036562633661379e-03
1.420376699999999914e+02 3.479033299999999684e+01 4.089609028913846270e-03
1.419896699999999896e+02 3.485000000000000142e+01 0.000000000000000000e+00
1.418899999999999864e+02 3.484733299999999900e+01 0.000000000000000000e+00
1.422053300000000036e+02 3.772466699999999662e+01 3.518177908360531347e-01
1.402839999999999918e+02 3.614600000000000080e+01 0.000000000000000000e+00
1.412189999999999941e+02 4.056400000000000006e+01 4.084392222092154967e-02
1.412733299999999872e+02 4.050566700000000253e+01 7.027014549098760388e-02
1.413646699999999896e+02 4.051733300000000071e+01 1.360032443601267571e-01
1.413926700000000096e+02 4.059233300000000355e+01 1.414002796758391800e-01
1.415913299999999992e+02 3.520833300000000321e+01 0.000000000000000000e+00
1.416063300000000140e+02 3.511500000000000199e+01 0.000000000000000000e+00
1.445413299999999879e+02 4.196000000000000085e+01 6.537766181410058497e-01
1.445703300000000127e+02 4.178966700000000145e+01 4.777263798984253129e-01
1.417100000000000080e+02 3.606799999999999784e+01 1.972445781230029727e-01
1.417990000000000066e+02 3.607900000000000063e+01 1.807100743605793147e-01
1.418199999999999932e+02 3.615866700000000122e+01 1.930729869235582319e-01
1.416266699999999901e+02 3.618566700000000225e+01 2.454498822035635353e-01
1.416229999999999905e+02 3.611200000000000188e+01 2.252717616514311183e-01
1.430616699999999923e+02 3.906333300000000008e+01 2.180169157768109822e-01
1.429519999999999982e+02 3.903833300000000150e+01 2.473748545213741157e-01
1.430449999999999875e+02 3.913933300000000060e+01 2.260694741528809226e-01
1.428263300000000129e+02 3.915800000000000125e+01 3.001081811686296397e-01
1.429203300000000070e+02 3.918699999999999761e+01 2.768452472897467431e-01
1.428413299999999992e+02 3.908533299999999855e+01 2.910800358984331204e-01
1.417753299999999967e+02 3.763733299999999815e+01 3.430680959824089493e-01
1.428280000000000030e+02 3.839633299999999849e+01 2.627068155963621088e-01
1.426866699999999923e+02 3.844500000000000028e+01 3.206478981368523495e-01
1.427350000000000136e+02 3.837933300000000258e+01 3.018011616361455651e-01
1.427536699999999996e+02 3.868233299999999986e+01 2.934251884329134308e-01
1.439793300000000045e+02 3.960733299999999701e+01 1.402920085353910086e-02
1.410796699999999930e+02 4.009666699999999651e+01 0.000000000000000000e+00
1.410276700000000005e+02 4.015566700000000111e+01 0.000000000000000000e+00
1.411839999999999975e+02 4.012800000000000011e+01 0.000000000000000000e+00
1.410389999999999873e+02 4.024566699999999742e+01 0.000000000000000000e+00
1.410953299999999899e+02 4.029899999999999949e+01 0.000000000000000000e+00
1.433646699999999896e+02 3.709199999999999875e+01 3.770152800526028607e-05
1.432700000000000102e+02 3.697399999999999665e+01 0.000000000000000000e+00
1.440913299999999992e+02 4.117166699999999935e+01 1.699591192565167441e-01
1.415960000000000036e+02 3.834833299999999667e+01 5.273722596352347081e-01
1.416183299999999861e+02 3.827799999999999869e+01 5.391472004521593586e-01
1.415029999999999859e+02 3.834599999999999653e+01 4.961040160216482198e-01
1.417146700000000124e+02 3.824966700000000230e+01 5.746949906980748368e-01
1.417043299999999988e+02 3.815966699999999889e+01 5.574815114362565716e-01
1.415289999999999964e+02 3.823333300000000179e+01 5.088824812185172020e-01
1.415213300000000061e+02 3.817133299999999707e+01 5.009224798727022199e-01
1.414683300000000088e+02 3.803499999999999659e+01 4.433159269575024375e-01
1.415693300000000079e+02 3.804299999999999926e+01 4.799011718157527029e-01
1.416003300000000138e+02 3.812599999999999767e+01 5.131604208273257139e-01
1.448609999999999900e+02 4.157833300000000065e+01 1.246305646414192919e-01
1.448873299999999915e+02 4.149366700000000208e+01 7.043592689730623913e-02
1.447899999999999920e+02 4.146133300000000332e+01 7.156636313808374672e-02
1.413793300000000102e+02 3.594666699999999793e+01 1.830335723874876586e-01
1.414496699999999976e+02 3.598166700000000162e+01 2.013892046501993272e-01
1.413866700000000094e+02 3.586899999999999977e+01 1.544630160466941848e-01
1.420806699999999978e+02 3.629299999999999926e+01 1.312256978002481478e-01
1.418820000000000050e+02 3.632266700000000270e+01 2.108931148770282760e-01
1.420343300000000113e+02 3.644599999999999795e+01 1.804303340254821419e-01
1.421126700000000085e+02 3.638466700000000031e+01 1.418621403854899987e-01
1.419230000000000018e+02 3.641466700000000145e+01 2.169704263600014116e-01
1.419279999999999973e+02 3.784400000000000119e+01 3.876053339421748345e-01
1.419116699999999867e+02 3.775600000000000023e+01 3.671333161989153160e-01
1.420219999999999914e+02 3.786699999999999733e+01 4.088222420224718601e-01
1.421016700000000128e+02 3.782399999999999807e+01 3.908560737910802829e-01
1.431876699999999971e+02 3.732866700000000293e+01 1.939277514473154718e-02
1.420166700000000048e+02 4.023433299999999946e+01 2.319620907988712843e-01
1.419566700000000026e+02 4.028999999999999915e+01 2.148218466624378653e-01
1.419556699999999978e+02 4.016233299999999673e+01 2.040774110216874992e-01
1.412163299999999992e+02 3.684400000000000119e+01 9.548662875811049500e-02
1.416106699999999989e+02 4.083733300000000099e+01 1.754103204017924134e-01
1.415323300000000017e+02 4.080933300000000230e+01 1.627387948269536644e-01
1.415413299999999879e+02 4.073033300000000168e+01 1.782085138278730330e-01
1.418673300000000097e+02 4.099633299999999991e+01 2.271762887603054892e-01
1.417829999999999870e+02 4.104033299999999684e+01 2.000308559265253638e-01
1.416990000000000123e+02 4.101666699999999821e+01 1.764788781750404323e-01
1.416949999999999932e+02 4.093666699999999992e+01 1.818278317769928543e-01
1.439586700000000121e+02 4.095966700000000316e+01 1.215574304521605115e-01
1.438360000000000127e+02 4.097266700000000128e+01 1.731223918787588301e-01
1.438000000000000114e+02 4.106099999999999994e+01 2.067592107977361537e-01
1.406693300000000022e+02 3.805700000000000216e+01 1.762245976072225884e-01
1.425523300000000120e+02 3.951733300000000071e+01 4.284425372998758030e-01
1.425956700000000126e+02 3.966466700000000145e+01 4.240788557304577822e-01
1.427079999999999984e+02 3.966466700000000145e+01 3.935219591970816055e-01
1.436529999999999916e+02 3.959033300000000111e+01 7.612254892634166825e-02
1.435469999999999970e+02 3.960533300000000168e+01 1.011524239773068934e-01
1.434970000000000141e+02 4.251133300000000048e+01 6.019557529990874345e-01
1.436020000000000039e+02 4.252300000000000324e+01 5.779568184718055779e-01
1.435703300000000127e+02 4.265333300000000349e+01 4.526362978993783703e-01
1.427690000000000055e+02 4.239999999999999858e+01 3.655699026745708458e-01
1.424219999999999970e+02 3.960566699999999685e+01 4.406417645741715350e-01
1.424199999999999875e+02 3.968399999999999750e+01 4.355563789535600305e-01
1.425276700000000005e+02 3.958800000000000097e+01 4.330597201113242645e-01
1.411980000000000075e+02 3.507300000000000040e+01 0.000000000000000000e+00
1.412940000000000111e+02 3.506166699999999992e+01 0.000000000000000000e+00
1.413453299999999899e+02 3.514000000000000057e+01 0.000000000000000000e+00
1.412966700000000060e+02 3.521733300000000355e+01 0.000000000000000000e+00
1.414233299999999929e+02 3.721566700000000338e+01 2.210492724160700861e-01
1.417173300000000040e+02 3.591633300000000162e+01 1.578531530930150639e-01
1.415320000000000107e+02 3.594733300000000042e+01 1.875523290393019959e-01
1.416246700000000089e+02 3.874733299999999758e+01 3.571078542817717194e-01
1.417150000000000034e+02 3.885566699999999685e+01 3.522282160437273379e-01
1.416466700000000003e+02 3.888133299999999792e+01 3.033374384991023853e-01
1.419796699999999987e+02 3.885199999999999676e+01 4.506433791222168583e-01
1.418303300000000036e+02 3.879999999999999716e+01 4.156985505507790335e-01
1.419790000000000134e+02 3.877300000000000324e+01 4.684003494389337718e-01
1.419029999999999916e+02 3.874799999999999756e+01 4.651497170832404882e-01
1.417620000000000005e+02 3.890599999999999881e+01 3.548740915883014102e-01
1.416169999999999902e+02 3.554800000000000182e+01 0.000000000000000000e+00
1.400003299999999911e+02 3.643433300000000230e+01 6.610217143812910923e-01
1.399703299999999899e+02 3.649966700000000230e+01 6.040134955577892706e-01
1.398336700000000121e+02 3.645466700000000060e+01 4.622180762090325468e-01
1.399000000000000057e+02 3.651733300000000071e+01 4.951519701409655139e-01
1.439859999999999900e+02 4.169800000000000040e+01 5.583102841013347639e-01
1.425483299999999929e+02 3.685600000000000165e+01 1.020882975042333440e-01
1.420579999999999927e+02 3.922833299999999923e+01 4.340491682551475550e-01
1.419300000000000068e+02 3.936099999999999710e+01 3.329269874930572692e-01
1.418566700000000083e+02 3.941799999999999926e+01 2.636990209410751129e-01
1.409216700000000060e+02 3.730700000000000216e+01 2.495857265353335908e-01
1.405703300000000127e+02 3.802066700000000310e+01 1.213656840604657866e-01
1.420169999999999959e+02 4.146166699999999850e+01 2.692803748675280384e-01
1.417936699999999917e+02 4.146333299999999866e+01 2.515964354390931024e-01
1.416289999999999907e+02 4.150166699999999764e+01 2.414084115373324457e-01
1.416819999999999879e+02 4.158200000000000074e+01 2.833039554384739755e-01
1.416876699999999971e+02 4.145000000000000284e+01 2.288990555968866691e-01
1.408573299999999904e+02 3.932333299999999809e+01 1.166366760604984730e-05
1.400999999999999943e+02 3.592600000000000193e+01 0.000000000000000000e+00
1.400733299999999986e+02 3.599900000000000233e+01 0.000000000000000000e+00
1.402090000000000032e+02 3.763100000000000023e+01 6.440036040324143712e-05
1.417476699999999994e+02 3.523433299999999946e+01 0.000000000000000000e+00
1.417936699999999917e+02 3.539933299999999861e+01 0.000000000000000000e+00
1.417719999999999914e+02 3.852733299999999872e+01 5.276355051369393534e-01
1.417170000000000130e+02 3.859533299999999656e+01 4.845332908090185797e-01
1.423966700000000003e+02 4.109133299999999878e+01 4.173430569543109536e-01
1.424596699999999885e+02 4.115966699999999889e+01 4.323294918484134608e-01
1.424360000000000070e+02 4.103733299999999673e+01 4.260972611482016781e-01
1.426553299999999922e+02 4.083266700000000071e+01 4.611043390387505325e-01
1.427286699999999939e+02 4.089633299999999849e+01 4.727783544788605186e-01
1.427263299999999902e+02 4.097966699999999918e+01 4.818323249932574548e-01
1.435386699999999962e+02 3.864699999999999847e+01 4.091197456108640329e-02
1.428509999999999991e+02 3.846466699999999861e+01 2.602993922441282360e-01
1.429423299999999983e+02 3.859766700000000128e+01 2.278235322634963866e-01
1.428226699999999880e+02 3.860533300000000168e+01 2.780940389316765571e-01
1.461726700000000108e+02 4.244800000000000040e+01 2.247561919583682954e-01
1.460840000000000032e+02 4.249699999999999989e+01 2.971333925190958736e-01
1.462870000000000061e+02 4.249699999999999989e+01 2.178963890127748049e-01
1.461020000000000039e+02 4.258066699999999827e+01 3.383240711807151135e-01
1.458269999999999982e+02 4.265433300000000116e+01 4.902617545708531921e-01
1.437386700000000133e+02 4.177100000000000080e+01 6.679619598721390217e-01
1.438580000000000041e+02 4.164800000000000324e+01 5.527389109196226835e-01
1.435606699999999876e+02 4.194266700000000014e+01 7.445874749124279379e-01
1.436236700000000042e+02 4.201266700000000043e+01 7.669843306069830113e-01
1.437836700000000008e+02 4.189733300000000327e+01 7.452522666824896724e-01
1.449250000000000114e+02 4.210566699999999685e+01 6.059107507508669777e-01
1.447110000000000127e+02 4.209533299999999656e+01 7.065147228615380470e-01
1.457476699999999994e+02 4.224633299999999991e+01 2.702468248386284966e-01
1.456416700000000048e+02 4.228533300000000139e+01 3.784918820588776822e-01
1.410896700000000124e+02 3.533733300000000099e+01 0.000000000000000000e+00
1.411779999999999973e+02 3.531733299999999787e+01 0.000000000000000000e+00
1.410503300000000024e+02 3.542699999999999960e+01 0.000000000000000000e+00
1.422949999999999875e+02 3.854933299999999718e+01 4.960361824301699474e-01
1.423856700000000046e+02 3.853966700000000145e+01 4.613112312240262303e-01
1.422566700000000139e+02 3.869100000000000250e+01 4.792273291172345351e-01
1.422379999999999995e+02 3.860999999999999943e+01 4.988519671204062478e-01
1.424550000000000125e+02 3.859300000000000352e+01 4.233759522420557642e-01
1.423123300000000029e+02 3.746133300000000332e+01 2.929044214430469584e-01
1.422580000000000098e+02 4.045600000000000307e+01 3.627146733501646070e-01
1.444610000000000127e+02 4.141533299999999684e+01 1.458078453490858073e-01
1.444370000000000118e+02 4.133599999999999852e+01 1.181972463893836145e-01
1.442280000000000086e+02 4.109366700000000350e+01 9.539123928171744371e-02
1.441853299999999933e+02 4.116400000000000148e+01 1.362467057361494982e-01
1.442266700000000128e+02 4.123766700000000185e+01 1.533274953769856730e-01
1.400733299999999986e+02 3.645333300000000065e+01 6.645640994385306755e-01
1.401533300000000111e+02 3.657999999999999829e+01 6.639182802203997813e-01
1.400863300000000038e+02 3.653033299999999883e+01 6.626902240190787330e-01
1.407270000000000039e+02 3.658766700000000327e+01 0.000000000000000000e+00
1.408859999999999957e+02 3.624133299999999736e+01 4.486913883855519342e-02
1.404283299999999883e+02 3.615666699999999878e+01 0.000000000000000000e+00
1.410320000000000107e+02 3.789366700000000066e+01 2.033714923486868997e-01
1.413843300000000056e+02 3.773033300000000168e+01 2.143614371111500216e-01
1.413076700000000017e+02 3.777033300000000082e+01 2.315884981403136811e-01
1.429453300000000127e+02 4.269833299999999809e+01 0.000000000000000000e+00
1.425490000000000066e+02 4.264966700000000088e+01 0.000000000000000000e+00
1.426020000000000039e+02 4.271966700000000117e+01 0.000000000000000000e+00
1.426930000000000121e+02 4.272266700000000128e+01 0.000000000000000000e+00
1.420863300000000038e+02 4.253833300000000150e+01 0.000000000000000000e+00
1.421733299999999929e+02 4.253166699999999878e+01 0.000000000000000000e+00
1.444836699999999894e+02 4.096966700000000117e+01 2.423441399484225784e-03
1.446959999999999980e+02 4.112233299999999758e+01 4.080305061436132358e-06
1.445773299999999892e+02 4.109599999999999653e+01 3.626031168946758972e-03
1.452333299999999952e+02 4.265433300000000116e+01 6.834367901752923524e-01
1.452813299999999970e+02 4.273100000000000165e+01 6.437014406132788302e-01
1.451276699999999948e+02 4.267499999999999716e+01 6.691950145078213730e-01
1.448226699999999880e+02 4.256266699999999759e+01 7.147529488881601001e-01
1.449060000000000059e+02 4.251266700000000043e+01 7.747713538759309904e-01
1.450453300000000070e+02 4.263100000000000023e+01 7.044366640857545603e-01
1.448303300000000036e+02 4.263733299999999815e+01 6.472321626570085584e-01
1.447456699999999898e+02 4.313400000000000034e+01 8.848045230563802988e-02
1.451189999999999998e+02 4.299366700000000208e+01 3.791822464640913770e-01
1.450216700000000003e+02 4.303233300000000128e+01 3.009591350580189117e-01
1.451430000000000007e+02 4.313766700000000043e+01 2.346616430788936725e-01
1.449240000000000066e+02 4.299300000000000210e+01 3.084798331447364816e-01
1.449263300000000072e+02 4.291799999999999926e+01 3.814629030713282964e-01
1.451140000000000043e+02 4.291700000000000159e+01 4.518477868168819800e-01
1.450190000000000055e+02 4.288066700000000253e+01 4.620976784368509005e-01
1.420756700000000023e+02 4.119800000000000040e+01 2.825682396470868829e-01
1.421440000000000055e+02 4.114966700000000088e+01 3.196609868328339488e-01
1.402069999999999936e+02 3.699900000000000233e+01 4.957815632587340704e-01
1.402716700000000003e+02 3.695466700000000060e+01 6.085721214419611558e-01
1.462643300000000011e+02 4.299266699999999730e+01 4.084067485098484274e-01
1.434813300000000140e+02 3.772299999999999898e+01 6.111229353644390822e-03
1.435723299999999938e+02 3.768866700000000236e+01 6.584920766215915551e-04
1.463259999999999934e+02 4.278600000000000136e+01 3.613226953750937609e-01
1.427170000000000130e+02 3.635933299999999946e+01 1.510663326637581112e-03
1.427186700000000030e+02 3.628499999999999659e+01 2.221744307401348419e-05
1.430533299999999883e+02 3.952799999999999869e+01 2.527378682354655681e-01
1.431496699999999862e+02 3.957300000000000040e+01 2.231941758457807734e-01
1.433126699999999971e+02 4.097633299999999679e+01 3.721193727169113119e-01
1.434206700000000012e+02 4.095533300000000310e+01 3.193978165763777244e-01
1.464906699999999944e+02 4.246966700000000117e+01 1.539388146487019604e-01
1.465219999999999914e+02 4.253900000000000148e+01 1.875140883291072091e-01
1.438776699999999948e+02 3.899966700000000230e+01 5.860890561913241308e-03
1.437663300000000106e+02 3.900633299999999792e+01 1.855830050221903352e-02
1.417663300000000106e+02 3.629833299999999952e+01 2.424026055064687490e-01
1.417346699999999942e+02 3.622133300000000133e+01 2.323012372576202800e-01
1.427210000000000036e+02 3.653099999999999881e+01 1.167379615395736613e-02
1.428206700000000069e+02 3.648299999999999699e+01 7.756704808483106100e-04
1.436810000000000116e+02 3.893433300000000230e+01 2.747599757194332457e-02
1.437053300000000036e+02 3.885000000000000142e+01 2.229287106092467732e-02
1.415863300000000038e+02 3.987266699999999986e+01 0.000000000000000000e+00
1.416266699999999901e+02 3.979833299999999952e+01 0.000000000000000000e+00
1.418876700000000142e+02 4.239366700000000066e+01 0.000000000000000000e+00
1.417940000000000111e+02 4.238533300000000281e+01 0.000000000000000000e+00
1.437856700000000103e+02 4.014500000000000313e+01 7.312928219365268101e-02
1.438720000000000141e+02 4.010366700000000151e+01 4.473809117638743310e-02
1.415133299999999963e+02 3.567766699999999958e+01 4.996843676813918222e-02
1.433420000000000130e+02 3.811899999999999977e+01 5.775787648449469402e-02
1.434166700000000105e+02 3.807800000000000296e+01 3.451258761637349126e-02
1.438969999999999914e+02 4.078699999999999903e+01 1.051770988291516884e-01
1.437796700000000101e+02 4.080599999999999739e+01 1.539085123122187482e-01
1.427756699999999910e+02 3.718399999999999750e+01 9.859165618339116310e-02
1.428509999999999991e+02 4.229466699999999690e+01 4.263349931360209677e-01
1.427556700000000092e+02 4.231733299999999787e+01 3.785688257000791035e-01
1.421723299999999881e+02 4.134633300000000133e+01 3.075214774125050732e-01
1.420836700000000121e+02 4.128733299999999673e+01 2.780260655990225982e-01
1.405946700000000078e+02 3.630533299999999741e+01 0.000000000000000000e+00
1.405269999999999868e+02 3.633899999999999864e+01 0.000000000000000000e+00
1.421026699999999892e+02 3.894366699999999781e+01 4.459020470254854707e-01
1.438023300000000120e+02 3.985666700000000162e+01 4.996738548452511058e-02
1.437199999999999989e+02 3.980933300000000230e+01 6.778237633739023216e-02
1.456963299999999890e+02 4.261433300000000202e+01 5.435285162830180150e-01
1.456706700000000012e+02 4.253533300000000139e+01 5.247276202625994479e-01
1.432386700000000133e+02 3.718066699999999969e+01 5.346666898852004898e-03
1.448213299999999890e+02 4.302000000000000313e+01 2.288097394869757495e-01
1.448286699999999882e+02 4.308966699999999861e+01 1.611813149279155699e-01
1.413883299999999963e+02 3.669966699999999804e+01 2.069763470861223920e-01
1.413400000000000034e+02 3.675833300000000037e+01 1.737243323677218065e-01
1.419916699999999992e+02 3.808466700000000316e+01 5.256850193052433617e-01
1.419746700000000033e+02 3.800800000000000267e+01 4.833959642533472989e-01
1.433466699999999889e+02 4.267399999999999949e+01 3.711885513709523021e-01
1.460863300000000038e+02 4.216499999999999915e+01 9.539049757855415368e-02
1.461436699999999860e+02 4.222333299999999667e+01 1.133023656138673896e-01
1.415049999999999955e+02 3.885399999999999920e+01 2.115700157574299523e-01
1.415886700000000076e+02 3.883033300000000310e+01 2.930276946586515274e-01
1.413779999999999859e+02 4.072266700000000128e+01 1.142190784757419475e-01
1.413626700000000085e+02 4.080199999999999960e+01 9.240932383222329183e-02
1.402923299999999927e+02 3.773866699999999952e+01 0.000000000000000000e+00
1.402870000000000061e+02 3.765999999999999659e+01 1.112355076307818685e-02
1.431836700000000064e+02 3.856400000000000006e+01 1.353301702380748928e-01
1.431916699999999878e+02 3.864699999999999847e+01 1.365041036071174552e-01
1.431053300000000092e+02 3.869866700000000037e+01 1.739845519355066317e-01
1.431143299999999954e+02 3.878466699999999889e+01 1.780417703573063393e-01
1.454170000000000016e+02 4.204733300000000185e+01 2.926718437547464746e-01
1.455196699999999908e+02 4.203066700000000111e+01 2.162423640853139151e-01
1.440446699999999964e+02 4.225366700000000009e+01 7.682379701927771753e-01
1.440986699999999985e+02 4.232233300000000042e+01 7.150172209500400555e-01
1.444480000000000075e+02 4.083066699999999827e+01 1.199936622002161987e-03
