1.329923300000000097e+02 3.269500000000000028e+01 8.403023879824973452e-01
1.322646699999999953e+02 3.211166699999999707e+01 5.905225516104055661e-01
1.323156700000000114e+02 3.217799999999999727e+01 6.143768179778184013e-01
1.339423299999999983e+02 3.273633300000000190e+01 5.418387216687345909e-01
1.381116700000000037e+02 3.452133299999999849e+01 1.729039284201888960e-01
1.382006700000000023e+02 3.455599999999999739e+01 1.257015631045323434e-01
1.380603299999999933e+02 3.457999999999999829e+01 1.341294358557186261e-01
1.333290000000000077e+02 3.296033299999999855e+01 8.254354596753379347e-01
1.332293300000000045e+02 3.298899999999999721e+01 8.426898896476331391e-01
1.332256700000000080e+02 3.306633300000000020e+01 8.420294563283388101e-01
1.322126700000000028e+02 3.139133299999999949e+01 1.798623641250887140e-01
1.321716700000000060e+02 3.145466700000000060e+01 2.123686388172663364e-01
1.323000000000000114e+02 3.141300000000000026e+01 1.792923746837596366e-01
1.317136700000000076e+02 3.061366699999999952e+01 0.000000000000000000e+00
1.317990000000000066e+02 3.057833300000000065e+01 0.000000000000000000e+00
1.339346700000000112e+02 3.266733299999999929e+01 4.876230380433836387e-01
1.339643299999999897e+02 3.253799999999999670e+01 3.455120095315860063e-01
1.372829999999999870e+02 3.414666700000000077e+01 3.417574677827123208e-01
1.373290000000000077e+02 3.421966700000000117e+01 2.828695773545053527e-01
1.317223299999999995e+02 3.154366699999999923e+01 2.668177360478551363e-01
1.317563299999999913e+02 3.147200000000000131e+01 2.444243059236574922e-01
1.318136700000000019e+02 3.102633300000000105e+01 0.000000000000000000e+00
1.334436699999999973e+02 3.205633300000000219e+01 1.485961288394882229e-01
1.333009999999999877e+02 3.218999999999999773e+01 3.362211037566343874e-01
1.330846699999999885e+02 3.278766699999999901e+01 8.395616353526326181e-01
1.329799999999999898e+02 3.283433300000000088e+01 8.804072554749360346e-01
1.329279999999999973e+02 3.277600000000000335e+01 8.812988946342704688e-01
1.323233299999999986e+02 3.202700000000000102e+01 5.288557552544641549e-01
1.324279999999999973e+02 3.202466700000000088e+01 5.087265441031911806e-01
1.324216700000000060e+02 3.216566699999999912e+01 6.007923371314344285e-01
1.324753300000000138e+02 3.209700000000000131e+01 5.464945259951823342e-01
1.346963299999999890e+02 3.332500000000000284e+01 4.786128976965626780e-01
1.346983299999999986e+02 3.325000000000000000e+01 4.544137120368509364e-01
1.323543300000000045e+02 3.236566700000000196e+01 6.877089038560921797e-01
1.322456699999999898e+02 3.241566699999999912e+01 6.666434174092308318e-01
1.323723300000000052e+02 3.229566700000000168e+01 6.639105901146432620e-01
1.322883300000000020e+02 3.225399999999999778e+01 6.363684280637296187e-01
1.322199999999999989e+02 3.228466699999999889e+01 6.342882256428135079e-01
1.321953300000000127e+02 3.237633300000000247e+01 6.403853078508469077e-01
1.339116699999999867e+02 3.289566700000000310e+01 7.161739049874024099e-01
1.371469999999999914e+02 3.379599999999999937e+01 2.674175506362121979e-01
1.371703300000000070e+02 3.387100000000000222e+01 2.883565036936385773e-01
1.376399999999999864e+02 3.448799999999999955e+01 1.765632247404064215e-01
1.377386700000000133e+02 3.449666700000000219e+01 1.855007187765621846e-01
1.338466699999999889e+02 3.276866700000000066e+01 6.054876238845791070e-01
1.338333299999999895e+02 3.284366700000000350e+01 6.660540050519897504e-01
1.333486699999999985e+02 3.201500000000000057e+01 1.491475080392112573e-01
1.343343299999999942e+02 3.357266700000000270e+01 5.187137559957586408e-01
1.344306699999999921e+02 3.358700000000000330e+01 4.497305273585788798e-01
1.374373300000000029e+02 3.436233299999999957e+01 2.234700745892795049e-01
1.374910000000000139e+02 3.442166699999999935e+01 2.017888722268081914e-01
1.373676700000000039e+02 3.439666700000000077e+01 2.337998761078020626e-01
1.344023300000000063e+02 3.310300000000000153e+01 6.243862971463686184e-01
1.343356699999999933e+02 3.316666699999999679e+01 7.455281749779882894e-01
1.341156699999999944e+02 3.277333300000000094e+01 5.177056673806688103e-01
1.340183299999999917e+02 3.277600000000000335e+01 5.831764905784296849e-01
1.371220000000000141e+02 3.449733299999999758e+01 3.220919482735513095e-01
1.372079999999999984e+02 3.449499999999999744e+01 2.792935936952185561e-01
1.371093299999999999e+02 3.442499999999999716e+01 3.881460413652575991e-01
1.372353300000000047e+02 3.442166699999999935e+01 2.962099579285283890e-01
1.371743299999999977e+02 3.438400000000000034e+01 3.698465190078086828e-01
1.373859999999999957e+02 3.447466699999999662e+01 1.987791329347572133e-01
1.374650000000000034e+02 3.447933299999999690e+01 1.775254582077836207e-01
1.365229999999999961e+02 3.388233300000000270e+01 7.153243894462593122e-01
1.365219999999999914e+02 3.379399999999999693e+01 6.933452742278018999e-01
1.363396700000000124e+02 3.378566699999999656e+01 7.913233879606228482e-01
1.364279999999999973e+02 3.375033299999999770e+01 7.240600964522498906e-01
1.341409999999999911e+02 3.322066699999999884e+01 9.086732868470085434e-01
1.340363299999999924e+02 3.322733300000000156e+01 9.095822630582031110e-01
1.328830000000000098e+02 3.222399999999999665e+01 5.460181904953269605e-01
1.329126699999999914e+02 3.229566700000000168e+01 5.954326823608974140e-01
1.325483299999999929e+02 3.225466699999999776e+01 6.467182755484653933e-01
1.324596699999999885e+02 3.223933300000000202e+01 6.354802089087659978e-01
1.341049999999999898e+02 3.262866700000000009e+01 3.649584185032936356e-01
1.340113299999999867e+02 3.260900000000000176e+01 3.945247761708723377e-01
1.359503300000000081e+02 3.316133299999999906e+01 3.797738029425988260e-01
1.358616700000000037e+02 3.317166699999999935e+01 4.544734910043387588e-01
1.319526700000000119e+02 3.171000000000000085e+01 3.962662220796430157e-01
1.318586699999999894e+02 3.172666699999999906e+01 4.202227025578856301e-01
1.341216699999999946e+02 3.244833299999999809e+01 1.802700692798073767e-01
1.340219999999999914e+02 3.245766700000000071e+01 2.459871327922683315e-01
1.339566700000000026e+02 3.239500000000000313e+01 2.061654552063064971e-01
1.383526699999999892e+02 3.467199999999999704e+01 0.000000000000000000e+00
1.384263300000000072e+02 3.472399999999999665e+01 0.000000000000000000e+00
1.323166699999999878e+02 3.115500000000000114e+01 5.371157565831867486e-02
1.320786699999999882e+02 3.202199999999999847e+01 5.929360859424750441e-01
1.321750000000000114e+02 3.124299999999999855e+01 1.094986591889794830e-01
1.322906700000000058e+02 3.123066700000000040e+01 7.627446124264808391e-02
1.321526700000000005e+02 3.210733299999999701e+01 6.158750643282505655e-01
1.321003300000000138e+02 3.217999999999999972e+01 6.178155883528331227e-01
1.382090000000000032e+02 3.483833299999999866e+01 0.000000000000000000e+00
1.381953300000000127e+02 3.476566700000000054e+01 0.000000000000000000e+00
1.350099999999999909e+02 3.332466699999999804e+01 4.815169690119837642e-01
1.350286700000000053e+02 3.340400000000000347e+01 5.321939504118329278e-01
1.341800000000000068e+02 3.305166700000000191e+01 7.915663098552403465e-01
1.342106699999999933e+02 3.314600000000000080e+01 8.569944473350818992e-01
1.330569999999999879e+02 3.216533299999999684e+01 4.248150234764676014e-01
1.331123299999999858e+02 3.209566699999999884e+01 3.400598317913176571e-01
1.323429999999999893e+02 3.249466699999999975e+01 7.393799552392535945e-01
1.323873299999999915e+02 3.255299999999999727e+01 7.757666346134375335e-01
1.328629999999999995e+02 3.297433300000000145e+01 8.706727717469442407e-01
1.336833300000000122e+02 3.252100000000000080e+01 4.262284266293595025e-01
1.321759999999999877e+02 3.075233300000000014e+01 0.000000000000000000e+00
1.321220000000000141e+02 3.079833299999999952e+01 0.000000000000000000e+00
1.372703300000000013e+02 3.387800000000000011e+01 2.407242810761406060e-01
1.373139999999999930e+02 3.394700000000000273e+01 2.555798048538733824e-01
1.347973299999999881e+02 3.336033299999999713e+01 4.742503536656995089e-01
1.347873299999999972e+02 3.342900000000000205e+01 4.877287872874441765e-01
1.334893299999999954e+02 3.212333300000000236e+01 1.917463849368650219e-01
1.334240000000000066e+02 3.219666699999999793e+01 2.754440774091238553e-01
1.345923300000000040e+02 3.312899999999999778e+01 4.597970020851191442e-01
1.345149999999999864e+02 3.308466700000000316e+01 4.879312989521986665e-01
1.345843299999999942e+02 3.322066699999999884e+01 5.025940563845623377e-01
1.344956699999999898e+02 3.327633300000000105e+01 6.000986044824541121e-01
1.343803299999999865e+02 3.325666700000000020e+01 7.387301544087953031e-01
1.323799999999999955e+02 3.137633299999999892e+01 1.335716839349798124e-01
1.323873299999999915e+02 3.129700000000000060e+01 1.015223082821738038e-01
1.384290000000000020e+02 3.504899999999999949e+01 3.525332852771926873e-01
1.384410000000000025e+02 3.497666699999999906e+01 2.931956947495076848e-01
1.340780000000000030e+02 3.290933299999999662e+01 6.851334712577075159e-01
1.341570000000000107e+02 3.285966700000000174e+01 5.889018691034976216e-01
1.340010000000000048e+02 3.286033299999999713e+01 6.514686751641246554e-01
1.381163300000000049e+02 3.464266700000000299e+01 7.624301751929407622e-02
1.381970000000000027e+02 3.462666699999999764e+01 6.117355993943680154e-02
1.368110000000000070e+02 3.402233300000000327e+01 5.837858066838803595e-01
1.368186699999999973e+02 3.393433300000000230e+01 5.516924382619795564e-01
1.322136700000000076e+02 3.190866700000000122e+01 4.875710539769469998e-01
1.321153300000000002e+02 3.193199999999999861e+01 5.495123581688632353e-01
1.370699999999999932e+02 3.392799999999999727e+01 3.776413049300954006e-01
1.370696700000000021e+02 3.400566700000000253e+01 4.134643134056789626e-01
1.318416699999999935e+02 3.085133300000000034e+01 0.000000000000000000e+00
1.317753299999999967e+02 3.092966699999999847e+01 0.000000000000000000e+00
1.338050000000000068e+02 3.302700000000000102e+01 8.272866640214117107e-01
1.338966700000000003e+02 3.298866699999999952e+01 7.913767535733796654e-01
1.357800000000000011e+02 3.343433300000000230e+01 8.783713708928371222e-01
1.356773300000000120e+02 3.342600000000000193e+01 8.600312757706640721e-01
1.330423299999999927e+02 3.299000000000000199e+01 8.647634782541561149e-01
1.329516700000000071e+02 3.293900000000000006e+01 8.857967083033575495e-01
1.322143299999999897e+02 3.093233299999999986e+01 0.000000000000000000e+00
1.321310000000000002e+02 3.089133299999999949e+01 0.000000000000000000e+00
1.343689999999999998e+02 3.342333299999999952e+01 6.742963848928451576e-01
1.344633300000000133e+02 3.341766700000000156e+01 5.876260652551732466e-01
1.369933299999999861e+02 3.387733300000000014e+01 3.838030827851675597e-01
1.369019999999999868e+02 3.387800000000000011e+01 4.599279442326638101e-01
1.319089999999999918e+02 3.187300000000000111e+01 5.224980348519439044e-01
1.318756700000000137e+02 3.194333299999999909e+01 5.432455150706048119e-01
1.335993300000000090e+02 3.260133299999999679e+01 5.401933812689272418e-01
1.336333300000000008e+02 3.268633299999999764e+01 6.030802116989477657e-01
1.372663300000000106e+02 3.401466700000000287e+01 3.062853991615774318e-01
1.332623299999999915e+02 3.202199999999999847e+01 2.106389631413600194e-01
1.332326700000000130e+02 3.210266699999999673e+01 2.772645965278625613e-01
1.333056699999999921e+02 3.312966699999999776e+01 8.416048340034848474e-01
1.334120000000000061e+02 3.311466699999999719e+01 8.587689894049618244e-01
1.332446700000000135e+02 3.234333300000000122e+01 5.027431008522718070e-01
1.332213299999999947e+02 3.226333300000000293e+01 4.484897023668393823e-01
1.336270000000000095e+02 3.310933299999999946e+01 8.534994060366666302e-01
1.336333300000000008e+02 3.302233300000000327e+01 8.266098417702809620e-01
1.341376700000000142e+02 3.350566700000000253e+01 6.006395272727740320e-01
1.342030000000000030e+02 3.346966700000000117e+01 6.762241296139668290e-01
1.383810000000000002e+02 3.543766699999999759e+01 1.561506814646531054e-03
1.322766699999999958e+02 3.300633299999999792e+01 5.317172356639681130e-01
1.321036699999999939e+02 3.278566699999999656e+01 4.326345688759420938e-01
1.382589999999999861e+02 3.527433299999999861e+01 3.847963604110317126e-01
1.361459999999999866e+02 3.408800000000000097e+01 6.374859365018284985e-01
1.384073300000000017e+02 3.530933300000000230e+01 9.631471164656414674e-02
1.382593300000000056e+02 3.534799999999999898e+01 3.373388289078815272e-01
1.383580000000000041e+02 3.536699999999999733e+01 8.251118798558558509e-02
1.383473299999999995e+02 3.524866699999999753e+01 2.456411502510858769e-01
1.383696700000000135e+02 3.518866700000000236e+01 2.674980731153591695e-01
1.321823300000000074e+02 3.282133300000000276e+01 5.191657112664357365e-01
1.323369999999999891e+02 3.290433300000000116e+01 6.579379689765646466e-01
1.380260000000000105e+02 3.516333300000000150e+01 5.417958056930950450e-01
1.381339999999999861e+02 3.504666699999999935e+01 4.265568621778194625e-01
1.352570000000000050e+02 3.378366700000000122e+01 4.829596555290330273e-01
1.354286700000000110e+02 3.375033299999999770e+01 6.375262790088326303e-01
1.353303300000000036e+02 3.371866700000000350e+01 6.245962176918790076e-01
1.324426699999999926e+02 3.282833300000000065e+01 7.769104059761900993e-01
1.323566700000000083e+02 3.283533299999999855e+01 7.003696245911993357e-01
1.327203299999999899e+02 3.299033299999999969e+01 8.422717687172267542e-01
1.366163300000000049e+02 3.463166700000000020e+01 4.409847499634804158e-01
1.375430000000000064e+02 3.470700000000000074e+01 0.000000000000000000e+00
1.321833300000000122e+02 3.290699999999999648e+01 4.834065654467274431e-01
1.322630000000000052e+02 3.293566700000000225e+01 5.565832070471322668e-01
1.363316700000000026e+02 3.388066700000000253e+01 8.004895414573267587e-01
1.353083300000000122e+02 3.363900000000000290e+01 6.821252895914096115e-01
1.353629999999999995e+02 3.356566699999999770e+01 7.392292041555017512e-01
1.352123300000000086e+02 3.361333299999999724e+01 6.463939304606786118e-01
1.352129999999999939e+02 3.353433299999999662e+01 6.514584625570133403e-01
1.352976700000000108e+02 3.350366700000000009e+01 6.880216480181615690e-01
1.351373299999999915e+02 3.350533300000000025e+01 6.113306505600036855e-01
1.354490000000000123e+02 3.354533299999999940e+01 8.186127879855314982e-01
1.315103300000000104e+02 3.115200000000000102e+01 0.000000000000000000e+00
1.316006700000000080e+02 3.144333299999999909e+01 0.000000000000000000e+00
1.357723300000000108e+02 3.381666700000000247e+01 7.363520662210367718e-01
1.335089999999999861e+02 3.381566699999999770e+01 2.667908500729002652e-01
1.334773299999999949e+02 3.373966699999999719e+01 3.338008445446832839e-01
1.328700000000000045e+02 3.306933300000000031e+01 8.358880765983457417e-01
1.364209999999999923e+02 3.393366699999999980e+01 7.534894033704176985e-01
1.337323299999999904e+02 3.374533300000000224e+01 3.335353438489325195e-01
1.337350000000000136e+02 3.365100000000000335e+01 4.533189652516043111e-01
1.338040000000000020e+02 3.360000000000000142e+01 5.091213412810171590e-01
1.315000000000000000e+02 3.154266700000000156e+01 0.000000000000000000e+00
1.337489999999999952e+02 3.391899999999999693e+01 1.031591900969134334e-01
1.338303300000000036e+02 3.389000000000000057e+01 1.281722352125952424e-01
1.339263300000000072e+02 3.393266700000000213e+01 7.633201890036632464e-02
1.313290000000000077e+02 3.118400000000000105e+01 0.000000000000000000e+00
1.336516699999999958e+02 3.377199999999999847e+01 3.062866791236092956e-01
1.335623300000000029e+02 3.370466700000000060e+01 4.051278394247674330e-01
1.360300000000000011e+02 3.373066699999999685e+01 8.779688939428200722e-01
1.359300000000000068e+02 3.373533299999999713e+01 8.724220531904813836e-01
1.358836699999999951e+02 3.365933299999999662e+01 9.005917149344412342e-01
1.359223299999999881e+02 3.387733300000000014e+01 7.199330654352484871e-01
1.358783300000000054e+02 3.380733299999999986e+01 7.869473399917092937e-01
1.356043300000000045e+02 3.356066700000000225e+01 8.847868927553674823e-01
1.355086699999999951e+02 3.359866699999999895e+01 8.388037488394840535e-01
1.335586700000000064e+02 3.361999999999999744e+01 5.100904012125642151e-01
1.336506699999999910e+02 3.359300000000000352e+01 5.644923091551214966e-01
1.335553299999999979e+02 3.331766700000000014e+01 8.370017112889196476e-01
1.327943300000000022e+02 3.307200000000000273e+01 7.945212613544991864e-01
1.356226699999999994e+02 3.377033300000000082e+01 7.345127810981165739e-01
1.336479999999999961e+02 3.350900000000000034e+01 6.570444200326113204e-01
1.335689999999999884e+02 3.344800000000000040e+01 7.480138747884252926e-01
1.337283299999999997e+02 3.349033299999999969e+01 6.899713891238307140e-01
1.337556700000000092e+02 3.342300000000000182e+01 7.563249594695620193e-01
1.361353300000000104e+02 3.400500000000000256e+01 6.943040267402352805e-01
1.371953300000000127e+02 3.497033299999999656e+01 0.000000000000000000e+00
1.333813299999999913e+02 3.371900000000000119e+01 3.707280335997482634e-01
1.336496699999999862e+02 3.388799999999999812e+01 1.649307740323198990e-01
1.336116700000000037e+02 3.383233299999999844e+01 2.376802333838071712e-01
1.339629999999999939e+02 3.349933300000000003e+01 5.992303838877024447e-01
1.315063299999999913e+02 3.072100000000000009e+01 0.000000000000000000e+00
1.325339999999999918e+02 3.318433300000000230e+01 5.898492915816490045e-01
1.351253299999999911e+02 3.366166700000000134e+01 5.650718542918311549e-01
1.357253300000000138e+02 3.375166699999999764e+01 7.960691350158807245e-01
1.356503299999999967e+02 3.361933299999999747e+01 8.863192578820773271e-01
1.338530000000000086e+02 3.342033299999999940e+01 7.528846382410802063e-01
1.338743299999999863e+02 3.347933299999999690e+01 6.816085641785492033e-01
1.338000000000000114e+02 3.352333300000000094e+01 6.121643663581822770e-01
1.360469999999999970e+02 3.397233299999999900e+01 6.887063938437754107e-01
1.360250000000000057e+02 3.388833300000000293e+01 7.607614839514093008e-01
1.362433299999999861e+02 3.389166699999999821e+01 8.189163895616590194e-01
1.362296699999999987e+02 3.397466699999999662e+01 7.637149455477739712e-01
1.355869999999999891e+02 3.370600000000000307e+01 8.007920594677132575e-01
1.354986700000000042e+02 3.369566700000000026e+01 7.761806921723142239e-01
1.368940000000000055e+02 3.430966699999999747e+01 5.223393872828525630e-01
1.337083299999999895e+02 3.337033300000000224e+01 8.169312971236813992e-01
1.336020000000000039e+02 3.337666699999999764e+01 8.068112671603798747e-01
1.326303299999999865e+02 3.320233300000000298e+01 5.868704000517944719e-01
1.326396699999999953e+02 3.327033300000000082e+01 5.223363058927757985e-01
1.327709999999999866e+02 3.314433300000000315e+01 7.183511271758762362e-01
1.326829999999999927e+02 3.314266700000000299e+01 6.758235624485687820e-01
1.362416699999999992e+02 3.411066699999999940e+01 6.461253619194229358e-01
1.362993299999999977e+02 3.404699999999999704e+01 7.121870602881755774e-01
1.314749999999999943e+02 3.123466700000000174e+01 0.000000000000000000e+00
1.313849999999999909e+02 3.125033300000000125e+01 0.000000000000000000e+00
1.314536699999999882e+02 3.107733299999999943e+01 0.000000000000000000e+00
1.333290000000000077e+02 3.363866699999999810e+01 4.688602845592627077e-01
1.362513299999999958e+02 3.418533299999999997e+01 5.966898421061862523e-01
1.315376699999999914e+02 3.130199999999999960e+01 0.000000000000000000e+00
1.315333300000000065e+02 3.139266699999999943e+01 0.000000000000000000e+00
1.313706699999999898e+02 3.132833300000000065e+01 0.000000000000000000e+00
1.364906699999999944e+02 3.449799999999999756e+01 4.625066072114144000e-01
1.364106700000000103e+02 3.443699999999999761e+01 4.765342258122560737e-01
1.365840000000000032e+02 3.436666699999999963e+01 5.386679035569602592e-01
1.314986700000000042e+02 3.100933300000000159e+01 0.000000000000000000e+00
1.313146700000000067e+02 3.095233299999999943e+01 0.000000000000000000e+00
1.332263299999999902e+02 3.363900000000000290e+01 4.250006179710867915e-01
1.367110000000000127e+02 3.413400000000000034e+01 6.245502677321639329e-01
1.365883300000000133e+02 3.423733299999999957e+01 6.063789582910488196e-01
1.366169999999999902e+02 3.415533299999999883e+01 6.427952257822548976e-01
1.367433299999999861e+02 3.431499999999999773e+01 5.473997977659990077e-01
1.366510000000000105e+02 3.430133299999999963e+01 5.679274428126169783e-01
1.367916700000000105e+02 3.419266700000000014e+01 5.764545566411304334e-01
1.368079999999999927e+02 3.426566700000000054e+01 5.565930133170906569e-01
1.373783300000000054e+02 3.468366699999999980e+01 6.411373498812784899e-02
1.343870000000000005e+02 3.402633300000000105e+01 1.027131673486697122e-01
1.343300000000000125e+02 3.397366699999999895e+01 1.311766582602282016e-01
1.370373299999999972e+02 3.499499999999999744e+01 1.901530353757802660e-01
1.364410000000000025e+02 3.399166699999999963e+01 7.349262968741228086e-01
1.363783300000000054e+02 3.404766699999999702e+01 7.114668954073946061e-01
1.326100000000000136e+02 3.307500000000000284e+01 7.310451675575270203e-01
1.366226699999999994e+02 3.443266700000000213e+01 5.071995087654712631e-01
1.365746699999999976e+02 3.449966700000000230e+01 4.779144109028926612e-01
1.364143300000000067e+02 3.420366700000000293e+01 6.246572630768268963e-01
1.381210000000000093e+02 3.490633299999999650e+01 4.755601002108687109e-02
1.380146699999999953e+02 3.488733299999999815e+01 0.000000000000000000e+00
1.346649999999999920e+02 3.399666700000000219e+01 1.169727841469997837e-01
1.357456699999999898e+02 3.359833299999999667e+01 9.138112847006002459e-01
1.357849999999999966e+02 3.366633300000000162e+01 8.932559071432920605e-01
1.373956699999999955e+02 3.495333300000000065e+01 0.000000000000000000e+00
1.349300000000000068e+02 3.392333299999999952e+01 1.887966210085924579e-01
1.374496699999999976e+02 3.473899999999999721e+01 0.000000000000000000e+00
1.366523300000000063e+02 3.470499999999999829e+01 4.281344729465125232e-01
1.367183300000000088e+02 3.471766699999999872e+01 4.143139914816833524e-01
1.332873299999999972e+02 3.322933299999999690e+01 8.095050115931375911e-01
1.333316700000000026e+02 3.327133299999999849e+01 8.054380507519167676e-01
1.332593300000000056e+02 3.332633299999999821e+01 7.622025586644185502e-01
1.344953299999999956e+02 3.403000000000000114e+01 1.025283381223553031e-01
1.343866700000000094e+02 3.390200000000000102e+01 1.812611052790442379e-01
1.348346699999999885e+02 3.396533300000000111e+01 1.372846912545341302e-01
1.347179999999999893e+02 3.385766699999999929e+01 2.269446229506131563e-01
1.347390000000000043e+02 3.394333300000000264e+01 1.632359959455678966e-01
1.370876700000000028e+02 3.496233300000000099e+01 1.655168882863360391e-01
1.369360000000000070e+02 3.500233300000000014e+01 2.350814025376974370e-01
1.346440000000000055e+02 3.381166699999999992e+01 2.687845026802337389e-01
1.345610000000000070e+02 3.383333300000000321e+01 2.466523879791112928e-01
1.346443299999999965e+02 3.373166700000000162e+01 3.164319223072527554e-01
1.365349999999999966e+02 3.409799999999999898e+01 6.851378732435313701e-01
1.365433299999999974e+02 3.402133299999999849e+01 6.973766805681378411e-01
1.364339999999999975e+02 3.412133299999999991e+01 6.740654702610979765e-01
1.325200000000000102e+02 3.310233300000000156e+01 6.425087919508402079e-01
1.324173299999999927e+02 3.295166700000000048e+01 6.865603918932215999e-01
1.324783299999999997e+02 3.291133299999999906e+01 7.698813150126746496e-01
1.325629999999999882e+02 3.291833299999999696e+01 8.328922882152134388e-01
1.326239999999999952e+02 3.299499999999999744e+01 8.047453136289611786e-01
1.320546699999999873e+02 3.242066700000000168e+01 5.615521889619460305e-01
1.318959999999999866e+02 3.243866700000000236e+01 3.706879281227500877e-01
1.314806700000000035e+02 3.144333299999999909e+01 0.000000000000000000e+00
1.314206700000000012e+02 3.140733300000000128e+01 0.000000000000000000e+00
1.334130000000000109e+02 3.326666699999999821e+01 8.317198023603176171e-01
1.334513300000000129e+02 3.332266700000000270e+01 8.189774755803223005e-01
1.366366700000000094e+02 3.457233300000000042e+01 4.577299446711015074e-01
1.367343299999999999e+02 3.455533299999999741e+01 4.655235928493600128e-01
1.364026700000000005e+02 3.437100000000000222e+01 5.073162291126619428e-01
1.364859999999999900e+02 3.433899999999999864e+01 5.552787361126658716e-01
1.364866700000000037e+02 3.426233299999999815e+01 5.895481957512981319e-01
1.363183300000000031e+02 3.432233300000000042e+01 5.153212945116109056e-01
1.363293299999999988e+02 3.423166700000000162e+01 5.750156219704603000e-01
1.378623299999999858e+02 3.506633300000000020e+01 0.000000000000000000e+00
1.379463299999999890e+02 3.493900000000000006e+01 0.000000000000000000e+00
1.379773299999999949e+02 3.482133300000000276e+01 0.000000000000000000e+00
1.378776699999999948e+02 3.478199999999999648e+01 0.000000000000000000e+00
1.314503300000000081e+02 3.094433300000000031e+01 0.000000000000000000e+00
1.313596699999999942e+02 3.091600000000000037e+01 0.000000000000000000e+00
1.313623299999999858e+02 3.109366699999999994e+01 0.000000000000000000e+00
1.313153299999999888e+02 3.104266700000000156e+01 0.000000000000000000e+00
1.334713299999999947e+02 3.345466700000000060e+01 7.165551846826062610e-01
1.332589999999999861e+02 3.346466699999999861e+01 6.454806673925201910e-01
1.367270000000000039e+02 3.487199999999999989e+01 3.641994958304051733e-01
1.367866699999999867e+02 3.494366699999999781e+01 3.085564852323872675e-01
1.345780000000000030e+02 3.370100000000000051e+01 3.306645718631973652e-01
1.345193299999999965e+02 3.375666700000000020e+01 2.858456719302904236e-01
1.318316700000000026e+02 3.209433299999999889e+01 4.875345987620396393e-01
1.317063300000000083e+02 3.210000000000000142e+01 3.474401605898607137e-01
1.317316700000000083e+02 3.218766699999999759e+01 3.409197224744334176e-01
1.374319999999999879e+02 3.481433299999999775e+01 0.000000000000000000e+00
1.332290000000000134e+02 3.323899999999999721e+01 7.879577650454288040e-01
1.331603299999999876e+02 3.319266700000000014e+01 7.946708611496510200e-01
1.331069999999999993e+02 3.321166699999999850e+01 7.652634287148848413e-01
1.332106699999999933e+02 3.329899999999999949e+01 7.659838644871012070e-01
1.383223299999999938e+02 3.505400000000000205e+01 3.694331657666637403e-01
1.383063300000000027e+02 3.512233299999999758e+01 4.150213906035752354e-01
1.382620000000000005e+02 3.498633300000000190e+01 2.777082692929049301e-01
1.381703300000000070e+02 3.497866700000000151e+01 2.632329822783500139e-01
1.368726699999999994e+02 3.495466700000000060e+01 2.750942346649882242e-01
1.369013300000000015e+02 3.489166699999999821e+01 2.832767068649240105e-01
1.331753300000000024e+02 3.348133299999999934e+01 5.543176200724594382e-01
1.331703300000000070e+02 3.357066700000000026e+01 4.781768640699961548e-01
1.330793299999999988e+02 3.343399999999999750e+01 5.568471094834147594e-01
1.338876700000000142e+02 3.363900000000000290e+01 3.992070330459784322e-01
1.339723299999999995e+02 3.358233299999999844e+01 4.847384370498757922e-01
1.373196700000000021e+02 3.491566699999999912e+01 0.000000000000000000e+00
1.373356699999999933e+02 3.484799999999999898e+01 0.000000000000000000e+00
1.372286699999999939e+02 3.493233299999999986e+01 0.000000000000000000e+00
1.371526700000000005e+02 3.488733299999999815e+01 1.165074536117040732e-01
1.315000000000000000e+02 3.088200000000000145e+01 0.000000000000000000e+00
1.375076699999999903e+02 3.485633299999999934e+01 0.000000000000000000e+00
1.376206699999999898e+02 3.475866700000000264e+01 0.000000000000000000e+00
1.377079999999999984e+02 3.473733299999999957e+01 0.000000000000000000e+00
1.376030000000000086e+02 3.483266700000000071e+01 0.000000000000000000e+00
1.377990000000000066e+02 3.479533299999999940e+01 0.000000000000000000e+00
1.347996699999999919e+02 3.381566699999999770e+01 2.786611773226214672e-01
1.340889999999999986e+02 3.395900000000000318e+01 9.080456991142459022e-02
1.342090000000000032e+02 3.385300000000000153e+01 1.725623749539738627e-01
1.340446699999999964e+02 3.383466700000000316e+01 1.505876346321967929e-01
1.340216700000000003e+02 3.390299999999999869e+01 1.042186735895681837e-01
1.341436699999999860e+02 3.380833299999999753e+01 1.902003194758142557e-01
1.319866700000000037e+02 3.235000000000000142e+01 5.320478451161965161e-01
1.371049999999999898e+02 3.465966699999999889e+01 2.608483385178568259e-01
1.327390000000000043e+02 3.337566699999999997e+01 4.289014140058863833e-01
1.327413300000000049e+02 3.329466699999999690e+01 5.106265698581944346e-01
1.369046700000000101e+02 3.474166699999999963e+01 3.569192681894963748e-01
1.374873299999999858e+02 3.492766699999999958e+01 0.000000000000000000e+00
1.345563300000000027e+02 3.397800000000000153e+01 1.342587120209361162e-01
1.345046700000000044e+02 3.390266700000000100e+01 1.865384767761048002e-01
1.330853299999999990e+02 3.357933299999999832e+01 4.289371378139182900e-01
1.372156699999999887e+02 3.463666700000000276e+01 1.812791737377796586e-01
1.372803299999999922e+02 3.470633300000000077e+01 7.827536019587617855e-02
1.382096699999999885e+02 3.512266699999999986e+01 5.496525444866380283e-01
1.315060000000000002e+02 3.062966700000000131e+01 0.000000000000000000e+00
1.361719999999999970e+02 3.381133299999999764e+01 8.596857537449217324e-01
1.360809999999999889e+02 3.381366700000000236e+01 8.519826848903462313e-01
1.375573300000000074e+02 3.497333299999999667e+01 0.000000000000000000e+00
1.347019999999999982e+02 3.368266700000000213e+01 3.587576458261081402e-01
1.343073300000000074e+02 3.373466700000000174e+01 2.854987751305138044e-01
1.342846700000000055e+02 3.381600000000000250e+01 2.273417972007839571e-01
1.313263300000000129e+02 3.066633300000000162e+01 0.000000000000000000e+00
1.314136699999999962e+02 3.060266700000000029e+01 0.000000000000000000e+00
1.334003299999999967e+02 3.338833300000000293e+01 7.701277584959510536e-01
1.332896700000000010e+02 3.338733299999999815e+01 7.282465204164442207e-01
1.323830000000000098e+02 3.301333300000000293e+01 6.251145481364938084e-01
1.324149999999999920e+02 3.307699999999999818e+01 6.014066985898678386e-01
1.370776700000000119e+02 3.475200000000000244e+01 2.311949027983965510e-01
1.369926700000000039e+02 3.478499999999999659e+01 2.688324369197124253e-01
1.338196700000000021e+02 3.380033300000000196e+01 2.088678478481366396e-01
1.342496700000000089e+02 3.368666699999999992e+01 3.336189612627279422e-01
1.341616699999999867e+02 3.372333299999999667e+01 2.503084065129614899e-01
1.343993299999999920e+02 3.370066700000000282e+01 3.179561810077608519e-01
1.343600000000000136e+02 3.383433300000000088e+01 2.189301508465729684e-01
1.344363299999999981e+02 3.375833300000000037e+01 2.817976870341132867e-01
1.321016700000000128e+02 3.268233299999999986e+01 4.646950307607383146e-01
1.320303299999999922e+02 3.264999999999999858e+01 3.618218884749442310e-01
1.378526699999999892e+02 3.492466699999999946e+01 0.000000000000000000e+00
1.377923299999999927e+02 3.486699999999999733e+01 0.000000000000000000e+00
1.368449999999999989e+02 3.481133299999999764e+01 3.463211216151522720e-01
1.367566700000000139e+02 3.480266699999999958e+01 3.782006551103025971e-01
1.370663299999999936e+02 3.491299999999999670e+01 1.708846291662171613e-01
1.369919999999999902e+02 3.487666699999999764e+01 2.449371914504224756e-01
1.321656700000000058e+02 3.253600000000000136e+01 6.191126910402590111e-01
1.350336700000000008e+02 3.352866699999999867e+01 5.743432694280120598e-01
1.378120000000000118e+02 3.499600000000000222e+01 0.000000000000000000e+00
1.377263299999999902e+02 3.500766699999999787e+01 0.000000000000000000e+00
1.376836700000000064e+02 3.488300000000000267e+01 0.000000000000000000e+00
1.376583300000000065e+02 3.495233300000000298e+01 0.000000000000000000e+00
1.367800000000000011e+02 3.462733300000000014e+01 4.368818892347947069e-01
1.368779999999999859e+02 3.464266700000000299e+01 4.112673838652862179e-01
1.350223300000000108e+02 3.360600000000000165e+01 5.665304556807051473e-01
1.369486699999999928e+02 3.445199999999999818e+01 4.666930311756085636e-01
1.368789999999999907e+02 3.440899999999999892e+01 5.045322846042306075e-01
1.317580000000000098e+02 3.205266699999999958e+01 4.465082872800962832e-01
1.367356699999999989e+02 3.446999999999999886e+01 4.931776669244876121e-01
1.367893300000000067e+02 3.441766700000000156e+01 5.155096520988702302e-01
1.330263300000000015e+02 3.350200000000000244e+01 4.735255226799451878e-01
1.350910000000000082e+02 3.381833300000000264e+01 3.482187838423823067e-01
1.351479999999999961e+02 3.375233300000000014e+01 4.729484765167262239e-01
1.321779999999999973e+02 3.261933299999999747e+01 6.110548153559957063e-01
1.349053299999999922e+02 3.361966699999999975e+01 4.770714238453405143e-01
1.334583299999999895e+02 3.354266700000000156e+01 6.373020621678235909e-01
1.333566700000000083e+02 3.355366699999999724e+01 5.729733443504879675e-01
1.349819999999999993e+02 3.379666699999999935e+01 3.290260850167034956e-01
1.349159999999999968e+02 3.385933299999999946e+01 2.469740241525449076e-01
1.313216700000000117e+02 3.082600000000000051e+01 0.000000000000000000e+00
1.317946699999999964e+02 3.218500000000000227e+01 4.372193454680505798e-01
1.318463299999999947e+02 3.222866700000000151e+01 4.660878529368322476e-01
1.316676699999999869e+02 3.170599999999999952e+01 3.605478251040917237e-01
1.316833300000000122e+02 3.192699999999999960e+01 4.171271787205567683e-01
1.317596699999999998e+02 3.196733300000000000e+01 4.792274081452855827e-01
1.317153299999999945e+02 3.183633299999999977e+01 4.350667269941893012e-01
1.316376700000000142e+02 3.179666699999999935e+01 3.657528076373505743e-01
1.318263300000000129e+02 3.231300000000000239e+01 4.087595048185829749e-01
1.319096700000000055e+02 3.235799999999999699e+01 4.394690040263271036e-01
1.341773300000000120e+02 3.393533299999999997e+01 1.233015462550850622e-01
1.342276699999999892e+02 3.399233300000000213e+01 1.093089810059729439e-01
1.370610000000000070e+02 3.457433300000000287e+01 3.220880812983122343e-01
1.369556699999999978e+02 3.456133299999999764e+01 4.322270398006564096e-01
1.315873300000000086e+02 3.166766700000000156e+01 2.904349859539404610e-01
1.314616699999999980e+02 3.079299999999999926e+01 0.000000000000000000e+00
1.313739999999999952e+02 3.076533299999999826e+01 0.000000000000000000e+00
1.348919999999999959e+02 3.370166700000000048e+01 4.143455164724679229e-01
1.347833300000000065e+02 3.372066699999999884e+01 3.417804529209986231e-01
1.322816699999999912e+02 3.278099999999999881e+01 6.730216307488325889e-01
1.322793299999999874e+02 3.268233299999999986e+01 7.114730581875480242e-01
1.381610000000000014e+02 3.525300000000000011e+01 5.799956223944052747e-01
1.381450000000000102e+02 3.518333299999999753e+01 6.064833463056469309e-01
1.329613300000000038e+02 3.311866700000000208e+01 8.090113796751374764e-01
1.330016699999999901e+02 3.318266700000000213e+01 7.586525264046347639e-01
1.316326699999999903e+02 3.153066700000000111e+01 0.000000000000000000e+00
1.315846699999999885e+02 3.157933299999999832e+01 2.685932465546164716e-01
1.340759999999999934e+02 3.360999999999999943e+01 3.884214228261114732e-01
1.340793299999999988e+02 3.369100000000000250e+01 2.903006441188826225e-01
1.329569999999999936e+02 3.333066699999999827e+01 5.921999723284399053e-01
1.329413299999999936e+02 3.350366700000000009e+01 4.201645557112955731e-01
1.339060000000000059e+02 3.374499999999999744e+01 2.632957681407697703e-01
1.339939999999999998e+02 3.376933300000000315e+01 2.074136349005147872e-01
1.380286700000000053e+02 3.507699999999999818e+01 4.318643161687716336e-01
1.379519999999999982e+02 3.503399999999999892e+01 0.000000000000000000e+00
1.319879999999999995e+02 3.256700000000000017e+01 3.536110674863028880e-01
1.330589999999999975e+02 3.334899999999999665e+01 6.222004809271096670e-01
1.331370000000000005e+02 3.329166699999999679e+01 7.302600564551294804e-01
1.372553299999999865e+02 3.479533299999999940e+01 3.024824897469284915e-02
1.371633300000000020e+02 3.481799999999999784e+01 1.212296263398036367e-01
1.328199999999999932e+02 3.322833299999999923e+01 6.406460950356231976e-01
1.329296699999999873e+02 3.324433299999999747e+01 6.609729485781009606e-01
1.320720000000000027e+02 3.248566699999999940e+01 5.436501997858196322e-01
1.319903300000000002e+02 3.249566699999999742e+01 4.142959501120914712e-01
1.328093299999999886e+02 3.342933299999999974e+01 3.972584229120517674e-01
1.328923299999999870e+02 3.341733299999999929e+01 4.648300362798126750e-01
1.383103299999999933e+02 3.549799999999999756e+01 0.000000000000000000e+00
1.383499999999999943e+02 3.556400000000000006e+01 0.000000000000000000e+00
1.317326700000000130e+02 3.236933299999999747e+01 2.019145184467924792e-01
1.316529999999999916e+02 3.234433299999999889e+01 1.405751485687146418e-01
1.313693299999999908e+02 3.172733300000000156e+01 8.480544881868647134e-02
1.314976699999999994e+02 3.169466699999999904e+01 1.923999985642753929e-01
1.314756700000000080e+02 3.199133300000000091e+01 1.075508888185022632e-01
1.315996700000000033e+02 3.195933300000000088e+01 2.602879589501954638e-01
1.312306700000000035e+02 3.146933299999999889e+01 0.000000000000000000e+00
1.313640000000000043e+02 3.143566699999999869e+01 0.000000000000000000e+00
1.311953300000000127e+02 3.138366699999999909e+01 0.000000000000000000e+00
1.313139999999999930e+02 3.135666700000000162e+01 0.000000000000000000e+00
1.312340000000000089e+02 3.132900000000000063e+01 0.000000000000000000e+00
1.333180000000000121e+02 3.378233300000000128e+01 2.964022095801704393e-01
1.339533299999999940e+02 3.399833300000000236e+01 5.404150517304442958e-02
1.313603300000000047e+02 3.149633299999999991e+01 0.000000000000000000e+00
1.312913299999999879e+02 3.151433300000000060e+01 0.000000000000000000e+00
1.333509999999999991e+02 3.385066700000000139e+01 2.368098524298589136e-01
1.329486699999999928e+02 3.411166699999999707e+01 5.199903454292454513e-02
1.319749999999999943e+02 3.300933299999999804e+01 9.014143445006296551e-02
1.330956700000000126e+02 3.415633299999999650e+01 4.368331423210099901e-02
1.332829999999999870e+02 3.391033300000000139e+01 1.780990030992011808e-01
1.331829999999999927e+02 3.388933300000000060e+01 2.012483083676400164e-01
1.314363299999999981e+02 3.156733300000000142e+01 0.000000000000000000e+00
1.314313300000000027e+02 3.163100000000000023e+01 0.000000000000000000e+00
1.313006699999999967e+02 3.160266700000000029e+01 0.000000000000000000e+00
1.313646699999999896e+02 3.164833300000000094e+01 0.000000000000000000e+00
1.334459999999999980e+02 3.386333299999999724e+01 2.105224324181740325e-01
1.333240000000000123e+02 3.398299999999999699e+01 1.230862959205849122e-01
1.330093300000000056e+02 3.415333300000000349e+01 4.076001030200128439e-02
1.358503300000000138e+02 3.394333300000000264e+01 5.593482162442351413e-01
1.329466700000000117e+02 3.366299999999999670e+01 2.930833154375678817e-01
1.319126699999999914e+02 3.287066699999999742e+01 1.220922394818442780e-01
1.319536699999999882e+02 3.281066700000000225e+01 2.013591232815409304e-01
1.369569999999999936e+02 3.540999999999999659e+01 0.000000000000000000e+00
1.358066699999999969e+02 3.413499999999999801e+01 1.842450624787392577e-01
1.358720000000000141e+02 3.402700000000000102e+01 4.654367111937690593e-01
1.359660000000000082e+02 3.404500000000000171e+01 5.259929407046414207e-01
1.321133299999999906e+02 3.296399999999999864e+01 3.394450504511595246e-01
1.319803300000000092e+02 3.294599999999999795e+01 1.418225291331887128e-01
1.320366699999999867e+02 3.283366699999999838e+01 2.975397639844825082e-01
1.320453300000000070e+02 3.292633299999999963e+01 2.606165908949460430e-01
1.356896700000000067e+02 3.403266699999999645e+01 2.434192580649290061e-01
1.357920000000000016e+02 3.407233300000000042e+01 2.645207798449729086e-01
1.328646699999999896e+02 3.414533300000000082e+01 3.700892309615636672e-02
1.328156700000000114e+02 3.425466699999999776e+01 1.715638217174069932e-02
1.327116699999999980e+02 3.424099999999999966e+01 1.624393787294554914e-02
1.330793299999999988e+02 3.401666699999999821e+01 9.748659476801635471e-02
1.330943300000000136e+02 3.393599999999999994e+01 1.408031037115309581e-01
1.343899999999999864e+02 3.434666699999999651e+01 0.000000000000000000e+00
1.330523300000000120e+02 3.365233299999999872e+01 3.577103253588989618e-01
1.328946699999999908e+02 3.359166700000000105e+01 3.279306610028685509e-01
1.326399999999999864e+02 3.342433299999999718e+01 3.185282901745712381e-01
1.329679999999999893e+02 3.421233300000000099e+01 3.061959711264945760e-02
1.328779999999999859e+02 3.420833300000000321e+01 2.906552071462785783e-02
1.332330000000000041e+02 3.376899999999999835e+01 3.062066645659035635e-01
1.331659999999999968e+02 3.381633300000000020e+01 2.509501686400769094e-01
1.312436700000000087e+02 3.082533300000000054e+01 0.000000000000000000e+00
1.311016700000000128e+02 3.085099999999999909e+01 0.000000000000000000e+00
1.348499999999999943e+02 3.419566700000000026e+01 0.000000000000000000e+00
1.348086700000000064e+02 3.426733300000000071e+01 0.000000000000000000e+00
1.349433300000000031e+02 3.417999999999999972e+01 0.000000000000000000e+00
1.331046699999999987e+02 3.371066700000000083e+01 3.202748423868975736e-01
1.331936699999999973e+02 3.370600000000000307e+01 3.551332877287601830e-01
1.330840000000000032e+02 3.378099999999999881e+01 2.696232164253938302e-01
1.342393299999999954e+02 3.430599999999999739e+01 0.000000000000000000e+00
1.343306699999999978e+02 3.429200000000000159e+01 0.000000000000000000e+00
1.348600000000000136e+02 3.404099999999999682e+01 0.000000000000000000e+00
1.350556699999999921e+02 3.408366699999999838e+01 0.000000000000000000e+00
1.349816700000000083e+02 3.410699999999999932e+01 0.000000000000000000e+00
1.349463299999999890e+02 3.404533299999999940e+01 0.000000000000000000e+00
1.349946700000000135e+02 3.396966700000000117e+01 1.411373972872796145e-01
1.312413300000000049e+02 3.091566699999999912e+01 0.000000000000000000e+00
1.311599999999999966e+02 3.063966699999999932e+01 0.000000000000000000e+00
1.312373299999999858e+02 3.067233299999999829e+01 0.000000000000000000e+00
1.327460000000000093e+02 3.352033300000000082e+01 2.989022869535366000e-01
1.327823300000000017e+02 3.359633300000000133e+01 2.577789895654650776e-01
1.345273300000000063e+02 3.410199999999999676e+01 7.693431891764243580e-02
1.343713300000000004e+02 3.409033300000000111e+01 8.288789638781847435e-02
1.343173299999999983e+02 3.414366700000000066e+01 6.783307100883965990e-02
1.335436699999999917e+02 3.420633300000000077e+01 3.456074581288187675e-02
1.340486699999999871e+02 3.401800000000000068e+01 6.857026818861601536e-02
1.339056699999999864e+02 3.404333299999999696e+01 3.089835997584460675e-02
1.351980000000000075e+02 3.393433300000000230e+01 1.820287574284357168e-01
1.351256700000000137e+02 3.390299999999999869e+01 2.261060717403142739e-01
1.310923300000000040e+02 3.069733300000000042e+01 0.000000000000000000e+00
1.311343300000000056e+02 3.078333299999999895e+01 0.000000000000000000e+00
1.312069999999999936e+02 3.077066699999999955e+01 0.000000000000000000e+00
1.326446699999999908e+02 3.350500000000000256e+01 2.696673717293499029e-01
1.350926699999999983e+02 3.401966699999999832e+01 1.082959418499027104e-01
1.351740000000000066e+02 3.400466699999999776e+01 1.097108145888311681e-01
1.350670000000000073e+02 3.396733300000000355e+01 1.509775896256165262e-01
1.335949999999999989e+02 3.394166700000000247e+01 1.226544543389798680e-01
1.334939999999999998e+02 3.393366699999999980e+01 1.459388937999248625e-01
1.334399999999999977e+02 3.399366700000000208e+01 1.055328830711341204e-01
1.336426700000000096e+02 3.402199999999999847e+01 7.210877401782722629e-02
1.368656699999999944e+02 3.542699999999999960e+01 0.000000000000000000e+00
1.339490000000000123e+02 3.410900000000000176e+01 2.919271507916497074e-02
1.328136700000000019e+02 3.388333300000000037e+01 1.119296863354842658e-01
1.370596700000000112e+02 3.504500000000000171e+01 1.977997249503811450e-01
1.344553300000000036e+02 3.413600000000000279e+01 6.764008050080783097e-02
1.339306699999999921e+02 3.423466700000000174e+01 0.000000000000000000e+00
1.338883299999999963e+02 3.417900000000000205e+01 0.000000000000000000e+00
1.329676699999999983e+02 3.405366699999999724e+01 6.801373527933612939e-02
1.334503300000000081e+02 3.413533300000000281e+01 5.035414043675690704e-02
1.334946700000000135e+02 3.407099999999999795e+01 6.468508701337655209e-02
1.336326699999999903e+02 3.417733299999999730e+01 3.065889465594180338e-02
1.335963299999999947e+02 3.409133299999999878e+01 5.004080979472998181e-02
1.368129999999999882e+02 3.548366699999999696e+01 0.000000000000000000e+00
1.361059999999999945e+02 3.530433299999999974e+01 3.943440712666605730e-02
1.361486700000000098e+02 3.526766700000000299e+01 6.236539760124279463e-02
1.346673299999999927e+02 3.434133299999999878e+01 0.000000000000000000e+00
1.330020000000000095e+02 3.381199999999999761e+01 2.081406533346092380e-01
1.329953299999999956e+02 3.389399999999999835e+01 1.615988026056776328e-01
1.345603299999999933e+02 3.435633299999999934e+01 0.000000000000000000e+00
1.344910000000000139e+02 3.432566700000000282e+01 0.000000000000000000e+00
1.341800000000000068e+02 3.407800000000000296e+01 7.885118734763627013e-02
1.342303300000000092e+02 3.414366700000000066e+01 6.671716421635204286e-02
1.324546699999999930e+02 3.367399999999999949e+01 7.346188350950419443e-02
1.324890000000000043e+02 3.375166699999999764e+01 6.375173599083248932e-02
1.324233299999999929e+02 3.381266699999999759e+01 4.020424198379757286e-02
1.356733299999999929e+02 3.397466699999999662e+01 3.406511268440342022e-01
1.357539999999999907e+02 3.393066699999999969e+01 5.279119356324024626e-01
1.378180000000000121e+02 3.514666700000000077e+01 0.000000000000000000e+00
1.361136700000000133e+02 3.476966699999999832e+01 1.986830816040809078e-01
1.369953299999999956e+02 3.524166699999999963e+01 0.000000000000000000e+00
1.369073300000000017e+02 3.528199999999999648e+01 1.503450039458723575e-01
1.343619999999999948e+02 3.422266700000000128e+01 5.207821949560962477e-02
1.344459999999999980e+02 3.421033299999999855e+01 5.231054614896333416e-02
1.345156700000000001e+02 3.425866700000000264e+01 0.000000000000000000e+00
1.326776700000000062e+02 3.417433299999999718e+01 2.241958469227714815e-02
1.373213299999999890e+02 3.525066699999999997e+01 0.000000000000000000e+00
1.327386700000000133e+02 3.374466699999999975e+01 1.392834366208514918e-01
1.326276699999999948e+02 3.367033299999999940e+01 1.257510617420500021e-01
1.327150000000000034e+02 3.366666699999999679e+01 1.671049757812898273e-01
1.368083300000000122e+02 3.527900000000000347e+01 1.710402021175177201e-01
1.320893299999999897e+02 3.322500000000000142e+01 1.208068325321380448e-01
1.311123299999999858e+02 3.110300000000000153e+01 0.000000000000000000e+00
1.312419999999999902e+02 3.107766700000000171e+01 0.000000000000000000e+00
1.340893299999999897e+02 3.407999999999999829e+01 6.071986080514487488e-02
1.341836700000000064e+02 3.423666699999999707e+01 0.000000000000000000e+00
1.340373299999999972e+02 3.412599999999999767e+01 4.286338139015118814e-02
1.325523300000000120e+02 3.355333300000000207e+01 1.680658751083481117e-01
1.325553299999999979e+02 3.362666699999999764e+01 1.305837581757574584e-01
1.323673300000000097e+02 3.365599999999999881e+01 5.921445953467759094e-02
1.322506700000000137e+02 3.375266700000000242e+01 1.946679287498637861e-02
1.365493299999999977e+02 3.483066699999999827e+01 4.069598849740787005e-01
1.365853299999999990e+02 3.474799999999999756e+01 4.236805640068039835e-01
1.325879999999999939e+02 3.374766699999999986e+01 9.606221373970839916e-02
1.324566700000000026e+02 3.389366700000000066e+01 3.666007858695984056e-02
1.324250000000000114e+02 3.406700000000000017e+01 1.666635988211617389e-02
1.323536699999999939e+02 3.400000000000000000e+01 1.730610522249566297e-02
1.323600000000000136e+02 3.393633299999999764e+01 2.177106788722220701e-02
