-9.905152900000000216e+01 1.803948499999999910e+01 0.000000000000000000e+00
-9.907136900000000423e+01 1.785927900000000079e+01 0.000000000000000000e+00
-9.922256899999999291e+01 1.769543799999999933e+01 0.000000000000000000e+00
-9.911090799999999490e+01 1.749884499999999932e+01 0.000000000000000000e+00
-9.935399800000000425e+01 1.771172400000000025e+01 0.000000000000000000e+00
-9.924218600000000379e+01 1.751520000000000010e+01 0.000000000000000000e+00
-9.889986600000000294e+01 1.820316899999999904e+01 0.000000000000000000e+00
-9.892987800000000220e+01 1.793289499999999848e+01 0.000000000000000000e+00
-9.882842100000000585e+01 1.764605900000000105e+01 0.000000000000000000e+00
-9.873729099999999903e+01 1.726909300000000158e+01 0.000000000000000000e+00
-9.902167699999999684e+01 1.830978199999999845e+01 9.934891382128983352e-04
-9.859566200000000435e+01 1.853012500000000173e+01 9.438911327885930345e-04
-9.916343899999999678e+01 1.823611100000000107e+01 0.000000000000000000e+00
-9.913371499999999514e+01 1.850642500000000013e+01 1.381433392114762154e-02
-9.904158999999999935e+01 1.812958599999999976e+01 0.000000000000000000e+00
-9.890988299999999356e+01 1.811307899999999904e+01 0.000000000000000000e+00
-9.873779000000000394e+01 1.845679000000000158e+01 6.103693444374886160e-03
-9.826204599999999800e+01 1.793918299999999988e+01 0.000000000000000000e+00
-9.887979500000000144e+01 1.838334199999999896e+01 1.281322119588663815e-02
-9.872765400000000113e+01 1.854686200000000085e+01 1.868379694735858559e-03
-9.876811700000000371e+01 1.818656400000000062e+01 0.000000000000000000e+00
-9.875802099999999939e+01 1.827664100000000147e+01 5.010376651419369380e-03
-9.861605400000000543e+01 1.835000099999999890e+01 7.106853783146100702e-03
-9.850469300000000317e+01 1.815308599999999828e+01 0.000000000000000000e+00
-9.862623000000000673e+01 1.825993599999999972e+01 3.488764939460779237e-03
-9.865667600000000448e+01 1.798972900000000053e+01 0.000000000000000000e+00
-9.864654099999999914e+01 1.807979999999999876e+01 0.000000000000000000e+00
-9.853529500000000496e+01 1.788290599999999841e+01 0.000000000000000000e+00
-9.810974500000000376e+01 1.810220699999999994e+01 2.517454748773430978e-03
-9.837301899999999932e+01 1.813621399999999895e+01 0.000000000000000000e+00
-9.815130000000000621e+01 1.774210400000000121e+01 0.000000000000000000e+00
-9.812015599999999438e+01 1.801218400000000130e+01 0.000000000000000000e+00
-9.757281799999999805e+01 1.812310799999999844e+01 2.604257362774788196e-04
-9.782544500000000198e+01 1.824783400000000100e+01 3.521649030087994881e-04
-9.807842300000000080e+01 1.837226000000000070e+01 3.419307607719932005e-04
-9.808887900000000570e+01 1.828224399999999861e+01 1.459532681190575448e-03
-9.823100900000000024e+01 1.820928699999999978e+01 3.148080456781274846e-03
-9.822063500000000147e+01 1.829931699999999850e+01 2.223763005368097588e-03
-9.847396600000000433e+01 1.842324800000000096e+01 2.012696641202495196e-03
-9.836272400000000005e+01 1.822625899999999888e+01 2.374555891224194686e-03
-9.769376699999999403e+01 1.823049599999999870e+01 1.614574765904756306e-04
-9.725400999999999385e+01 1.744085300000000061e+01 9.145909463085182640e-04
-9.574041400000000124e+01 1.677506899999999845e+01 7.814457209189953142e-05
-9.652358800000000372e+01 1.688451600000000141e+01 1.418605934743583888e-04
-9.560997199999999907e+01 1.675655599999999978e+01 7.023318210122998610e-05
-9.564423200000000236e+01 1.648738200000000020e+01 1.287738626401664340e-03
-9.553683599999999387e+01 1.628943100000000044e+01 1.098644255394588820e-02
-9.563283300000000509e+01 1.657711099999999860e+01 4.254785980988578424e-04
-9.550252999999999304e+01 1.655856400000000050e+01 3.466173833928242343e-04
-9.639299800000000573e+01 1.686646999999999963e+01 1.125150355204091265e-04
-9.592730699999999899e+01 1.634466099999999855e+01 2.204904818498439750e-02
-9.630691899999999350e+01 1.648904900000000140e+01 6.545964878203761050e-03
-9.627358200000000465e+01 1.675852599999999981e+01 2.168790360017669244e-04
-9.588220699999999397e+01 1.670374199999999831e+01 1.929913512240438494e-04
-9.616545899999999847e+01 1.656073100000000053e+01 1.797279075291767763e-03
-9.605751200000000267e+01 1.636292200000000108e+01 2.394580430888943595e-02
-9.603511600000000215e+01 1.654250800000000154e+01 1.764098190356368657e-03
-9.619885299999999972e+01 1.629129000000000005e+01 1.084510543707638136e-01
-9.617660999999999660e+01 1.647091999999999956e+01 6.342244656919232039e-03
-9.602388799999999947e+01 1.663229600000000019e+01 5.571309232394642359e-04
-9.578582500000000266e+01 1.641608099999999837e+01 5.119023455503981211e-03
-9.580840700000000254e+01 1.623656599999999983e+01 7.757684355705721235e-02
-9.567830600000000629e+01 1.621817599999999970e+01 5.959773452232886015e-02
-9.584213099999999486e+01 1.596726800000000068e+01 2.438316633547210621e-01
-9.545239499999999566e+01 1.591206000000000031e+01 1.256116994270699561e-01
-9.570091999999999643e+01 1.603868699999999947e+01 2.707407068182710042e-01
-9.581966900000000464e+01 1.614680299999999846e+01 3.470799254816848700e-01
-9.634008599999999944e+01 1.621954300000000160e+01 5.372713942071574156e-01
-9.560488499999999590e+01 1.575106500000000054e+01 4.283892186910568528e-02
-9.571219600000000582e+01 1.594893800000000006e+01 1.986157185435351302e-01
-9.594973799999999642e+01 1.616509999999999891e+01 4.277314705351714097e-01
-9.665478600000000142e+01 1.580605000000000082e+01 2.868721639373446042e-01
-9.534534600000000637e+01 1.571412699999999951e+01 0.000000000000000000e+00
-9.574590399999999590e+01 1.567966700000000024e+01 2.629114369838695189e-02
-9.573468800000000556e+01 1.576942799999999956e+01 7.492796403158900886e-02
-9.585333300000000634e+01 1.587749499999999969e+01 1.781217997400446618e-01
-9.546375999999999351e+01 1.582234799999999986e+01 6.777343361989356108e-02
-9.539525600000000338e+01 1.636056599999999861e+01 2.183593218015091823e-03
-9.520416000000000167e+01 1.578522500000000051e+01 1.597001059834874922e-03
-9.531108899999999551e+01 1.598320000000000007e+01 1.433130611425760814e-01
-9.559359399999999596e+01 1.584080200000000005e+01 9.812079721844484126e-02
-9.548642700000000616e+01 1.564291200000000082e+01 0.000000000000000000e+00
-9.532253000000000043e+01 1.589351300000000045e+01 8.821045195111158754e-02
-9.513499799999999595e+01 1.632318499999999872e+01 7.210392057817484454e-04
-9.521561199999999303e+01 1.569555199999999928e+01 0.000000000000000000e+00
-9.518119299999999328e+01 1.596456000000000053e+01 6.959950275665796604e-02
-9.538376499999999680e+01 1.645025599999999955e+01 7.246249620138300266e-04
-9.516967699999999297e+01 1.605422199999999933e+01 2.191785146352489069e-02
-9.500490600000000541e+01 1.630438300000000140e+01 3.248848620528435528e-04
-9.541817500000000507e+01 1.618117499999999964e+01 2.564592521962870755e-02
-9.528814500000000010e+01 1.616256399999999971e+01 1.410230732926218492e-02
-9.525356700000000387e+01 1.643158000000000030e+01 4.666334089954566862e-04
-9.524199799999999527e+01 1.652124500000000040e+01 1.767693815160448450e-04
-9.499324599999999919e+01 1.639400699999999844e+01 1.284004878447020305e-04
-9.511176899999999534e+01 1.650247299999999839e+01 1.061051261841134525e-04
-9.503974999999999795e+01 1.603548800000000085e+01 7.068265915905759880e-03
-9.489819900000000530e+01 1.610629499999999936e+01 6.005652268380191330e-04
-9.475654099999999858e+01 1.617698100000000139e+01 3.299322818773764730e-05
-9.488652999999999338e+01 1.619590399999999875e+01 2.672797682111089160e-04
-9.468523999999999319e+01 1.571013199999999976e+01 0.000000000000000000e+00
-9.439047100000000512e+01 1.594074700000000000e+01 0.000000000000000000e+00
-9.502815699999999310e+01 1.612512399999999957e+01 2.508944740972560150e-03
-9.493307400000000484e+01 1.583744399999999963e+01 0.000000000000000000e+00
-9.426068800000000181e+01 1.592158700000000060e+01 0.000000000000000000e+00
-9.440231199999999490e+01 1.585122499999999945e+01 0.000000000000000000e+00
-9.450847000000000264e+01 1.604937899999999829e+01 0.000000000000000000e+00
-9.424876999999999327e+01 1.601107999999999976e+01 0.000000000000000000e+00
-9.411895699999999465e+01 1.599182500000000040e+01 0.000000000000000000e+00
-9.449663599999999519e+01 1.613891800000000032e+01 0.000000000000000000e+00
-9.461477399999999705e+01 1.624754300000000029e+01 0.000000000000000000e+00
-9.485138399999999592e+01 1.646470700000000065e+01 2.593017695059098078e-05
-9.472122899999999390e+01 1.644571300000000136e+01 1.032997058594254492e-05
-9.474479300000000137e+01 1.626656200000000041e+01 2.603834516118390952e-05
-9.486312200000000416e+01 1.637510999999999939e+01 5.173858530565021805e-05
-9.496985999999999706e+01 1.657324300000000150e+01 2.825071867345751878e-05
-9.336513600000000679e+01 1.569621899999999926e+01 0.000000000000000000e+00
-9.337737099999999657e+01 1.560690100000000058e+01 0.000000000000000000e+00
-9.403711599999999748e+01 1.561470399999999970e+01 0.000000000000000000e+00
-9.387148000000000536e+01 1.586368900000000082e+01 0.000000000000000000e+00
-9.401319100000000617e+01 1.579361100000000029e+01 0.000000000000000000e+00
-9.414287400000000616e+01 1.581288499999999964e+01 0.000000000000000000e+00
-9.407281899999999553e+01 1.534631000000000078e+01 0.000000000000000000e+00
-9.390756199999999865e+01 1.559541300000000064e+01 0.000000000000000000e+00
-9.446115700000000004e+01 1.540354899999999994e+01 0.000000000000000000e+00
-9.442592000000000496e+01 1.567216699999999996e+01 0.000000000000000000e+00
-9.393149099999999407e+01 1.541653999999999947e+01 0.000000000000000000e+00
-9.351904000000000394e+01 1.553713800000000056e+01 0.000000000000000000e+00
-9.394341900000000578e+01 1.532709599999999917e+01 0.000000000000000000e+00
-9.412008600000000058e+01 1.498838800000000049e+01 0.000000000000000000e+00
-9.408467199999999764e+01 1.525683599999999984e+01 0.000000000000000000e+00
-9.424930700000000172e+01 1.500743399999999994e+01 0.000000000000000000e+00
-9.376597700000000657e+01 1.566545900000000024e+01 0.000000000000000000e+00
-9.382599600000000351e+01 1.521839399999999998e+01 0.000000000000000000e+00
-9.364852299999999730e+01 1.555663000000000018e+01 0.000000000000000000e+00
-9.334522599999999670e+01 1.487275700000000001e+01 0.000000000000000000e+00
-9.389555900000000577e+01 1.568484300000000076e+01 0.000000000000000000e+00
-9.380206300000000397e+01 1.539723399999999920e+01 0.000000000000000000e+00
-9.366060400000000641e+01 1.546724799999999966e+01 0.000000000000000000e+00
-9.379005999999999688e+01 1.548664699999999961e+01 0.000000000000000000e+00
-9.345023299999999722e+01 1.507089500000000015e+01 0.000000000000000000e+00
-9.368468799999999419e+01 1.528847099999999948e+01 0.000000000000000000e+00
-9.372062599999999577e+01 1.502027000000000001e+01 0.000000000000000000e+00
-9.369669299999999623e+01 1.519907500000000056e+01 0.000000000000000000e+00
-9.397905699999999740e+01 1.505873799999999996e+01 0.000000000000000000e+00
-9.453100999999999487e+01 1.486619800000000069e+01 0.000000000000000000e+00
-9.439020899999999870e+01 1.493687500000000057e+01 0.000000000000000000e+00
-9.410830500000000143e+01 1.507787500000000058e+01 0.000000000000000000e+00
-9.376819600000000321e+01 1.466260199999999969e+01 0.000000000000000000e+00
-9.387356599999999673e+01 1.486065900000000006e+01 0.000000000000000000e+00
-9.379183399999999438e+01 1.448374199999999945e+01 0.000000000000000000e+00
-9.317160199999999293e+01 1.420865900000000082e+01 0.000000000000000000e+00
-9.324033400000000427e+01 1.467464700000000022e+01 0.000000000000000000e+00
-9.299460500000000707e+01 1.454632600000000053e+01 0.000000000000000000e+00
-9.319188400000000172e+01 1.503186000000000000e+01 0.000000000000000000e+00
-9.357944100000000276e+01 1.509031700000000065e+01 0.000000000000000000e+00
-9.375634100000000615e+01 1.475202600000000075e+01 0.000000000000000000e+00
-9.365108899999999892e+01 1.455397600000000047e+01 0.000000000000000000e+00
-9.322826000000000590e+01 1.476395699999999955e+01 0.000000000000000000e+00
-9.308711900000000128e+01 1.483370700000000042e+01 0.000000000000000000e+00
-9.329676399999999603e+01 1.523004199999999919e+01 0.000000000000000000e+00
-9.320403600000000210e+01 1.494256400000000085e+01 0.000000000000000000e+00
-9.341391900000000703e+01 1.533891999999999989e+01 0.000000000000000000e+00
-9.354327700000000334e+01 1.535842399999999941e+01 0.000000000000000000e+00
-9.330891900000000305e+01 1.514072799999999930e+01 0.000000000000000000e+00
-9.333315000000000339e+01 1.496208599999999933e+01 0.000000000000000000e+00
-9.302598399999999401e+01 1.528001899999999935e+01 0.000000000000000000e+00
-9.315527199999999652e+01 1.529971699999999935e+01 0.000000000000000000e+00
-9.313073099999999727e+01 1.547826399999999936e+01 0.000000000000000000e+00
-9.290904899999999600e+01 1.517103299999999955e+01 0.000000000000000000e+00
-9.280453300000000638e+01 1.497283200000000036e+01 0.000000000000000000e+00
-9.298246199999999817e+01 1.463558599999999998e+01 0.000000000000000000e+00
-9.292135199999999884e+01 1.508180499999999924e+01 0.000000000000000000e+00
-9.295809800000000678e+01 1.481408799999999992e+01 0.000000000000000000e+00
-9.271241600000000460e+01 1.468547599999999953e+01 0.000000000000000000e+00
-9.291424100000000408e+01 1.416976099999999938e+01 0.000000000000000000e+00
-9.270012499999999989e+01 1.477466700000000088e+01 0.000000000000000000e+00
-9.287791199999999492e+01 1.443749799999999972e+01 0.000000000000000000e+00
-9.281683099999999342e+01 1.488362300000000005e+01 0.000000000000000000e+00
-9.284134400000000653e+01 1.470518799999999970e+01 0.000000000000000000e+00
-9.285356000000000165e+01 1.461596300000000070e+01 0.000000000000000000e+00
-9.289004799999999307e+01 1.434825700000000026e+01 0.000000000000000000e+00
-9.309926600000000008e+01 1.474442900000000023e+01 0.000000000000000000e+00
-9.312348199999999565e+01 1.456585899999999967e+01 0.000000000000000000e+00
-9.249161599999999339e+01 1.437844699999999953e+01 0.000000000000000000e+00
-9.274912500000000648e+01 1.441787300000000016e+01 0.000000000000000000e+00
-9.254054999999999609e+01 1.402180700000000080e+01 0.000000000000000000e+00
-9.278559199999999407e+01 1.415022399999999969e+01 0.000000000000000000e+00
-9.259582100000000082e+01 1.457653700000000008e+01 0.000000000000000000e+00
-9.260810399999999731e+01 1.448736599999999974e+01 0.000000000000000000e+00
-9.273691599999999369e+01 1.450707899999999917e+01 0.000000000000000000e+00
-9.264479000000000042e+01 1.421982099999999960e+01 0.000000000000000000e+00
-9.243640100000000359e+01 1.382383500000000076e+01 0.000000000000000000e+00
-9.238750699999999938e+01 1.418039699999999925e+01 0.000000000000000000e+00
-9.263258799999999837e+01 1.430900800000000039e+01 0.000000000000000000e+00
-9.252835699999999974e+01 1.411097499999999982e+01 0.000000000000000000e+00
-9.233234000000000208e+01 1.362590699999999977e+01 0.000000000000000000e+00
-9.217955899999999758e+01 1.378442700000000087e+01 0.000000000000000000e+00
-9.228348900000000299e+01 1.398238899999999951e+01 0.000000000000000000e+00
-9.266911100000000090e+01 1.404143099999999933e+01 0.000000000000000000e+00
-9.246068400000000054e+01 1.364552300000000074e+01 0.000000000000000000e+00
-9.229574300000000164e+01 1.389327699999999943e+01 0.000000000000000000e+00
-9.260110699999999895e+01 1.357588999999999935e+01 0.000000000000000000e+00
-9.242421899999999368e+01 1.391298399999999980e+01 0.000000000000000000e+00
-9.239977199999999868e+01 1.409126400000000068e+01 0.000000000000000000e+00
-9.268123199999999429e+01 1.395222799999999985e+01 0.000000000000000000e+00
-9.256485299999999938e+01 1.384345599999999976e+01 0.000000000000000000e+00
-9.282181900000000496e+01 1.388252800000000065e+01 0.000000000000000000e+00
-9.257696500000000128e+01 1.375427200000000028e+01 0.000000000000000000e+00
-9.280977000000000032e+01 1.397176499999999955e+01 0.000000000000000000e+00
-9.298619200000000262e+01 1.363415099999999924e+01 0.000000000000000000e+00
-9.295033300000000054e+01 1.390197900000000075e+01 0.000000000000000000e+00
-9.310271099999999933e+01 1.374276899999999912e+01 0.000000000000000000e+00
-9.271743399999999724e+01 1.368458900000000078e+01 0.000000000000000000e+00
-9.284583899999999801e+01 1.370403800000000061e+01 0.000000000000000000e+00
-9.320742300000000569e+01 1.394070800000000077e+01 0.000000000000000000e+00
-9.345277099999999848e+01 1.406858100000000000e+01 0.000000000000000000e+00
-9.334784399999999494e+01 1.387063099999999949e+01 0.000000000000000000e+00
-9.331223500000000115e+01 1.413868000000000080e+01 0.000000000000000000e+00
-9.347639499999999657e+01 1.388982299999999981e+01 0.000000000000000000e+00
-9.301881000000000199e+01 1.436779300000000070e+01 0.000000000000000000e+00
-9.303087399999999718e+01 1.427851899999999929e+01 0.000000000000000000e+00
-9.292629800000000273e+01 1.408050500000000049e+01 0.000000000000000000e+00
-9.296231199999999717e+01 1.381270800000000065e+01 0.000000000000000000e+00
-9.306690799999999797e+01 1.401066600000000051e+01 0.000000000000000000e+00
-9.309080199999999650e+01 1.383207299999999940e+01 0.000000000000000000e+00
-9.313555100000000664e+01 1.447656600000000005e+01 0.000000000000000000e+00
-9.340522599999999898e+01 1.442604099999999967e+01 0.000000000000000000e+00
-9.326440300000000150e+01 1.449601000000000006e+01 0.000000000000000000e+00
-9.338130200000000514e+01 1.460474199999999989e+01 0.000000000000000000e+00
-9.327639899999999784e+01 1.440668499999999952e+01 0.000000000000000000e+00
-9.354595100000000230e+01 1.435595099999999924e+01 0.000000000000000000e+00
-9.344092200000000048e+01 1.415795299999999912e+01 0.000000000000000000e+00
-9.341715000000000657e+01 1.433668300000000073e+01 0.000000000000000000e+00
-9.358143400000000156e+01 1.408776899999999976e+01 0.000000000000000000e+00
-9.355780300000000693e+01 1.426656099999999938e+01 0.000000000000000000e+00
-9.359321300000000576e+01 1.399836499999999972e+01 0.000000000000000000e+00
-9.389720499999999959e+01 1.468176500000000040e+01 0.000000000000000000e+00
-9.369835999999999387e+01 1.419632200000000033e+01 0.000000000000000000e+00
-9.393248199999999315e+01 1.441338900000000045e+01 0.000000000000000000e+00
-9.382711100000000215e+01 1.421541599999999939e+01 0.000000000000000000e+00
-9.390898799999999369e+01 1.459231100000000048e+01 0.000000000000000000e+00
-9.394419399999999598e+01 1.432392100000000035e+01 0.000000000000000000e+00
-9.407303299999999524e+01 1.434291900000000020e+01 0.000000000000000000e+00
-9.372185000000000343e+01 1.401746699999999990e+01 0.000000000000000000e+00
-9.383882199999999330e+01 1.412596500000000077e+01 0.000000000000000000e+00
-9.474333400000000438e+01 1.526217600000000019e+01 0.000000000000000000e+00
-9.549773100000000170e+01 1.555318899999999971e+01 0.000000000000000000e+00
-9.468320199999999431e+01 1.470580400000000054e+01 0.000000000000000000e+00
-9.477792200000000378e+01 1.499335400000000007e+01 0.000000000000000000e+00
-9.481231300000000317e+01 1.472449600000000025e+01 0.000000000000000000e+00
-9.493005300000000091e+01 1.483276900000000076e+01 0.000000000000000000e+00
-9.442504399999999976e+01 1.466822799999999916e+01 0.000000000000000000e+00
-9.414357699999999340e+01 1.480940000000000012e+01 0.000000000000000000e+00
-9.403797000000000139e+01 1.461138500000000029e+01 0.000000000000000000e+00
-9.401447600000000193e+01 1.479033899999999946e+01 0.000000000000000000e+00
-9.429599799999999732e+01 1.464934300000000000e+01 0.000000000000000000e+00
-9.404968100000000675e+01 1.452190000000000047e+01 0.000000000000000000e+00
-9.417863599999999735e+01 1.454088699999999967e+01 0.000000000000000000e+00
-9.433077400000000523e+01 1.438072999999999979e+01 0.000000000000000000e+00
-9.421404400000000123e+01 1.527595700000000001e+01 0.000000000000000000e+00
-9.422582199999999375e+01 1.518645399999999945e+01 0.000000000000000000e+00
-9.450781700000000285e+01 1.504533200000000015e+01 0.000000000000000000e+00
-9.436687000000000580e+01 1.511595200000000006e+01 0.000000000000000000e+00
-9.440184399999999698e+01 1.484732999999999947e+01 0.000000000000000000e+00
-9.415528700000000129e+01 1.471990000000000087e+01 0.000000000000000000e+00
-9.449618599999999446e+01 1.513489200000000068e+01 0.000000000000000000e+00
-9.454257200000000694e+01 1.477662499999999923e+01 0.000000000000000000e+00
-9.443661099999999919e+01 1.457867000000000068e+01 0.000000000000000000e+00
-9.428436000000000661e+01 1.473887299999999989e+01 0.000000000000000000e+00
-9.431920499999999663e+01 1.447027199999999958e+01 0.000000000000000000e+00
-9.419027599999999723e+01 1.445137300000000025e+01 0.000000000000000000e+00
-9.488426900000000330e+01 1.519131299999999918e+01 0.000000000000000000e+00
-9.447285700000000475e+01 1.531400099999999931e+01 0.000000000000000000e+00
-9.489574700000000007e+01 1.510168299999999952e+01 0.000000000000000000e+00
-9.464866299999999910e+01 1.497459300000000049e+01 0.000000000000000000e+00
-9.435516599999999698e+01 1.520548499999999947e+01 0.000000000000000000e+00
-9.433168899999999724e+01 1.538453600000000066e+01 0.000000000000000000e+00
-9.486124599999999418e+01 1.537056199999999961e+01 0.000000000000000000e+00
-9.475488599999999906e+01 1.517257299999999987e+01 0.000000000000000000e+00
-9.463710500000000536e+01 1.506418200000000063e+01 0.000000000000000000e+00
-9.461392200000000230e+01 1.524334600000000073e+01 0.000000000000000000e+00
-9.443768900000000599e+01 1.558263200000000026e+01 0.000000000000000000e+00
-9.454382900000000234e+01 1.578073900000000052e+01 0.000000000000000000e+00
-9.481493500000000552e+01 1.572901099999999985e+01 0.000000000000000000e+00
-9.479164600000000007e+01 1.590821099999999966e+01 0.000000000000000000e+00
-9.457897900000000391e+01 1.551206099999999921e+01 0.000000000000000000e+00
-9.460229699999999298e+01 1.533292199999999994e+01 0.000000000000000000e+00
-9.482654700000000503e+01 1.563940400000000075e+01 0.000000000000000000e+00
-9.472016399999999692e+01 1.544137100000000018e+01 0.000000000000000000e+00
-9.495621199999999362e+01 1.565818999999999939e+01 0.000000000000000000e+00
-9.484970199999999352e+01 1.546017999999999937e+01 0.000000000000000000e+00
-9.509738299999999356e+01 1.558725100000000019e+01 0.000000000000000000e+00
-9.507439599999999302e+01 1.576655700000000060e+01 0.000000000000000000e+00
-9.537941399999999703e+01 1.544502100000000056e+01 0.000000000000000000e+00
-9.524983899999999437e+01 1.542650899999999936e+01 0.000000000000000000e+00
-9.502510100000000648e+01 1.512033399999999972e+01 0.000000000000000000e+00
-9.500222499999999570e+01 1.529963500000000032e+01 0.000000000000000000e+00
-9.491863899999999887e+01 1.492241100000000031e+01 0.000000000000000000e+00
-9.478940799999999456e+01 1.490373899999999985e+01 0.000000000000000000e+00
-9.503650799999999776e+01 1.503067700000000073e+01 0.000000000000000000e+00
-9.514310199999999895e+01 1.522859099999999977e+01 0.000000000000000000e+00
-9.527255100000000709e+01 1.524712899999999927e+01 0.000000000000000000e+00
-9.528387600000000646e+01 1.515743299999999927e+01 0.000000000000000000e+00
-9.601656099999999583e+01 1.562633499999999920e+01 9.577675797414710035e-02
-9.539072899999999322e+01 1.535531100000000038e+01 0.000000000000000000e+00
-9.598323600000000511e+01 1.589573299999999989e+01 2.418666104468278899e-01
-9.541329700000000003e+01 1.517588100000000040e+01 0.000000000000000000e+00
-9.552027499999999804e+01 1.537373200000000040e+01 0.000000000000000000e+00
-9.553151699999999380e+01 1.528399800000000042e+01 0.000000000000000000e+00
-9.807501999999999498e+01 1.608739200000000125e+01 0.000000000000000000e+00
-9.797560099999999750e+01 1.580025700000000022e+01 2.805807327511459018e-02
-9.824582499999999641e+01 1.574409600000000076e+01 2.944512272320249507e-02
-9.760640100000000530e+01 1.556883099999999942e+01 4.373610222182006124e-01
-9.732572999999999297e+01 1.571418599999999977e+01 5.937130193462710759e-01
-9.785587400000000002e+01 1.569316399999999945e+01 1.490368421159323775e-01
-9.771558699999999931e+01 1.576605299999999943e+01 1.133870265964925933e-01
-9.782495900000000688e+01 1.596324300000000029e+01 0.000000000000000000e+00
-9.780427799999999650e+01 1.614328400000000130e+01 0.000000000000000000e+00
-9.755432000000000414e+01 1.601883099999999871e+01 0.000000000000000000e+00
-9.768446099999999888e+01 1.603608600000000095e+01 0.000000000000000000e+00
-9.772593399999999519e+01 1.567603700000000089e+01 2.231560006538504670e-01
-9.783527800000000241e+01 1.587321900000000063e+01 0.000000000000000000e+00
-9.757519700000000284e+01 1.583883900000000011e+01 4.423406059763924231e-02
-9.727293899999999383e+01 1.616402100000000175e+01 1.687929861082572078e-02
-9.769485099999999989e+01 1.594607700000000072e+01 0.000000000000000000e+00
-9.740314899999999909e+01 1.618145600000000073e+01 0.000000000000000000e+00
-9.744518899999999917e+01 1.582153600000000004e+01 1.679427869768758408e-01
-9.719582099999999514e+01 1.569674799999999948e+01 7.789708655060144649e-01
-9.758561299999999505e+01 1.574883799999999923e+01 1.998557677334368565e-01
-9.743470200000000148e+01 1.591151999999999944e+01 0.000000000000000000e+00
-9.746611699999999701e+01 1.564156000000000013e+01 5.177146856698566779e-01
-9.733624100000000112e+01 1.562421100000000074e+01 7.279583831906613067e-01
-9.641682900000000700e+01 1.559058600000000006e+01 3.292809008393722259e-01
-9.721693700000000149e+01 1.551682500000000076e+01 8.840931611625343356e-01
-9.722747200000000589e+01 1.542685999999999957e+01 8.507565260193976631e-01
-9.735721800000000314e+01 1.544425400000000081e+01 7.782922744837795781e-01
-9.747655899999999463e+01 1.555156900000000064e+01 6.070565081251242390e-01
-9.655744300000000635e+01 1.551858000000000004e+01 2.754945389294433111e-01
-9.696804500000000360e+01 1.539185499999999962e+01 6.650097662926806041e-01
-9.682766700000000526e+01 1.546416400000000024e+01 4.714901377859051501e-01
-9.627611100000000022e+01 1.566248099999999965e+01 3.358269522403501406e-01
-9.679547900000000027e+01 1.573390599999999928e+01 2.147084385228507364e-01
-9.592013199999999529e+01 1.533878499999999967e+01 0.000000000000000000e+00
-9.566103300000000331e+01 1.530232999999999954e+01 0.000000000000000000e+00
-9.562740399999999852e+01 1.557158199999999937e+01 0.000000000000000000e+00
-9.563863399999999615e+01 1.548183500000000024e+01 0.000000000000000000e+00
-9.615734100000000240e+01 1.555461999999999989e+01 1.375952971416892767e-01
-9.604971399999999448e+01 1.535690899999999992e+01 6.995105796436145926e-03
-9.588682000000000016e+01 1.560815500000000000e+01 2.865114773058779693e-02
-9.576827699999999766e+01 1.550013700000000050e+01 0.000000000000000000e+00
-9.602763099999999952e+01 1.553653000000000084e+01 5.235441276283710893e-02
-9.587567699999999604e+01 1.569793899999999987e+01 7.127148671926096524e-02
-9.590904700000000105e+01 1.542857899999999916e+01 0.000000000000000000e+00
-9.577943399999999485e+01 1.541036599999999979e+01 0.000000000000000000e+00
-9.626512999999999920e+01 1.575232100000000024e+01 3.859838265991463180e-01
-9.629801799999999901e+01 1.548279299999999914e+01 1.729244255357731408e-01
-9.616833900000000313e+01 1.546479199999999921e+01 8.811470192397531653e-02
-9.630894499999999425e+01 1.539294399999999996e+01 1.426631359723362913e-01
-9.596092400000000566e+01 1.607531399999999877e+01 3.714144971626242575e-01
-9.635110400000000652e+01 1.612970100000000073e+01 5.488584153856105319e-01
-9.613528999999999769e+01 1.573426500000000061e+01 2.530295410312372040e-01
-9.637308500000000322e+01 1.595000899999999966e+01 4.795644725510875839e-01
-9.609095999999999549e+01 1.609351699999999852e+01 4.330467976714224010e-01
-9.606868099999999799e+01 1.627312299999999823e+01 1.033568717050625529e-01
-9.624311299999999392e+01 1.593199000000000076e+01 4.140634246027277143e-01
-9.620994699999999966e+01 1.620147000000000048e+01 5.210833241036231245e-01
-9.599436400000000447e+01 1.580593700000000013e+01 1.907984550110138899e-01
-9.610207099999999514e+01 1.600370900000000063e+01 3.700891691362667713e-01
-9.645926799999999446e+01 1.632739700000000127e+01 1.188307096691918197e-01
-9.628471399999999392e+01 1.666870300000000071e+01 5.921990827295935339e-04
-9.660043500000000449e+01 1.625546399999999991e+01 5.974906921213780642e-01
-9.667613299999999299e+01 1.672273399999999910e+01 1.190058653042201393e-03
-9.658951100000000167e+01 1.634533700000000067e+01 1.306888539685388539e-01
-9.648121100000000183e+01 1.614768199999999965e+01 5.715373797734263350e-01
-9.685006699999999569e+01 1.638098899999999958e+01 1.812758451082013555e-01
-9.656761000000000195e+01 1.652507599999999854e+01 8.428044749320762544e-03
-9.673064399999999807e+01 1.627331099999999964e+01 5.549100891083215137e-01
-9.670889300000000333e+01 1.645308899999999852e+01 3.822667289802640644e-02
-9.651398799999999767e+01 1.587808500000000045e+01 4.570744116128858114e-01
-9.649215499999999679e+01 1.605781899999999851e+01 5.189225675536464077e-01
-9.677393700000000365e+01 1.591371900000000039e+01 3.086005848902671489e-01
-9.707655400000000157e+01 1.558929200000000037e+01 7.917921676894290606e-01
-9.640591999999999473e+01 1.568044599999999988e+01 4.459661129270552915e-01
-9.638404800000000705e+01 1.586015699999999917e+01 4.771929008202063227e-01
-9.654660499999999956e+01 1.560846100000000014e+01 2.423630060683885090e-01
-9.652487899999999854e+01 1.578821300000000072e+01 4.145105326504145982e-01
-9.668718800000000613e+01 1.553636700000000026e+01 2.878014867174180647e-01
-9.666560400000000186e+01 1.571615899999999932e+01 2.185328741391260043e-01
-9.690394399999999564e+01 1.593142500000000084e+01 3.201676477802531395e-01
-9.691466900000000351e+01 1.584150299999999945e+01 2.803474898351865363e-01
-9.669795399999999574e+01 1.544646599999999914e+01 3.606243055833265321e-01
-9.680622599999999522e+01 1.564399500000000032e+01 2.722506904775374714e-01
-9.683836300000000108e+01 1.537424500000000016e+01 5.183945022010324477e-01
-9.694674399999999537e+01 1.557172300000000043e+01 5.656770605182114275e-01
-9.705529699999999593e+01 1.576917899999999939e+01 5.280571794828794463e-01
-9.702328900000000544e+01 1.603898999999999830e+01 3.333276695777264709e-01
-9.730466099999999585e+01 1.589412699999999923e+01 1.599827562599088759e-01
-9.726233399999999563e+01 1.625397999999999854e+01 2.259307095401908577e-02
-9.716402800000000184e+01 1.596661300000000061e+01 2.550352476642997468e-01
-9.729410199999999520e+01 1.598409499999999994e+01 5.043109442371316448e-02
-9.717690500000000497e+01 1.697355900000000162e+01 1.557713823206421282e-03
-9.720906399999999792e+01 1.670373700000000028e+01 8.040886019006997926e-03
-9.752289100000000133e+01 1.628880300000000148e+01 0.000000000000000000e+00
-9.737145700000000659e+01 1.645137000000000072e+01 0.000000000000000000e+00
-9.755861299999999403e+01 1.711600299999999919e+01 0.000000000000000000e+00
-9.728623899999999480e+01 1.717102600000000123e+01 1.202024872487176795e-03
-9.742776899999999785e+01 1.709858099999999936e+01 7.892031925152916171e-04
-9.744901799999999525e+01 1.691864899999999849e+01 0.000000000000000000e+00
-9.760080800000000067e+01 1.675607000000000113e+01 0.000000000000000000e+00
-9.769999300000000630e+01 1.704335000000000022e+01 0.000000000000000000e+00
-9.724323400000000106e+01 1.753078999999999965e+01 7.549501899723144640e-04
-9.716615199999999675e+01 1.706349399999999861e+01 1.140059362547377877e-03
-9.741711999999999705e+01 1.718854400000000027e+01 1.031922204323853414e-03
-9.714459499999999537e+01 1.724335599999999857e+01 6.988474134482005337e-04
-9.705698900000000151e+01 1.686598700000000051e+01 1.927655166478478696e-03
-9.677390900000000329e+01 1.701025800000000032e+01 1.913346289942146586e-04
-9.710000399999999843e+01 1.650627000000000066e+01 6.222069223010745498e-02
-9.694801999999999964e+01 1.666845299999999952e+01 6.596774110321973472e-03
-9.698037899999999922e+01 1.639870000000000161e+01 2.094505352341191895e-01
-9.695882400000000700e+01 1.657853800000000177e+01 1.833075822883182063e-02
-9.681753399999999488e+01 1.665069300000000041e+01 4.778106955417458536e-03
-9.680665399999999465e+01 1.674058899999999994e+01 1.792405051160851550e-03
-9.669799100000000180e+01 1.654297400000000096e+01 1.066170203473184447e-02
-9.641516199999999515e+01 1.668679099999999949e+01 6.567460212884724396e-04
-9.666517699999999991e+01 1.681260999999999939e+01 4.619070632991031629e-04
-9.642621699999999407e+01 1.659694700000000012e+01 2.063897944038285779e-03
-9.653462100000000135e+01 1.679466000000000037e+01 3.167056495225029729e-04
-9.655663199999999335e+01 1.661494000000000071e+01 2.488764478743132457e-03
-9.702455000000000496e+01 1.713574600000000103e+01 4.855777592794522485e-04
-9.689374200000000315e+01 1.711798399999999987e+01 2.305873578709094539e-04
-9.703538000000000352e+01 1.704582900000000123e+01 7.129052080812823535e-04
-9.688283300000000509e+01 1.720788200000000145e+01 1.546570906196596915e-04
-9.691550499999999602e+01 1.693817999999999913e+01 6.603363109822001434e-04
-9.678484199999999760e+01 1.692037099999999938e+01 3.621940535357591408e-04
-9.749484599999999546e+01 1.765582799999999963e+01 2.044822022008666116e-03
-9.699195400000000689e+01 1.740547899999999970e+01 1.837656001298854970e-04
-9.738507599999999798e+01 1.745841700000000074e+01 1.467126321591606013e-03
-9.727551300000000367e+01 1.726097100000000140e+01 1.123259017119714867e-03
-9.700283699999999953e+01 1.731557099999999849e+01 2.484685929701490096e-04
-9.710127500000000111e+01 1.760304700000000011e+01 2.325250441505720877e-04
-9.721080100000000357e+01 1.780058500000000166e+01 2.365650771969274758e-04
-9.711213100000000509e+01 1.751312899999999928e+01 3.282175829388514921e-04
-9.713379100000000221e+01 1.733328300000000155e+01 5.593574794837824493e-04
-9.746274300000000324e+01 1.792570500000000067e+01 7.381762713088821544e-04
-9.744125699999999313e+01 1.810560999999999865e+01 1.267778679351021893e-04
-9.722162899999999297e+01 1.771065600000000018e+01 3.906054696030475067e-04
-9.733133700000000488e+01 1.790814999999999912e+01 3.108725955376362557e-04
-9.747346100000000035e+01 1.783574799999999883e+01 1.312638480206740560e-03
-9.758350500000000238e+01 1.803314200000000156e+01 7.301845985039207270e-04
-9.772563200000000450e+01 1.796055600000000041e+01 2.581602770350497050e-03
-9.799908299999999883e+01 1.790504999999999924e+01 0.000000000000000000e+00
-9.800952900000000056e+01 1.781503500000000173e+01 0.000000000000000000e+00
-9.792003499999999860e+01 1.743782399999999910e+01 0.000000000000000000e+00
-9.763669199999999648e+01 1.758327399999999940e+01 1.584280553458266389e-03
-9.761546599999999785e+01 1.776322899999999905e+01 2.627583497241314705e-03
-9.752680200000000355e+01 1.738592699999999880e+01 1.101857853125794108e-03
-9.750551500000000260e+01 1.756586300000000023e+01 1.941239610586701627e-03
-9.764728200000000413e+01 1.749329300000000131e+01 5.992730059817735549e-04
-9.775735299999999484e+01 1.769059299999999979e+01 1.104341397673596747e-03
-9.795129199999999514e+01 1.716777799999999843e+01 0.000000000000000000e+00
-9.777842200000000616e+01 1.751060599999999923e+01 0.000000000000000000e+00
-9.756918600000000197e+01 1.702602399999999960e+01 0.000000000000000000e+00
-9.767895599999999945e+01 1.722333499999999873e+01 0.000000000000000000e+00
-9.771048999999999296e+01 1.695335400000000092e+01 0.000000000000000000e+00
-9.782037499999999852e+01 1.715060199999999924e+01 0.000000000000000000e+00
-9.814093300000000397e+01 1.783213299999999890e+01 0.000000000000000000e+00
-9.803037500000000648e+01 1.763500000000000156e+01 0.000000000000000000e+00
-9.789912300000000300e+01 1.761784300000000059e+01 0.000000000000000000e+00
-9.806153299999999717e+01 1.736493000000000109e+01 0.000000000000000000e+00
-9.804077599999999393e+01 1.754497900000000143e+01 0.000000000000000000e+00
-9.817198899999999639e+01 1.756203899999999862e+01 0.000000000000000000e+00
-9.831348699999999496e+01 1.748896600000000134e+01 0.000000000000000000e+00
-9.829295299999999713e+01 1.766905900000000074e+01 0.000000000000000000e+00
-9.820291600000000187e+01 1.729192499999999910e+01 0.000000000000000000e+00
-9.807188999999999623e+01 1.727490200000000087e+01 0.000000000000000000e+00
-9.845486999999999966e+01 1.741578300000000112e+01 0.000000000000000000e+00
-9.843448999999999671e+01 1.759590299999999985e+01 0.000000000000000000e+00
-9.835438999999999510e+01 1.712875400000000070e+01 0.000000000000000000e+00
-9.832373400000000174e+01 1.739891599999999983e+01 0.000000000000000000e+00
-9.859613799999999628e+01 1.734249200000000002e+01 0.000000000000000000e+00
-9.857590999999999326e+01 1.752263800000000060e+01 0.000000000000000000e+00
-9.849547099999999489e+01 1.705551900000000032e+01 0.000000000000000000e+00
-9.810287399999999991e+01 1.700480500000000106e+01 0.000000000000000000e+00
-9.862638300000000413e+01 1.707225800000000149e+01 0.000000000000000000e+00
-9.854592800000000352e+01 1.660514300000000176e+01 2.521155509344552015e-01
-9.834418499999999597e+01 1.721881099999999876e+01 0.000000000000000000e+00
-9.824395599999999718e+01 1.693174300000000088e+01 0.000000000000000000e+00
-9.848533999999999367e+01 1.714558800000000005e+01 0.000000000000000000e+00
-9.846504000000000190e+01 1.732572000000000045e+01 0.000000000000000000e+00
-9.837475999999999487e+01 1.694863600000000048e+01 0.000000000000000000e+00
-9.815423300000000495e+01 1.655459899999999962e+01 0.000000000000000000e+00
-9.788285500000000638e+01 1.661052600000000012e+01 0.000000000000000000e+00
-9.785168099999999924e+01 1.688057399999999930e+01 0.000000000000000000e+00
-9.776274200000000292e+01 1.650333900000000042e+01 0.000000000000000000e+00
-9.774188599999999383e+01 1.668335199999999929e+01 0.000000000000000000e+00
-9.763229099999999505e+01 1.648609400000000136e+01 0.000000000000000000e+00
-9.738203699999999685e+01 1.636140100000000075e+01 0.000000000000000000e+00
-9.766363800000000595e+01 1.621609700000000132e+01 0.000000000000000000e+00
-9.751238399999999729e+01 1.637878800000000012e+01 0.000000000000000000e+00
-9.754385899999999765e+01 1.610882399999999848e+01 0.000000000000000000e+00
-9.741368300000000602e+01 1.609148000000000067e+01 0.000000000000000000e+00
-9.802371399999999824e+01 1.653759200000000007e+01 0.000000000000000000e+00
-9.798241600000000062e+01 1.689771199999999851e+01 0.000000000000000000e+00
-9.801340999999999326e+01 1.662762499999999832e+01 0.000000000000000000e+00
-9.790356400000000292e+01 1.643048200000000136e+01 0.000000000000000000e+00
-9.804427699999999390e+01 1.635751899999999992e+01 0.000000000000000000e+00
-9.791389700000000573e+01 1.634045599999999965e+01 0.000000000000000000e+00
-9.823371600000000115e+01 1.702179200000000137e+01 0.000000000000000000e+00
-9.812345999999999435e+01 1.682472900000000138e+01 0.000000000000000000e+00
-9.813373199999999485e+01 1.673468799999999845e+01 0.000000000000000000e+00
-9.816446399999999528e+01 1.646455200000000119e+01 0.000000000000000000e+00
-9.851569200000000137e+01 1.687537400000000076e+01 0.000000000000000000e+00
-9.827459100000000092e+01 1.666158400000000128e+01 0.000000000000000000e+00
-9.840521499999999833e+01 1.667844399999999894e+01 4.105015611878185325e-03
-9.829494699999999341e+01 1.648146799999999956e+01 0.000000000000000000e+00
-9.852578400000000158e+01 1.678529899999999841e+01 6.444466016268492192e-02
-9.855598200000000020e+01 1.651506200000000035e+01 2.529688737314830793e-01
-9.818488399999999672e+01 1.628444999999999965e+01 0.000000000000000000e+00
-9.830510599999999499e+01 1.639140700000000095e+01 0.000000000000000000e+00
-9.833550200000000530e+01 1.612121099999999885e+01 0.000000000000000000e+00
-9.819507400000000530e+01 1.619439600000000112e+01 0.000000000000000000e+00
-9.810563999999999396e+01 1.581724700000000006e+01 0.000000000000000000e+00
-9.808523999999999887e+01 1.599734600000000029e+01 0.000000000000000000e+00
-9.811581999999999937e+01 1.572719400000000078e+01 5.411713690888313166e-02
-9.821541299999999808e+01 1.601428299999999894e+01 0.000000000000000000e+00
-9.860606300000000601e+01 1.606463000000000108e+01 2.184351282831430152e-02
-9.836578299999999331e+01 1.585099800000000059e+01 0.000000000000000000e+00
-9.874624599999999930e+01 1.599115499999999912e+01 7.052152224059153596e-02
-9.865651400000000137e+01 1.680200800000000072e+01 2.002097371016105243e-01
-9.866653200000000368e+01 1.671191999999999922e+01 3.063526421327762428e-01
-9.879722499999999741e+01 1.672853699999999932e+01 3.625100136980570209e-01
-9.868653299999999717e+01 1.653173999999999921e+01 3.440387098652732401e-01
-9.835570199999999375e+01 1.594107100000000088e+01 0.000000000000000000e+00
-9.822556400000000565e+01 1.592422200000000032e+01 0.000000000000000000e+00
-9.930077500000000157e+01 1.697444899999999990e+01 4.476895286434610655e-01
-9.908812299999999595e+01 1.649116899999999930e+01 3.862851175115644686e-01
-9.893782600000000116e+01 1.665496399999999966e+01 4.266468029788896832e-01
-9.891804100000000233e+01 1.683517900000000012e+01 3.560269331850681729e-01
-9.874731099999999628e+01 1.717900500000000008e+01 0.000000000000000000e+00
-9.877729600000000687e+01 1.690872900000000101e+01 1.589286895697394619e-01
-9.863643899999999576e+01 1.698217599999999905e+01 0.000000000000000000e+00
-9.876731300000000147e+01 1.699882300000000157e+01 2.576740817021931987e-02
-9.888827600000000473e+01 1.710548800000000114e+01 8.830384126102472364e-03
-9.890813099999999736e+01 1.692528400000000133e+01 2.551920667369783069e-01
-9.895977999999999497e+01 1.766260499999999922e+01 0.000000000000000000e+00
-9.884842199999999934e+01 1.746587600000000151e+01 0.000000000000000000e+00
-9.871721399999999846e+01 1.744926299999999841e+01 0.000000000000000000e+00
-9.898957199999999546e+01 1.739229900000000129e+01 0.000000000000000000e+00
-9.899947899999999379e+01 1.730219400000000007e+01 0.000000000000000000e+00
-9.887833100000000286e+01 1.719558800000000076e+01 0.000000000000000000e+00
-9.913060799999999517e+01 1.731861800000000073e+01 0.000000000000000000e+00
-9.902912999999999499e+01 1.703186699999999831e+01 2.248402369415572200e-01
-9.938321700000000192e+01 1.744134100000000132e+01 0.000000000000000000e+00
-9.914044099999999560e+01 1.722850100000000140e+01 6.861293949468856047e-03
-9.927152999999999849e+01 1.724483199999999883e+01 1.346622303857293937e-02
-9.916007199999999955e+01 1.704826500000000067e+01 2.944324944524988052e-01
-1.000397499999999980e+02 1.752135300000000129e+01 0.000000000000000000e+00
-9.941233900000000290e+01 1.717094399999999865e+01 1.399654959339824700e-01
-9.980562500000000625e+01 1.721914800000000056e+01 7.543597342359467661e-02
-9.955303600000000586e+01 1.709695400000000021e+01 2.366106329578607226e-01
-9.977706999999999482e+01 1.748960800000000049e+01 0.000000000000000000e+00
-9.970316400000000101e+01 1.693271199999999865e+01 2.971220258602657593e-01
-9.969362099999999316e+01 1.702286399999999844e+01 2.599400385196810048e-01
-9.958184900000000539e+01 1.682651699999999906e+01 4.034097989483473867e-01
-1.000120200000000068e+02 1.651371699999999976e+01 3.316027795648502918e-01
-9.935898000000000252e+01 1.643364300000000000e+01 4.489201699790115185e-01
-9.947030300000000125e+01 1.663010999999999839e+01 4.874731701078282020e-01
-9.924787499999999341e+01 1.623712000000000089e+01 3.530384697392356386e-01
-9.947992899999999850e+01 1.653996499999999870e+01 5.078589676939256892e-01
-9.931050199999999961e+01 1.688431900000000141e+01 5.204293354037370367e-01
-9.921870300000000498e+01 1.650751500000000149e+01 4.063831969271238242e-01
-9.905867700000000298e+01 1.676152499999999890e+01 4.799018837270288551e-01
-9.918943600000000060e+01 1.677789699999999939e+01 5.135654809698733114e-01
-9.944136699999999962e+01 1.690053299999999936e+01 4.477977696474422231e-01
-9.933961999999999648e+01 1.661391800000000174e+01 4.419501201275192748e-01
-9.919920299999999713e+01 1.668777100000000146e+01 4.698601003221889449e-01
-9.932992400000000544e+01 1.670405299999999826e+01 4.533344347556546583e-01
-9.911747099999999477e+01 1.622079799999999850e+01 2.839934250063164134e-01
-9.886660500000000695e+01 1.609780699999999953e+01 1.324201110992962449e-01
-9.885672800000000393e+01 1.618791600000000130e+01 1.532020337182659897e-01
-9.883693999999999846e+01 1.636813000000000073e+01 2.350002957807293402e-01
-9.899690800000000479e+01 1.611427799999999877e+01 1.954591207996141666e-01
-9.888632400000000189e+01 1.591758300000000048e+01 1.227986219750891589e-01
-9.875615700000000174e+01 1.590105199999999996e+01 7.548828330523262020e-02
-9.925757799999999520e+01 1.614698500000000081e+01 3.308049548155774788e-01
-9.922843799999999703e+01 1.641738499999999945e+01 3.887176237584349936e-01
-9.936864500000000078e+01 1.634350299999999834e+01 4.398218810290662750e-01
-9.938794400000000451e+01 1.616321999999999903e+01 3.932487357447049248e-01
-9.949915000000000020e+01 1.635967300000000080e+01 5.020174549330603808e-01
-9.950874600000000214e+01 1.626952500000000157e+01 4.776847353370618499e-01
-9.990021299999999371e+01 1.631753199999999993e+01 4.460770353077418426e-01
-1.000026399999999995e+02 1.660388700000000028e+01 2.670742512831446591e-01
-1.000307399999999944e+02 1.633337399999999917e+01 3.757653026905725668e-01
-9.963921399999999551e+01 1.628560799999999986e+01 5.029323664651365045e-01
-9.961057399999999973e+01 1.655606900000000081e+01 5.127415796017813499e-01
-9.975073700000000088e+01 1.648193200000000047e+01 4.917082433628555127e-01
-9.987193000000000609e+01 1.658802999999999983e+01 3.542878807117239570e-01
-9.976022500000000548e+01 1.639177099999999854e+01 5.069270372519703027e-01
-9.994620199999999954e+01 1.714488400000000112e+01 2.745535231354894953e-02
-9.983409600000000239e+01 1.694867599999999896e+01 1.920011215710397956e-01
-1.000960299999999989e+02 1.698035199999999989e+01 0.000000000000000000e+00
-9.998386200000000201e+01 1.678422399999999826e+01 9.097470715404204489e-02
-9.962013000000000318e+01 1.646591600000000000e+01 5.348374044494635937e-01
-9.972222100000000466e+01 1.675240399999999852e+01 2.942089542501847843e-01
-9.997445999999999344e+01 1.687439099999999925e+01 4.832511167335044183e-02
-9.986248399999999492e+01 1.667819300000000027e+01 2.715191445689589811e-01
-1.002270199999999960e+02 1.699606400000000050e+01 0.000000000000000000e+00
-1.002641200000000055e+02 1.663535500000000056e+01 7.814322679637035474e-02
-1.001240499999999969e+02 1.670983599999999925e+01 7.807037812203009020e-02
-1.002548599999999936e+02 1.672553399999999968e+01 9.288403165535665668e-03
-1.003764800000000008e+02 1.683132900000000021e+01 0.000000000000000000e+00
-1.005165499999999952e+02 1.675667800000000085e+01 0.000000000000000000e+00
-1.005074000000000041e+02 1.684686400000000006e+01 0.000000000000000000e+00
-1.004040899999999965e+02 1.656078099999999864e+01 6.422385201601747695e-02
-1.005348299999999995e+02 1.657630400000000037e+01 9.191523735159592978e-03
-1.006565099999999973e+02 1.668193499999999929e+01 0.000000000000000000e+00
-1.011799800000000005e+02 1.674286999999999992e+01 0.000000000000000000e+00
-1.007873500000000035e+02 1.669729399999999941e+01 0.000000000000000000e+00
-1.045730999999999966e+02 1.900961500000000015e+01 7.079180316962683239e-01
-1.043649400000000043e+02 1.826368899999999940e+01 9.658984169188786773e-01
-1.038435099999999949e+02 1.812177000000000149e+01 7.652909146295727716e-01
-1.042472400000000050e+02 1.807068200000000147e+01 9.054703494101061789e-01
-1.043577300000000037e+02 1.835378199999999893e+01 9.579980307084897673e-01
-1.046224399999999974e+02 1.837908600000000092e+01 9.953941135396253692e-01
-1.044544599999999974e+02 1.881690700000000049e+01 6.599956655683771878e-01
-1.044829399999999993e+02 1.845656500000000122e+01 9.880762587220759396e-01
-1.044615699999999947e+02 1.872682100000000105e+01 7.784327288656375243e-01
-1.046153800000000018e+02 1.846915900000000121e+01 1.000000000000000000e+00
-1.042254099999999966e+02 1.834098600000000090e+01 8.861415763214717245e-01
-1.044758199999999988e+02 1.854664999999999964e+01 9.465939789363577717e-01
-1.041224899999999991e+02 1.796765299999999854e+01 8.563292561050155349e-01
