-8.504379000000000133e+01 9.353111999999999426e+00 2.832669999999999910e-01
-8.508087100000000191e+01 9.372901999999999845e+00 3.329099999999999837e-01
-8.511890300000000309e+01 9.387902000000000413e+00 3.500809999999999755e-01
-8.515849500000000205e+01 9.397285999999999362e+00 3.380159999999999831e-01
-8.519881200000000376e+01 9.406271999999999522e+00 3.083370000000000277e-01
-8.523843200000000309e+01 9.419040999999999997e+00 2.792299999999999782e-01
-8.527768700000000024e+01 9.433915000000000717e+00 2.683749999999999747e-01
-8.531634800000000496e+01 9.451558000000000348e+00 2.863879999999999759e-01
-8.535375000000000512e+01 9.474016999999999911e+00 3.298619999999999886e-01
-8.539041199999999776e+01 9.499430000000000263e+00 3.788380000000000081e-01
-8.542673000000000627e+01 9.526488999999999763e+00 4.075380000000000114e-01
-8.546169500000000596e+01 9.553077000000000041e+00 3.981810000000000072e-01
-8.549580500000000427e+01 9.578587999999999880e+00 3.514030000000000209e-01
-8.553088400000000036e+01 9.604421000000000319e+00 2.866650000000000031e-01
-8.556630699999999479e+01 9.631634999999999280e+00 2.264130000000000031e-01
-8.560088700000000017e+01 9.660040999999999656e+00 1.820479999999999876e-01
-8.563403599999999471e+01 9.688530999999999338e+00 1.600439999999999918e-01
-8.566578800000000626e+01 9.716801999999999495e+00 1.723369999999999902e-01
-8.569635700000000611e+01 9.745464999999999378e+00 2.433609999999999940e-01
-8.572620200000000068e+01 9.775544000000000011e+00 3.845660000000000189e-01
-8.575586800000000665e+01 9.806801000000000101e+00 5.449110000000000342e-01
-8.578573400000000504e+01 9.839135000000000630e+00 6.176289999999999836e-01
-8.581579499999999427e+01 9.872189000000000547e+00 5.434470000000000134e-01
-8.584579499999999541e+01 9.905656000000000461e+00 3.838659999999999850e-01
-8.587557400000000030e+01 9.939289999999999736e+00 2.493680000000000063e-01
-8.590523399999999299e+01 9.973129000000000133e+00 1.855890000000000040e-01
-8.593483100000000263e+01 1.000735700000000072e+01 1.563559999999999950e-01
-8.596419799999999611e+01 1.004204799999999942e+01 1.151070000000000010e-01
-8.599331800000000214e+01 1.007741200000000070e+01 5.742699999999999888e-02
-8.602170200000000477e+01 1.011313099999999920e+01 9.945000000000000714e-03
-8.604941900000000032e+01 1.014908900000000003e+01 7.550000000000000287e-04
-8.607662399999999536e+01 1.018589799999999990e+01 3.142099999999999754e-02
-8.610279699999999536e+01 1.022311000000000014e+01 1.256659999999999999e-01
-8.612851600000000474e+01 1.025998399999999933e+01 2.740799999999999903e-01
-8.615432800000000668e+01 1.029641600000000068e+01 4.451829999999999954e-01
-8.618072999999999695e+01 1.033260699999999943e+01 5.992309999999999581e-01
-8.620798899999999776e+01 1.036801999999999957e+01 6.988630000000000120e-01
-8.623601800000000139e+01 1.040236200000000011e+01 7.118470000000000075e-01
-8.626547499999999502e+01 1.043769099999999916e+01 6.306950000000000056e-01
-8.629442400000000646e+01 1.047203900000000054e+01 4.707819999999999783e-01
-8.632417399999999930e+01 1.050575699999999912e+01 2.511900000000000244e-01
-8.494021399999999744e+01 9.341177000000000064e+00 1.624039999999999928e-01
-8.497375099999999293e+01 9.365900999999999144e+00 3.054810000000000025e-01
-8.500915399999999522e+01 9.390776000000000678e+00 4.158439999999999914e-01
-8.504614200000000324e+01 9.410113000000000838e+00 4.831719999999999904e-01
-8.508349099999999510e+01 9.426061000000000689e+00 5.017540000000000333e-01
-8.512158700000000522e+01 9.438871999999999929e+00 4.741819999999999924e-01
-8.516136199999999690e+01 9.448306999999999789e+00 4.143080000000000096e-01
-8.520093900000000531e+01 9.460340999999999667e+00 3.479119999999999990e-01
-8.524013100000000520e+01 9.474747000000000696e+00 3.029660000000000131e-01
-8.527833800000000508e+01 9.493420000000000414e+00 2.992179999999999840e-01
-8.531460500000000025e+01 9.518050999999999817e+00 3.376540000000000097e-01
-8.534992800000000557e+01 9.543723999999999208e+00 3.938420000000000254e-01
-8.538527100000000303e+01 9.569162000000000390e+00 4.331949999999999967e-01
-8.542100100000000396e+01 9.595119000000000398e+00 4.301929999999999921e-01
-8.545597499999999513e+01 9.621256999999999948e+00 3.824969999999999759e-01
-8.549071899999999857e+01 9.648016000000000147e+00 3.192309999999999870e-01
-8.552560499999999877e+01 9.676940999999999349e+00 2.759969999999999923e-01
-8.555932199999999455e+01 9.705792999999999893e+00 2.543199999999999905e-01
-8.559141200000000538e+01 9.733406999999999698e+00 2.528369999999999784e-01
-8.562243100000000595e+01 9.760956000000000188e+00 2.837049999999999850e-01
-8.565253099999999620e+01 9.789590000000000458e+00 3.498629999999999796e-01
-8.568214700000000050e+01 9.819772000000000389e+00 4.658140000000000058e-01
-8.571155600000000163e+01 9.851191999999999283e+00 5.971950000000000314e-01
-8.574119600000000219e+01 9.883679000000000769e+00 6.484779999999999989e-01
-8.577105400000000657e+01 9.916900999999999300e+00 5.699079999999999702e-01
-8.580088899999999796e+01 9.950497999999999621e+00 4.305869999999999975e-01
-8.583051399999999376e+01 9.984234999999999971e+00 3.313309999999999866e-01
-8.585992799999999647e+01 1.001816799999999930e+01 2.929649999999999754e-01
-8.588928300000000604e+01 1.005254099999999973e+01 2.609409999999999785e-01
-8.591848500000000399e+01 1.008721899999999927e+01 1.911299999999999943e-01
-8.594791700000000390e+01 1.012263399999999969e+01 9.671599999999999642e-02
-8.597657900000000097e+01 1.015804400000000030e+01 1.976100000000000079e-02
-8.600498299999999574e+01 1.019418800000000047e+01 0.000000000000000000e+00
-8.603237799999999424e+01 1.023172899999999963e+01 1.170299999999999986e-02
-8.605790799999999763e+01 1.026872700000000016e+01 1.048359999999999986e-01
-8.608296099999999740e+01 1.030511199999999938e+01 2.607470000000000065e-01
-8.610852300000000525e+01 1.034131900000000037e+01 4.376639999999999975e-01
-8.613452999999999804e+01 1.037734900000000060e+01 5.904390000000000471e-01
-8.616113099999999747e+01 1.041325199999999995e+01 6.825560000000000516e-01
-8.618806499999999460e+01 1.044923600000000086e+01 6.861720000000000041e-01
-8.621836700000000064e+01 1.048450099999999985e+01 5.984899999999999665e-01
-8.624843300000000568e+01 1.051788699999999999e+01 4.432189999999999741e-01
-8.627809499999999332e+01 1.055142700000000033e+01 2.361900000000000110e-01
-8.490805000000000291e+01 9.376540000000000319e+00 2.230759999999999965e-01
-8.494098599999999522e+01 9.402179000000000286e+00 4.160400000000000209e-01
-8.497614799999999491e+01 9.426458999999999477e+00 5.601519999999999833e-01
-8.501206500000000688e+01 9.446687000000000722e+00 6.450019999999999643e-01
-8.504835900000000493e+01 9.463822000000000401e+00 6.654379999999999740e-01
-8.508532399999999996e+01 9.477859999999999729e+00 6.215340000000000309e-01
-8.512330799999999442e+01 9.489214999999999733e+00 5.258129999999999749e-01
-8.516300900000000240e+01 9.500617999999999341e+00 4.112149999999999972e-01
-8.520171299999999803e+01 9.515971000000000402e+00 3.184130000000000016e-01
-8.523934500000000014e+01 9.535897999999999541e+00 2.797290000000000054e-01
-8.527517600000000186e+01 9.560859999999999914e+00 3.063250000000000139e-01
-8.531029499999999643e+01 9.586133000000000237e+00 3.715649999999999786e-01
-8.534444899999999734e+01 9.611869000000000440e+00 4.287889999999999757e-01
-8.537907599999999775e+01 9.638234000000000634e+00 4.405450000000000199e-01
-8.541435500000000047e+01 9.665091000000000321e+00 3.983729999999999771e-01
-8.544958300000000406e+01 9.692667000000000144e+00 3.397410000000000152e-01
-8.548518699999999626e+01 9.721942999999999557e+00 3.195160000000000222e-01
-8.551826599999999701e+01 9.750422000000000367e+00 3.241029999999999744e-01
-8.554906300000000385e+01 9.777335000000000775e+00 3.399019999999999819e-01
-8.557943000000000211e+01 9.804648999999999504e+00 4.072779999999999734e-01
-8.560919099999999560e+01 9.833633000000000735e+00 4.982639999999999847e-01
-8.563825300000000595e+01 9.864171000000000689e+00 5.859069999999999556e-01
-8.566724800000000073e+01 9.895606000000000790e+00 6.503339999999999677e-01
-8.569676099999999508e+01 9.927901000000000309e+00 6.569540000000000379e-01
-8.572678299999999751e+01 9.960921000000000802e+00 6.007430000000000270e-01
-8.575671800000000644e+01 9.994438000000000599e+00 5.197019999999999973e-01
-8.578642899999999827e+01 1.002806799999999932e+01 4.532769999999999855e-01
-8.581604699999999752e+01 1.006194200000000016e+01 4.045250000000000234e-01
-8.584558400000000233e+01 1.009633499999999984e+01 3.448149999999999826e-01
-8.587478699999999776e+01 1.013109900000000074e+01 2.536490000000000133e-01
-8.590391599999999528e+01 1.016641899999999943e+01 1.465760000000000118e-01
-8.593254100000000051e+01 1.020211800000000046e+01 6.030599999999999850e-02
-8.596109300000000530e+01 1.023838600000000021e+01 3.245399999999999674e-02
-8.598953799999999603e+01 1.027560800000000008e+01 6.836899999999999922e-02
-8.601558699999999646e+01 1.031317999999999913e+01 1.809820000000000040e-01
-8.603939599999999643e+01 1.034989900000000063e+01 3.392519999999999980e-01
-8.606392300000000262e+01 1.038569500000000012e+01 4.972400000000000153e-01
-8.609092300000000364e+01 1.042079200000000050e+01 6.170879999999999699e-01
-8.611941400000000613e+01 1.045599400000000045e+01 6.740300000000000180e-01
-8.614789600000000291e+01 1.049182799999999993e+01 6.529599999999999849e-01
-8.617604400000000453e+01 1.052719199999999944e+01 5.572129999999999583e-01
-8.620434500000000355e+01 1.056209600000000037e+01 4.075550000000000006e-01
-8.623252999999999702e+01 1.059693799999999975e+01 2.167659999999999865e-01
-8.487697599999999909e+01 9.409793999999999770e+00 2.829889999999999906e-01
-8.491025199999999984e+01 9.436315000000000452e+00 5.233520000000000394e-01
-8.494386400000000492e+01 9.461318000000000339e+00 6.965710000000000512e-01
-8.497859099999999444e+01 9.481804999999999595e+00 7.935090000000000199e-01
-8.501397299999999291e+01 9.499829999999999330e+00 8.154219999999999802e-01
-8.504989700000000141e+01 9.514454000000000633e+00 7.613990000000000480e-01
-8.508736700000000042e+01 9.527098000000000511e+00 6.324410000000000309e-01
-8.512558300000000600e+01 9.540003999999999706e+00 4.682040000000000091e-01
-8.516340700000000652e+01 9.554449999999999221e+00 3.222499999999999809e-01
-8.520043599999999628e+01 9.575891000000000375e+00 2.394129999999999869e-01
-8.523677600000000609e+01 9.599626000000000658e+00 2.471250000000000113e-01
-8.527281899999999837e+01 9.625228999999999147e+00 3.204670000000000019e-01
-8.530739499999999964e+01 9.652440999999999605e+00 4.019800000000000040e-01
-8.534033300000000111e+01 9.679712999999999568e+00 4.403369999999999784e-01
-8.537450200000000677e+01 9.707074999999999676e+00 4.190010000000000123e-01
-8.540948899999999355e+01 9.735620000000000829e+00 3.646119999999999917e-01
-8.544410200000000088e+01 9.765418000000000376e+00 3.412339999999999818e-01
-8.547672799999999427e+01 9.794200999999999269e+00 3.656650000000000178e-01
-8.550717000000000212e+01 9.821685999999999694e+00 4.255079999999999973e-01
-8.553650799999999776e+01 9.849391000000000673e+00 5.432299999999999907e-01
-8.556574799999999925e+01 9.878622000000000014e+00 6.799570000000000336e-01
-8.559442300000000614e+01 9.909254999999999924e+00 7.799340000000000162e-01
-8.562282799999999838e+01 9.940645999999999205e+00 8.110610000000000319e-01
-8.565183899999999539e+01 9.972635000000000360e+00 7.791120000000000267e-01
-8.568181300000000533e+01 1.000493900000000025e+01 7.268499999999999961e-01
-8.571235699999999724e+01 1.003794000000000075e+01 6.569220000000000059e-01
-8.574249500000000523e+01 1.007113000000000014e+01 5.588349999999999707e-01
-8.577263800000000060e+01 1.010453099999999971e+01 4.511399999999999855e-01
-8.580293700000000001e+01 1.013874299999999984e+01 3.509650000000000269e-01
-8.583268200000000547e+01 1.017392300000000027e+01 2.578929999999999834e-01
-8.586150200000000154e+01 1.020972300000000033e+01 1.756790000000000018e-01
-8.588989999999999725e+01 1.024524899999999938e+01 1.252929999999999877e-01
-8.591827399999999670e+01 1.028142500000000048e+01 1.353000000000000036e-01
-8.594617599999999413e+01 1.031844700000000081e+01 2.130660000000000054e-01
-8.597277800000000525e+01 1.035531300000000066e+01 3.450500000000000234e-01
-8.599805299999999875e+01 1.039098199999999927e+01 4.859080000000000066e-01
-8.602387600000000134e+01 1.042545800000000078e+01 5.928909999999999458e-01
-8.605176899999999307e+01 1.045857700000000001e+01 6.460050000000000514e-01
-8.608216699999999832e+01 1.049348700000000001e+01 6.448460000000000303e-01
-8.611172899999999686e+01 1.053075600000000023e+01 5.887480000000000491e-01
-8.613912600000000452e+01 1.056743699999999997e+01 4.845630000000000215e-01
-8.616650599999999827e+01 1.060417499999999968e+01 3.472839999999999816e-01
-8.619044499999999687e+01 1.064072200000000024e+01 1.837080000000000102e-01
-8.484686100000000408e+01 9.441200999999999510e+00 3.335679999999999756e-01
-8.487992599999999754e+01 9.468450999999999951e+00 6.111699999999999910e-01
-8.491225500000000181e+01 9.494616999999999862e+00 8.020580000000000487e-01
-8.494518300000000011e+01 9.516287000000000162e+00 8.994159999999999933e-01
-8.497966599999999460e+01 9.534729000000000454e+00 9.169880000000000253e-01
-8.501492799999999761e+01 9.549671999999999272e+00 8.659270000000000023e-01
-8.505286700000000621e+01 9.562953999999999510e+00 7.222399999999999931e-01
-8.509150800000000459e+01 9.578580000000000538e+00 5.247030000000000305e-01
-8.512874800000000164e+01 9.594874000000000791e+00 3.393369999999999997e-01
-8.516435099999999636e+01 9.613768999999999565e+00 2.203930000000000056e-01
-8.520051499999999578e+01 9.636153000000000191e+00 2.065309999999999924e-01
-8.523746400000000278e+01 9.662387000000000725e+00 2.778390000000000026e-01
-8.527205499999999461e+01 9.692249999999999588e+00 3.708489999999999842e-01
-8.530389599999999461e+01 9.721607999999999805e+00 4.265019999999999922e-01
-8.533616100000000415e+01 9.750363999999999365e+00 4.322159999999999891e-01
-8.536951899999999682e+01 9.779766000000000403e+00 4.037080000000000113e-01
-8.540270599999999490e+01 9.809290999999999983e+00 3.861580000000000013e-01
-8.543525699999999290e+01 9.838108000000000075e+00 4.373719999999999830e-01
-8.546606300000000545e+01 9.865591999999999473e+00 5.741260000000000252e-01
-8.549499400000000549e+01 9.893812999999999747e+00 7.402279999999999971e-01
-8.552336099999999419e+01 9.923351000000000255e+00 8.698669999999999458e-01
-8.555130400000000179e+01 9.954185999999999979e+00 9.597189999999999888e-01
-8.557941099999999324e+01 9.986102000000000700e+00 9.942290000000000294e-01
-8.560855499999999552e+01 1.001855600000000024e+01 9.608970000000000011e-01
-8.563763400000000559e+01 1.004990199999999945e+01 8.922320000000000251e-01
-8.566759000000000412e+01 1.008161999999999914e+01 7.957889999999999686e-01
-8.569820900000000563e+01 1.011403600000000047e+01 6.551420000000000021e-01
-8.572874699999999848e+01 1.014723500000000023e+01 4.927279999999999993e-01
-8.575960600000000511e+01 1.018172700000000042e+01 3.493290000000000006e-01
-8.578950000000000387e+01 1.021777299999999933e+01 2.444220000000000004e-01
-8.581821899999999914e+01 1.025315600000000060e+01 1.847010000000000041e-01
-8.584669100000000697e+01 1.028760800000000053e+01 1.832930000000000115e-01
-8.587592499999999518e+01 1.032337500000000041e+01 2.494679999999999953e-01
-8.590409400000000062e+01 1.035862099999999941e+01 3.643700000000000272e-01
-8.593124099999999999e+01 1.039351399999999970e+01 4.918799999999999839e-01
-8.595944000000000074e+01 1.042664300000000033e+01 5.878259999999999597e-01
-8.598798499999999478e+01 1.046049400000000063e+01 6.275589999999999780e-01
-8.601670699999999670e+01 1.049470099999999917e+01 6.116439999999999655e-01
-8.604675400000000707e+01 1.053107199999999999e+01 5.566119999999999957e-01
-8.607528999999999542e+01 1.056977400000000067e+01 4.734599999999999920e-01
-8.610272199999999998e+01 1.060785599999999995e+01 3.702190000000000203e-01
-8.612754400000000032e+01 1.064533999999999914e+01 2.568750000000000200e-01
-8.614709100000000319e+01 1.068286699999999989e+01 1.323910000000000087e-01
-8.481705700000000547e+01 9.471653999999999129e+00 3.677320000000000033e-01
-8.485027599999999381e+01 9.499204999999999899e+00 6.670319999999999583e-01
-8.488138299999999958e+01 9.527032999999999419e+00 8.614479999999999915e-01
-8.491198599999999885e+01 9.550183999999999784e+00 9.454709999999999503e-01
-8.494384700000000521e+01 9.569884999999999309e+00 9.472509999999999541e-01
-8.497767799999999738e+01 9.585798999999999737e+00 9.075860000000000039e-01
-8.501628599999999381e+01 9.602169999999999206e+00 7.719690000000000163e-01
-8.505723899999999560e+01 9.619084000000000856e+00 5.757870000000000488e-01
-8.509525299999999959e+01 9.635239000000000331e+00 3.900600000000000178e-01
-8.513104300000000535e+01 9.654102999999999213e+00 2.660870000000000180e-01
-8.516585800000000006e+01 9.675245999999999569e+00 2.344680000000000097e-01
-8.520196699999999623e+01 9.701216999999999757e+00 2.844189999999999774e-01
-8.523690899999999715e+01 9.731422999999999490e+00 3.578230000000000022e-01
-8.526877600000000257e+01 9.762002000000000734e+00 3.911510000000000264e-01
-8.529981800000000192e+01 9.791491999999999862e+00 3.905399999999999983e-01
-8.533130500000000040e+01 9.821175999999999462e+00 3.941049999999999831e-01
-8.536368299999999465e+01 9.850694999999999979e+00 4.429359999999999964e-01
-8.539569899999999336e+01 9.878781999999999286e+00 5.781039999999999512e-01
-8.542697800000000541e+01 9.907028000000000389e+00 7.753229999999999844e-01
-8.545583899999999744e+01 9.936353000000000435e+00 9.198899999999999855e-01
-8.548272500000000207e+01 9.966545999999999239e+00 9.485040000000000138e-01
-8.550940500000000100e+01 9.998390000000000555e+00 9.653089999999999726e-01
-8.553761199999999576e+01 1.003164400000000001e+01 9.972689999999999610e-01
-8.556674900000000150e+01 1.006422399999999939e+01 1.000162999999999913e+00
-8.559667500000000473e+01 1.009514800000000001e+01 9.742499999999999494e-01
-8.562640000000000384e+01 1.012556799999999946e+01 9.004490000000000549e-01
-8.565649999999999409e+01 1.015682900000000011e+01 7.515589999999999771e-01
-8.568696900000000483e+01 1.018977100000000036e+01 5.550439999999999818e-01
-8.571751999999999327e+01 1.022343799999999980e+01 3.695180000000000131e-01
-8.574807300000000509e+01 1.025726200000000077e+01 2.363399999999999945e-01
-8.577845700000000306e+01 1.029120099999999915e+01 1.761459999999999970e-01
-8.580824200000000701e+01 1.032527900000000010e+01 1.966680000000000095e-01
-8.583794100000000071e+01 1.035983899999999913e+01 2.872100000000000208e-01
-8.586639800000000378e+01 1.039390099999999961e+01 4.067430000000000212e-01
-8.589512000000000569e+01 1.042714199999999991e+01 5.064880000000000493e-01
-8.592404000000000508e+01 1.046018600000000021e+01 5.525210000000000399e-01
-8.595311999999999841e+01 1.049462600000000023e+01 5.395100000000000451e-01
-8.598292999999999608e+01 1.053072200000000080e+01 4.827000000000000179e-01
-8.601095399999999813e+01 1.056963499999999989e+01 4.027669999999999861e-01
-8.603768200000000377e+01 1.060796400000000084e+01 3.148389999999999800e-01
-8.606399899999999548e+01 1.064555799999999941e+01 2.268860000000000043e-01
-8.608707200000000626e+01 1.068288699999999913e+01 1.442859999999999976e-01
-8.610885600000000295e+01 1.072047300000000014e+01 6.749299999999999744e-02
-8.478598999999999819e+01 9.503049000000000746e+00 3.812470000000000026e-01
-8.481949799999999584e+01 9.530525000000000801e+00 6.863249999999999629e-01
-8.485094899999999996e+01 9.558573000000000874e+00 8.758979999999999544e-01
-8.488036099999999351e+01 9.583971999999999269e+00 9.457929999999999948e-01
-8.490991999999999962e+01 9.605432000000000414e+00 9.460250000000000048e-01
-8.494122000000000128e+01 9.623592000000000368e+00 8.908380000000000187e-01
-8.497813200000000222e+01 9.642438000000000287e+00 7.581830000000000513e-01
-8.502056399999999314e+01 9.660463999999999274e+00 5.901340000000000474e-01
-8.506090100000000120e+01 9.676838000000000051e+00 4.443309999999999760e-01
-8.509788399999999342e+01 9.694679000000000713e+00 3.493240000000000234e-01
-8.513221099999999808e+01 9.715515999999999153e+00 3.149299999999999877e-01
-8.516641099999999653e+01 9.741080000000000183e+00 3.284699999999999842e-01
-8.520181399999999883e+01 9.769353999999999871e+00 3.530179999999999985e-01
-8.523449200000000303e+01 9.799113999999999436e+00 3.422459999999999947e-01
-8.526547499999999502e+01 9.828960000000000363e+00 3.109850000000000114e-01
-8.529611400000000287e+01 9.859111999999999654e+00 3.194449999999999790e-01
-8.532784999999999798e+01 9.889163999999999177e+00 4.205240000000000089e-01
-8.536012399999999900e+01 9.917847999999999331e+00 6.208399999999999475e-01
-8.539045799999999531e+01 9.946251000000000175e+00 8.386569999999999858e-01
-8.541648299999999949e+01 9.976948999999999401e+00 9.457830000000000403e-01
-8.544201999999999941e+01 1.000940499999999922e+01 9.457830000000000403e-01
-8.546982800000000680e+01 1.004221000000000075e+01 9.473209999999999686e-01
-8.549876500000000590e+01 1.007605399999999918e+01 9.565900000000000514e-01
-8.552939100000000394e+01 1.010899500000000018e+01 9.619699999999999918e-01
-8.555925200000000075e+01 1.013965400000000017e+01 9.537710000000000354e-01
-8.558860500000000116e+01 1.016897900000000021e+01 9.222690000000000055e-01
-8.561843500000000518e+01 1.019858400000000032e+01 7.703510000000000080e-01
-8.564867800000000386e+01 1.022940999999999967e+01 5.505560000000000453e-01
-8.567973999999999535e+01 1.026088400000000078e+01 3.380420000000000091e-01
-8.571122499999999889e+01 1.029275499999999965e+01 1.870640000000000081e-01
-8.574260499999999752e+01 1.032563799999999965e+01 1.222870000000000068e-01
-8.577307999999999311e+01 1.035973599999999983e+01 1.433740000000000014e-01
-8.580241499999999633e+01 1.039445500000000067e+01 2.258689999999999864e-01
-8.583096899999999607e+01 1.042800500000000063e+01 3.222530000000000117e-01
-8.585970100000000116e+01 1.046218200000000031e+01 3.868500000000000272e-01
-8.588753499999999974e+01 1.049690099999999937e+01 3.969790000000000263e-01
-8.591668699999999603e+01 1.053081800000000001e+01 3.582119999999999749e-01
-8.594611399999999435e+01 1.056746599999999958e+01 2.930699999999999972e-01
-8.597386099999999942e+01 1.060563800000000079e+01 2.211370000000000002e-01
-8.600140700000000038e+01 1.064146799999999971e+01 1.525279999999999969e-01
-8.602912800000000004e+01 1.067798999999999943e+01 9.300600000000000533e-02
-8.605448599999999715e+01 1.071539800000000042e+01 4.742199999999999888e-02
-8.607761700000000360e+01 1.075225299999999962e+01 1.756200000000000122e-02
-8.475457699999999761e+01 9.535624999999999574e+00 3.726670000000000260e-01
-8.478777200000000391e+01 9.562848000000000681e+00 6.698769999999999447e-01
-8.482015199999999311e+01 9.590562999999999505e+00 8.547890000000000210e-01
-8.485072200000000464e+01 9.615444000000000102e+00 9.250570000000000181e-01
-8.487994799999999884e+01 9.638301999999999481e+00 9.089709999999999734e-01
-8.491068799999999328e+01 9.657562999999999676e+00 8.248860000000000081e-01
-8.494467299999999454e+01 9.675862000000000407e+00 6.870330000000000048e-01
-8.498474899999999366e+01 9.695957999999999188e+00 5.424839999999999662e-01
-8.502500200000000063e+01 9.715068999999999733e+00 4.419620000000000215e-01
-8.506251000000000317e+01 9.734555000000000291e+00 3.909989999999999855e-01
-8.509779799999999739e+01 9.756493000000000748e+00 3.725620000000000043e-01
-8.513189800000000673e+01 9.781266000000000460e+00 3.677070000000000061e-01
-8.516564099999999371e+01 9.808201000000000391e+00 3.550320000000000142e-01
-8.519919699999999807e+01 9.836465999999999710e+00 3.176689999999999792e-01
-8.523111000000000104e+01 9.866324999999999790e+00 2.714289999999999758e-01
-8.526150400000000218e+01 9.896760000000000446e+00 2.641140000000000154e-01
-8.529276699999999778e+01 9.927295000000000869e+00 3.460190000000000210e-01
-8.532378500000000088e+01 9.956848000000000809e+00 5.177800000000000180e-01
-8.535068900000000269e+01 9.986959000000000586e+00 7.085460000000000091e-01
-8.537324599999999464e+01 1.001973899999999951e+01 8.255120000000000235e-01
-8.539794899999999700e+01 1.005431600000000003e+01 8.699500000000000011e-01
-8.542534399999999550e+01 1.008934900000000034e+01 9.121979999999999533e-01
-8.545514099999999758e+01 1.012513000000000041e+01 9.457830000000000403e-01
-8.548793499999999312e+01 1.015570400000000006e+01 9.457830000000000403e-01
-8.551949999999999363e+01 1.018435500000000005e+01 9.214999999999999858e-01
-8.554885299999999404e+01 1.021296099999999996e+01 8.366090000000000471e-01
-8.558033600000000263e+01 1.024185699999999954e+01 6.564299999999999580e-01
-8.561095899999999403e+01 1.027017999999999986e+01 4.332699999999999885e-01
-8.564141600000000665e+01 1.030013199999999962e+01 2.327500000000000124e-01
-8.567227400000000159e+01 1.033199899999999971e+01 9.848700000000000510e-02
-8.570295699999999783e+01 1.036501499999999965e+01 4.679900000000000032e-02
-8.573311999999999955e+01 1.039887799999999984e+01 6.754699999999999593e-02
-8.576281099999999924e+01 1.043267200000000017e+01 1.321569999999999967e-01
-8.579214699999999993e+01 1.046619899999999959e+01 1.980139999999999956e-01
-8.582098399999999572e+01 1.050062899999999999e+01 2.307319999999999927e-01
-8.584951499999999669e+01 1.053461300000000023e+01 2.174699999999999966e-01
-8.587834300000000098e+01 1.056869900000000051e+01 1.699940000000000062e-01
-8.590783999999999310e+01 1.060429000000000066e+01 1.153789999999999955e-01
-8.593722300000000303e+01 1.063971399999999967e+01 7.204000000000000681e-02
-8.596642500000000098e+01 1.067574199999999962e+01 3.857900000000000218e-02
-8.599376100000000633e+01 1.071378499999999967e+01 1.327399999999999934e-02
-8.601841400000000704e+01 1.075126000000000026e+01 0.000000000000000000e+00
-8.604201399999999467e+01 1.078768900000000031e+01 0.000000000000000000e+00
-8.472353699999999321e+01 9.569152000000000768e+00 3.464260000000000117e-01
-8.475608900000000290e+01 9.596363000000000198e+00 6.242980000000000196e-01
-8.478847299999999620e+01 9.623651000000000622e+00 7.990680000000000005e-01
-8.482025500000000306e+01 9.648377999999999233e+00 8.649809999999999999e-01
-8.484983599999999626e+01 9.670968000000000231e+00 8.362579999999999458e-01
-8.487967100000000187e+01 9.690718999999999639e+00 7.326559999999999739e-01
-8.491341099999999642e+01 9.708911000000000513e+00 5.868309999999999915e-01
-8.494981799999999339e+01 9.730836000000000041e+00 4.499940000000000051e-01
-8.498797399999999413e+01 9.753239999999999910e+00 3.714230000000000032e-01
-8.502582499999999754e+01 9.775380000000000180e+00 3.564160000000000106e-01
-8.506197099999999978e+01 9.798641999999999186e+00 3.724370000000000180e-01
-8.509693699999999694e+01 9.822979000000000127e+00 3.877329999999999943e-01
-8.512947699999999429e+01 9.850084000000000728e+00 3.773750000000000160e-01
-8.516152499999999748e+01 9.878985999999999379e+00 3.332030000000000269e-01
-8.519302700000000073e+01 9.908003000000000782e+00 2.727680000000000105e-01
-8.522343499999999494e+01 9.938670999999999367e+00 2.273940000000000128e-01
-8.525528400000000318e+01 9.969160999999999717e+00 2.406490000000000018e-01
-8.528681199999999762e+01 9.998094999999999288e+00 3.307370000000000032e-01
-8.531179799999999602e+01 1.002874300000000041e+01 4.507419999999999760e-01
-8.533344499999999755e+01 1.006225599999999964e+01 5.361110000000000042e-01
-8.535813699999999926e+01 1.009691899999999976e+01 5.855979999999999519e-01
-8.538252699999999606e+01 1.013374300000000083e+01 6.463809999999999834e-01
-8.541064099999999826e+01 1.017049500000000073e+01 7.103310000000000457e-01
-8.544427799999999706e+01 1.019953899999999969e+01 7.433579999999999632e-01
-8.547790200000000027e+01 1.022607099999999924e+01 7.251269999999999660e-01
-8.550881300000000351e+01 1.025423200000000001e+01 6.302830000000000377e-01
-8.553911200000000292e+01 1.028302000000000049e+01 4.611580000000000124e-01
-8.557125100000000373e+01 1.031087100000000056e+01 2.728780000000000094e-01
-8.560237800000000163e+01 1.033971799999999952e+01 1.173519999999999980e-01
-8.563281000000000631e+01 1.037172600000000067e+01 2.480600000000000166e-02
-8.566329399999999339e+01 1.040450000000000053e+01 0.000000000000000000e+00
-8.569390599999999836e+01 1.043721400000000088e+01 2.473399999999999904e-02
-8.572423799999999972e+01 1.047040499999999952e+01 7.525300000000000045e-02
-8.575388999999999839e+01 1.050427700000000009e+01 1.168479999999999935e-01
-8.578267400000000009e+01 1.053843299999999950e+01 1.247579999999999939e-01
-8.581126100000000179e+01 1.057230099999999950e+01 9.582599999999999452e-02
-8.583999199999999519e+01 1.060792700000000011e+01 4.807000000000000162e-02
-8.586804600000000676e+01 1.064407800000000037e+01 1.014600000000000050e-02
-8.589622500000000116e+01 1.067966499999999996e+01 0.000000000000000000e+00
-8.592574500000000626e+01 1.071556900000000034e+01 0.000000000000000000e+00
-8.595296500000000606e+01 1.075321399999999983e+01 0.000000000000000000e+00
-8.597828800000000626e+01 1.078984900000000025e+01 0.000000000000000000e+00
-8.600326900000000308e+01 1.082553799999999988e+01 0.000000000000000000e+00
-8.469388600000000622e+01 9.602028000000000674e+00 3.132920000000000149e-01
-8.472578599999999938e+01 9.629262999999999906e+00 5.692430000000000545e-01
-8.475700199999999995e+01 9.657482999999999151e+00 7.347759999999999847e-01
-8.478751599999999655e+01 9.683915000000000717e+00 7.984869999999999468e-01
-8.481733099999999581e+01 9.706702999999999193e+00 7.661930000000000129e-01
-8.484802299999999775e+01 9.726150000000000517e+00 6.562480000000000535e-01
-8.488108200000000636e+01 9.745879000000000403e+00 5.048479999999999634e-01
-8.491558200000000056e+01 9.768186999999999287e+00 3.640379999999999727e-01
-8.495047900000000141e+01 9.793438999999999339e+00 2.826110000000000011e-01
-8.498769599999999969e+01 9.819304000000000698e+00 2.812049999999999828e-01
-8.502535299999999552e+01 9.844881000000000881e+00 3.331250000000000044e-01
-8.506076600000000099e+01 9.869764999999999233e+00 3.876399999999999846e-01
-8.509165500000000293e+01 9.896302000000000376e+00 4.038030000000000230e-01
-8.512321000000000026e+01 9.923380999999999119e+00 3.648250000000000104e-01
-8.515408899999999903e+01 9.951904000000000750e+00 2.865119999999999889e-01
-8.518424899999999411e+01 9.982938000000000756e+00 2.042200000000000126e-01
-8.521686499999999853e+01 1.001310900000000004e+01 1.608940000000000092e-01
-8.524968599999999697e+01 1.003973900000000086e+01 1.846510000000000096e-01
-8.527749900000000594e+01 1.006861299999999915e+01 2.476079999999999948e-01
-8.530137100000000316e+01 1.010037600000000069e+01 3.047460000000000169e-01
-8.532472599999999829e+01 1.013238899999999987e+01 3.534829999999999917e-01
-8.534806799999999782e+01 1.016828199999999960e+01 4.148660000000000125e-01
-8.537397900000000561e+01 1.020394199999999962e+01 4.771239999999999926e-01
-8.540460799999999608e+01 1.023632500000000078e+01 5.158960000000000212e-01
-8.543790699999999561e+01 1.026488900000000015e+01 5.029510000000000369e-01
-8.547054199999999469e+01 1.029111100000000079e+01 4.232480000000000131e-01
-8.550142599999999504e+01 1.031853500000000068e+01 2.912399999999999989e-01
-8.553287000000000262e+01 1.034785600000000017e+01 1.516220000000000068e-01
-8.556435500000000616e+01 1.037759900000000002e+01 4.744899999999999812e-02
-8.559460599999999886e+01 1.040995799999999960e+01 0.000000000000000000e+00
-8.562490499999999827e+01 1.044298399999999916e+01 9.759999999999999796e-04
-8.565502700000000402e+01 1.047630200000000045e+01 3.649600000000000066e-02
-8.568475200000000314e+01 1.050980599999999932e+01 8.175899999999999834e-02
-8.571424500000000535e+01 1.054350099999999912e+01 1.101710000000000050e-01
-8.574290700000000243e+01 1.057815199999999933e+01 1.056710000000000010e-01
-8.577143900000000087e+01 1.061253400000000013e+01 7.098899999999999655e-02
-8.579943000000000097e+01 1.064915700000000065e+01 2.717400000000000024e-02
-8.582601699999999312e+01 1.068612399999999951e+01 0.000000000000000000e+00
-8.585407100000000469e+01 1.072056700000000085e+01 0.000000000000000000e+00
-8.588326600000000610e+01 1.075535600000000080e+01 0.000000000000000000e+00
-8.591166099999999517e+01 1.079101700000000008e+01 0.000000000000000000e+00
-8.593934500000000298e+01 1.082613500000000073e+01 0.000000000000000000e+00
-8.596619599999999650e+01 1.086166799999999988e+01 0.000000000000000000e+00
-8.466356500000000551e+01 9.635607999999999507e+00 2.858859999999999735e-01
-8.469441999999999382e+01 9.663697000000000870e+00 5.271780000000000355e-01
-8.472471000000000174e+01 9.691995999999999611e+00 6.921209999999999862e-01
-8.475461199999999451e+01 9.719153999999999627e+00 7.647620000000000529e-01
-8.478545300000000395e+01 9.742374999999999119e+00 7.443140000000000311e-01
-8.481717100000000187e+01 9.761549999999999727e+00 6.448120000000000518e-01
-8.485004200000000196e+01 9.781634000000000384e+00 4.994460000000000011e-01
-8.488373400000000402e+01 9.804524000000000683e+00 3.553290000000000060e-01
-8.491680100000000664e+01 9.830187999999999704e+00 2.593840000000000034e-01
-8.495098299999999369e+01 9.858532000000000295e+00 2.383309999999999873e-01
-8.498884900000000187e+01 9.885965000000000558e+00 2.852190000000000003e-01
-8.502486600000000294e+01 9.909442999999999557e+00 3.466310000000000224e-01
-8.505754100000000051e+01 9.934105999999999881e+00 3.745859999999999745e-01
-8.508887199999999496e+01 9.961501999999999413e+00 3.497520000000000073e-01
-8.512057000000000073e+01 9.990420999999999552e+00 2.824579999999999869e-01
-8.515184600000000614e+01 1.001967499999999944e+01 2.047569999999999946e-01
-8.518355699999999331e+01 1.004908999999999963e+01 1.508929999999999993e-01
-8.521569399999999916e+01 1.007698399999999950e+01 1.414519999999999944e-01
-8.524373400000000345e+01 1.010625899999999966e+01 1.632359999999999922e-01
-8.526931399999999428e+01 1.013633399999999973e+01 1.918590000000000018e-01
-8.529201199999999972e+01 1.016678899999999963e+01 2.256319999999999992e-01
-8.531552200000000141e+01 1.020046900000000001e+01 2.707300000000000262e-01
-8.534152199999999766e+01 1.023384800000000006e+01 3.157449999999999979e-01
-8.536931900000000439e+01 1.026641300000000001e+01 3.429960000000000231e-01
-8.540116199999999935e+01 1.029653000000000063e+01 3.306359999999999855e-01
-8.543287399999999820e+01 1.032514699999999941e+01 2.709250000000000269e-01
-8.546402700000000152e+01 1.035462099999999985e+01 1.780200000000000116e-01
-8.549508400000000563e+01 1.038500200000000007e+01 8.533200000000000507e-02
-8.552599200000000224e+01 1.041602199999999989e+01 2.513699999999999962e-02
-8.555635700000000554e+01 1.044835999999999920e+01 1.201600000000000064e-02
-8.558643800000000113e+01 1.048152800000000084e+01 3.892899999999999833e-02
-8.561604400000000226e+01 1.051550899999999977e+01 8.972800000000000220e-02
-8.564542000000000144e+01 1.054965999999999937e+01 1.407470000000000110e-01
-8.567464400000000069e+01 1.058376799999999918e+01 1.706940000000000124e-01
-8.570312300000000505e+01 1.061844499999999947e+01 1.688310000000000088e-01
-8.573089099999999974e+01 1.065372999999999948e+01 1.391650000000000109e-01
-8.575804399999999816e+01 1.069011399999999945e+01 9.971800000000000108e-02
-8.578630499999999870e+01 1.072462200000000010e+01 6.969300000000000495e-02
-8.581565399999999499e+01 1.075818100000000044e+01 5.253200000000000230e-02
-8.584520299999999793e+01 1.079212399999999938e+01 3.597600000000000103e-02
-8.587475899999999740e+01 1.082604300000000030e+01 2.110499999999999876e-02
-8.590470200000000034e+01 1.085943900000000006e+01 9.542000000000000134e-03
-8.593310800000000427e+01 1.089445199999999936e+01 2.076999999999999853e-03
-8.463387500000000330e+01 9.668794999999999362e+00 2.729059999999999819e-01
-8.466397399999999607e+01 9.697184000000000026e+00 5.096829999999999972e-01
-8.469370499999999424e+01 9.725023999999999447e+00 6.822730000000000183e-01
-8.472292299999999443e+01 9.752656999999999243e+00 7.745170000000000110e-01
-8.475335699999999406e+01 9.777333000000000496e+00 7.824179999999999469e-01
-8.478578799999999660e+01 9.798738999999999422e+00 7.140980000000000105e-01
-8.481957199999999375e+01 9.818828999999999141e+00 5.945789999999999687e-01
-8.485324400000000367e+01 9.840638000000000218e+00 4.638390000000000013e-01
-8.488615900000000636e+01 9.865420000000000300e+00 3.642710000000000115e-01
-8.491901900000000580e+01 9.893660999999999817e+00 3.202340000000000186e-01
-8.495612099999999600e+01 9.919814000000000576e+00 3.296180000000000221e-01
-8.499126800000000515e+01 9.945031999999999428e+00 3.574800000000000200e-01
-8.502343500000000631e+01 9.971026000000000167e+00 3.708629999999999982e-01
-8.505520799999999326e+01 9.999627999999999517e+00 3.527480000000000060e-01
-8.508697999999999695e+01 1.002881799999999934e+01 3.054729999999999945e-01
-8.511919000000000324e+01 1.005713800000000013e+01 2.475660000000000083e-01
-8.515168900000000463e+01 1.008552800000000005e+01 1.998070000000000124e-01
-8.518275300000000527e+01 1.011375199999999985e+01 1.732960000000000056e-01
-8.521084600000000364e+01 1.014234500000000061e+01 1.629970000000000030e-01
-8.523563500000000204e+01 1.017212400000000017e+01 1.605880000000000085e-01
-8.525855500000000120e+01 1.020288500000000020e+01 1.673409999999999898e-01
-8.528215899999999294e+01 1.023488000000000042e+01 1.844550000000000078e-01
-8.530771000000000015e+01 1.026701199999999936e+01 2.043949999999999934e-01
-8.533642000000000394e+01 1.029830699999999943e+01 2.140900000000000025e-01
-8.536675200000000530e+01 1.032894600000000018e+01 2.007579999999999920e-01
-8.539722000000000435e+01 1.035935199999999945e+01 1.592639999999999889e-01
-8.542777200000000448e+01 1.039013399999999976e+01 1.008970000000000006e-01
-8.545848200000000361e+01 1.042130500000000026e+01 4.821999999999999897e-02
-8.548869000000000540e+01 1.045319899999999969e+01 2.164800000000000058e-02
-8.551848300000000336e+01 1.048593800000000087e+01 3.222099999999999964e-02
-8.554779200000000117e+01 1.051953299999999913e+01 7.644199999999999606e-02
-8.557678599999999847e+01 1.055401499999999970e+01 1.401040000000000063e-01
-8.560601900000000342e+01 1.058836600000000061e+01 2.033330000000000137e-01
-8.563477899999999465e+01 1.062290999999999919e+01 2.484540000000000082e-01
-8.566248799999999619e+01 1.065807000000000038e+01 2.649400000000000088e-01
-8.568940100000000371e+01 1.069460800000000056e+01 2.536229999999999873e-01
-8.571872000000000469e+01 1.073107700000000087e+01 2.249440000000000051e-01
-8.574890899999999760e+01 1.076355700000000049e+01 1.887659999999999894e-01
-8.577868899999999996e+01 1.079564500000000038e+01 1.481560000000000099e-01
-8.580817999999999302e+01 1.082883600000000079e+01 1.048430000000000056e-01
-8.583775599999999883e+01 1.086285600000000073e+01 6.564899999999999902e-02
-8.586854800000000409e+01 1.089542499999999947e+01 3.432700000000000334e-02
-8.589856899999999484e+01 1.092845999999999940e+01 1.233500000000000048e-02
-8.460672399999999982e+01 9.698736000000000246e+00 2.640509999999999802e-01
-8.463719700000000046e+01 9.726375000000000881e+00 4.927279999999999993e-01
-8.466618599999999617e+01 9.755031999999999925e+00 6.662400000000000544e-01
-8.469582300000000430e+01 9.782348000000000710e+00 7.748930000000000540e-01
-8.472516199999999742e+01 9.808417000000000385e+00 8.162359999999999616e-01
-8.475592399999999316e+01 9.832162999999999542e+00 7.932320000000000482e-01
-8.478911800000000198e+01 9.854369999999999408e+00 7.199729999999999741e-01
-8.482418800000000658e+01 9.875324000000000879e+00 6.227260000000000018e-01
-8.485768600000000106e+01 9.898493000000000208e+00 5.349359999999999671e-01
-8.489010799999999790e+01 9.925670000000000215e+00 4.794470000000000121e-01
-8.492453000000000429e+01 9.953241999999999479e+00 4.550089999999999968e-01
-8.495823799999999437e+01 9.979829000000000505e+00 4.448019999999999752e-01
-8.499005900000000224e+01 1.000806500000000021e+01 4.347289999999999766e-01
-8.502229900000000384e+01 1.003755400000000009e+01 4.133680000000000132e-01
-8.505371800000000349e+01 1.006660100000000035e+01 3.753839999999999955e-01
-8.508464899999999886e+01 1.009539000000000009e+01 3.260589999999999877e-01
-8.511798699999999940e+01 1.012370899999999985e+01 2.760509999999999908e-01
-8.514959399999999334e+01 1.015113900000000058e+01 2.306010000000000004e-01
-8.517819099999999821e+01 1.017882400000000054e+01 1.914599999999999913e-01
-8.520270399999999711e+01 1.020809299999999986e+01 1.595759999999999956e-01
-8.522528800000000615e+01 1.023882500000000029e+01 1.383850000000000080e-01
-8.524881000000000597e+01 1.027047400000000010e+01 1.286899999999999988e-01
-8.527466900000000294e+01 1.030173600000000000e+01 1.255630000000000079e-01
-8.530259499999999662e+01 1.033264199999999988e+01 1.202280000000000015e-01
-8.533227399999999818e+01 1.036368799999999979e+01 1.050050000000000011e-01
-8.536213100000000509e+01 1.039443200000000012e+01 7.688300000000000689e-02
-8.539174800000000687e+01 1.042574399999999990e+01 4.378499999999999753e-02
-8.542200300000000368e+01 1.045773900000000012e+01 1.931300000000000031e-02
-8.545229000000000497e+01 1.048976099999999967e+01 1.393400000000000021e-02
-8.548200300000000595e+01 1.052228299999999983e+01 3.566199999999999926e-02
-8.551086999999999705e+01 1.055599999999999916e+01 8.408699999999999508e-02
-8.553964200000000062e+01 1.059033699999999989e+01 1.495769999999999877e-01
-8.556758800000000065e+01 1.062478199999999973e+01 2.194280000000000119e-01
-8.559475399999999468e+01 1.066023999999999994e+01 2.806069999999999953e-01
-8.562204400000000248e+01 1.069718400000000003e+01 3.214199999999999835e-01
-8.565031299999999703e+01 1.073540900000000065e+01 3.351680000000000215e-01
-8.568274900000000116e+01 1.076962999999999937e+01 3.218920000000000115e-01
-8.571358200000000238e+01 1.079964000000000013e+01 2.815320000000000045e-01
-8.574308299999999861e+01 1.083116200000000084e+01 2.235800000000000010e-01
-8.577079399999999509e+01 1.086510900000000035e+01 1.605910000000000115e-01
-8.579874399999999923e+01 1.090139399999999981e+01 1.056419999999999998e-01
-8.583245599999999342e+01 1.093314999999999948e+01 6.062399999999999733e-02
-8.586491300000000138e+01 1.096221700000000077e+01 2.484700000000000103e-02
-8.458065000000000566e+01 9.725984000000000407e+00 2.284750000000000114e-01
-8.461111800000000471e+01 9.754182999999999382e+00 4.226590000000000069e-01
-8.464019999999999300e+01 9.783727999999999980e+00 5.724489999999999856e-01
-8.466972599999999716e+01 9.812013000000000318e+00 6.758220000000000338e-01
-8.469904800000000478e+01 9.838117999999999697e+00 7.330510000000000081e-01
-8.472891199999999401e+01 9.862227000000000743e+00 7.459130000000000482e-01
-8.476091599999999460e+01 9.885433000000000803e+00 7.198160000000000114e-01
-8.479587899999999934e+01 9.907254000000000005e+00 6.654940000000000300e-01
-8.483025399999999649e+01 9.929983999999999256e+00 6.036200000000000454e-01
-8.486242199999999514e+01 9.956359000000000847e+00 5.534799999999999720e-01
-8.489415400000000034e+01 9.984795000000000087e+00 5.203320000000000167e-01
-8.492703199999999697e+01 1.001384900000000044e+01 4.965990000000000126e-01
-8.495909000000000333e+01 1.004332999999999920e+01 4.753240000000000243e-01
-8.499120399999999620e+01 1.007310200000000044e+01 4.498130000000000184e-01
-8.502352799999999888e+01 1.010161100000000012e+01 4.118089999999999806e-01
-8.505401000000000522e+01 1.012991599999999970e+01 3.618799999999999795e-01
-8.508606399999999326e+01 1.015854700000000044e+01 3.062230000000000230e-01
-8.511706999999999823e+01 1.018665000000000020e+01 2.488430000000000086e-01
-8.514534799999999848e+01 1.021519299999999930e+01 1.944039999999999935e-01
-8.516985300000000336e+01 1.024455999999999989e+01 1.472050000000000025e-01
-8.519241399999999942e+01 1.027505500000000005e+01 1.103810000000000069e-01
-8.521576600000000212e+01 1.030643199999999915e+01 8.496599999999999986e-02
-8.524048200000000008e+01 1.033759099999999975e+01 6.882900000000000129e-02
-8.526827799999999513e+01 1.036824700000000021e+01 5.596500000000000086e-02
-8.529798399999999958e+01 1.039899899999999988e+01 4.186800000000000244e-02
-8.532804299999999387e+01 1.042988300000000024e+01 2.466600000000000042e-02
-8.535690499999999759e+01 1.046142200000000066e+01 8.094000000000000500e-03
-8.538653999999999655e+01 1.049360399999999949e+01 0.000000000000000000e+00
-8.541644700000000512e+01 1.052563699999999969e+01 2.521999999999999936e-03
-8.544593299999999658e+01 1.055831599999999959e+01 2.293900000000000106e-02
-8.547539700000000096e+01 1.059203499999999920e+01 6.248399999999999788e-02
-8.550443400000000338e+01 1.062527700000000053e+01 1.149919999999999970e-01
-8.553117600000000209e+01 1.065929900000000075e+01 1.754410000000000136e-01
-8.555680200000000468e+01 1.069572499999999948e+01 2.368500000000000050e-01
-8.558549100000000465e+01 1.073478399999999944e+01 2.902290000000000147e-01
-8.561841699999999378e+01 1.077121299999999948e+01 3.203690000000000149e-01
-8.565111600000000180e+01 1.080214900000000000e+01 3.173349999999999782e-01
-8.568234999999999957e+01 1.083119399999999999e+01 2.805139999999999856e-01
-8.571240699999999890e+01 1.086198699999999917e+01 2.226960000000000051e-01
-8.574036499999999705e+01 1.089577700000000071e+01 1.599039999999999906e-01
-8.576957799999999565e+01 1.093083400000000083e+01 1.064169999999999977e-01
-8.580294899999999814e+01 1.096174800000000005e+01 6.182700000000000001e-02
-8.583546099999999512e+01 1.099132499999999979e+01 2.517000000000000140e-02
-8.455465599999999426e+01 9.752293999999999130e+00 1.416419999999999901e-01
-8.458516099999999938e+01 9.781855000000000189e+00 2.589020000000000210e-01
-8.461502900000000693e+01 9.812172999999999590e+00 3.490809999999999746e-01
-8.464478499999999883e+01 9.840884000000000853e+00 4.140579999999999816e-01
-8.467436700000000371e+01 9.866915999999999798e+00 4.555029999999999912e-01
-8.470391600000000665e+01 9.890572000000000585e+00 4.749909999999999966e-01
-8.473529999999999518e+01 9.914077000000000695e+00 4.740949999999999886e-01
-8.476917100000000005e+01 9.936697999999999809e+00 4.544639999999999791e-01
-8.480286300000000210e+01 9.960388999999999271e+00 4.251099999999999879e-01
-8.483509100000000558e+01 9.987235999999999336e+00 3.966569999999999818e-01
-8.486560000000000059e+01 1.001661000000000001e+01 3.759140000000000259e-01
-8.489762199999999837e+01 1.004750300000000074e+01 3.609269999999999978e-01
-8.493021000000000242e+01 1.007747499999999974e+01 3.456899999999999973e-01
-8.496188200000000279e+01 1.010697900000000082e+01 3.265509999999999802e-01
-8.499395499999999970e+01 1.013607200000000041e+01 2.984299999999999731e-01
-8.502577999999999747e+01 1.016364399999999968e+01 2.607110000000000261e-01
-8.505681599999999776e+01 1.019127100000000041e+01 2.178769999999999873e-01
-8.508636599999999817e+01 1.021996900000000075e+01 1.737760000000000138e-01
-8.511339200000000460e+01 1.024948099999999940e+01 1.322309999999999874e-01
-8.513781400000000588e+01 1.028039300000000011e+01 9.662400000000000155e-02
-8.516107999999999834e+01 1.031149100000000018e+01 6.764000000000000568e-02
-8.518372800000000211e+01 1.034180699999999931e+01 4.590199999999999836e-02
-8.520791900000000396e+01 1.037221699999999913e+01 3.090499999999999844e-02
-8.523428400000000238e+01 1.040316800000000086e+01 1.970799999999999982e-02
-8.526255799999999851e+01 1.043482500000000002e+01 1.089900000000000070e-02
-8.529291399999999612e+01 1.046663700000000041e+01 4.305999999999999932e-03
-8.532363100000000600e+01 1.049782599999999988e+01 0.000000000000000000e+00
-8.535234199999999305e+01 1.052904799999999952e+01 0.000000000000000000e+00
-8.538120100000000434e+01 1.056095799999999940e+01 0.000000000000000000e+00
-8.541106800000000021e+01 1.059436700000000009e+01 9.905000000000000610e-03
-8.544245499999999538e+01 1.062692000000000014e+01 3.100299999999999931e-02
