-74.971500 -43.976500 0.567840 13.435310
-74.978400 -43.904600 0.621498 13.239021
-74.985300 -43.832800 0.676465 13.033570
-74.992200 -43.761000 0.731228 12.817271
-74.999200 -43.689200 0.770992 12.588777
-75.006100 -43.617400 0.777992 12.351962
-75.013000 -43.545500 0.766563 12.108111
-75.019900 -43.473700 0.743414 11.861131
-75.026800 -43.401900 0.687327 11.615014
-75.033700 -43.330100 0.630328 11.374089
-75.040600 -43.258300 0.564130 11.142371
-75.047500 -43.186400 0.513208 10.923251
-75.054500 -43.114600 0.462366 10.718391
-75.061400 -43.042800 0.411992 10.531587
-75.068300 -42.971000 0.361618 10.361855
-74.888300 -43.972200 0.583386 14.520679
-74.895200 -43.900400 0.638353 14.325267
-74.902200 -43.828600 0.692741 14.120182
-74.909100 -43.756800 0.742976 13.906068
-74.916000 -43.685000 0.793351 13.680854
-74.922900 -43.613100 0.783566 13.445128
-74.929800 -43.541300 0.769526 13.201523
-74.936700 -43.469500 0.754482 12.952985
-74.943600 -43.397700 0.731787 12.703586
-74.950600 -43.325900 0.675596 12.456129
-74.957500 -43.254000 0.615290 12.217414
-74.964400 -43.182200 0.555081 11.990156
-74.971300 -43.110400 0.507001 11.776844
-74.978200 -43.038600 0.467161 11.579208
-74.985100 -42.966800 0.427381 11.397716
-74.805200 -43.968000 0.588867 15.716032
-74.812100 -43.896200 0.640380 15.522174
-74.819000 -43.824400 0.690413 15.321543
-74.825900 -43.752600 0.740456 15.111128
-74.832800 -43.680700 0.770879 14.889335
-74.839700 -43.608900 0.756839 14.656666
-74.846700 -43.537100 0.742835 14.413074
-74.853600 -43.465300 0.727710 14.164393
-74.860500 -43.393500 0.712294 13.912950
-74.867400 -43.321600 0.672491 13.662528
-74.874300 -43.249800 0.622489 13.417703
-74.881200 -43.178000 0.572487 13.181943
-74.888100 -43.106200 0.522480 12.958161
-74.895100 -43.034400 0.496392 12.746823
-74.902000 -42.962500 0.472055 12.551554
-74.722000 -43.963800 0.583959 17.046235
-74.728900 -43.892000 0.632098 16.853849
-74.735800 -43.820100 0.684502 16.656287
-74.742800 -43.748300 0.736700 16.448218
-74.749700 -43.676500 0.743024 16.230781
-74.756600 -43.604700 0.727607 16.001787
-74.763500 -43.532900 0.712191 15.762268
-74.770400 -43.461100 0.696775 15.514410
-74.777300 -43.389200 0.681334 15.261332
-74.784200 -43.317400 0.640341 15.007089
-74.791100 -43.245600 0.590321 14.755571
-74.798100 -43.173800 0.546972 14.508701
-74.805000 -43.102000 0.505854 14.273016
-74.811900 -43.030100 0.483917 14.048903
-74.818800 -42.958300 0.468952 13.837709
-74.638800 -43.959600 0.572284 18.533233
-74.645800 -43.887700 0.606941 18.339028
-74.652700 -43.815900 0.636684 18.143854
-74.659600 -43.744100 0.676075 17.941126
-74.666500 -43.672300 0.711955 17.727914
-74.673400 -43.600500 0.696587 17.502768
-74.680300 -43.528600 0.681176 17.265680
-74.687200 -43.456800 0.665789 17.018496
-74.694200 -43.385000 0.650443 16.761875
-74.701100 -43.313200 0.613642 16.502965
-74.708000 -43.241400 0.572524 16.243759
-74.714900 -43.169600 0.531406 15.987815
-74.721800 -43.097700 0.490206 15.738176
-74.728700 -43.025900 0.469960 15.497519
-74.735600 -42.954100 0.460726 15.267045
-74.555700 -43.955300 0.541927 20.197942
-74.562600 -43.883500 0.573554 20.003896
-74.569500 -43.811700 0.603058 19.809517
-74.576400 -43.739900 0.632562 19.609169
-74.583300 -43.668100 0.662007 19.399028
-74.590300 -43.596200 0.663970 19.174434
-74.597200 -43.524400 0.646872 18.939140
-74.604100 -43.452600 0.629850 18.691719
-74.611000 -43.380800 0.600856 18.434248
-74.617900 -43.309000 0.570981 18.169572
-74.624800 -43.237100 0.536809 17.900967
-74.631700 -43.165300 0.500547 17.632146
-74.638700 -43.093500 0.471931 17.364121
-74.645600 -43.021700 0.465890 17.103558
-74.652500 -42.949900 0.467846 16.850093
-74.472500 -43.951100 0.510335 22.066421
-74.479400 -43.879300 0.533158 21.867644
-74.486300 -43.807500 0.555308 21.671349
-74.493300 -43.735700 0.577536 21.468669
-74.500200 -43.663800 0.597906 21.259503
-74.507100 -43.592000 0.589874 21.038199
-74.514000 -43.520200 0.579928 20.803091
-74.520900 -43.448400 0.561043 20.554006
-74.527800 -43.376600 0.533704 20.292131
-74.534700 -43.304700 0.506317 20.019570
-74.541700 -43.232900 0.479679 19.737275
-74.548600 -43.161100 0.470844 19.452955
-74.555500 -43.089300 0.460867 19.167499
-74.562400 -43.017500 0.444516 18.883593
-74.569300 -42.945600 0.437140 18.603121
-74.389400 -43.946900 0.463478 24.151174
-74.396300 -43.875100 0.482676 23.944054
-74.403200 -43.803300 0.494922 23.742582
-74.410100 -43.731400 0.514474 23.539456
-74.417000 -43.659600 0.521749 23.328921
-74.423900 -43.587800 0.509238 23.106383
-74.430800 -43.516000 0.496572 22.869187
-74.437800 -43.444200 0.478717 22.613528
-74.444700 -43.372300 0.451330 22.344839
-74.451600 -43.300500 0.428368 22.062334
-74.458500 -43.228700 0.409531 21.768345
-74.465400 -43.156900 0.400799 21.465782
-74.472300 -43.085100 0.395534 21.157718
-74.479200 -43.013200 0.390202 20.846713
-74.486200 -42.941400 0.396756 20.533083
-74.306200 -43.942700 0.425632 26.468373
-74.313100 -43.870800 0.442839 26.249059
-74.320000 -43.799000 0.447412 26.038838
-74.326900 -43.727200 0.447604 25.829620
-74.333900 -43.655400 0.444540 25.611576
-74.340800 -43.583600 0.428555 25.384861
-74.347700 -43.511800 0.413386 25.142854
-74.354600 -43.439900 0.396335 24.883180
-74.361500 -43.368100 0.377099 24.605443
-74.368400 -43.296300 0.358263 24.310333
-74.375300 -43.224500 0.339426 23.999658
-74.382200 -43.152700 0.330845 23.675975
-74.389200 -43.080800 0.335013 23.339212
-74.396100 -43.009000 0.342143 22.998149
-74.403000 -42.937200 0.349576 22.652443
-74.223000 -43.938400 0.389929 29.019091
-74.229900 -43.866600 0.404145 28.783567
-74.236900 -43.794800 0.392997 28.557534
-74.243800 -43.723000 0.379850 28.338588
-74.250700 -43.651200 0.366812 28.115448
-74.257600 -43.579300 0.359219 27.881439
-74.264500 -43.507500 0.339259 27.631663
-74.271400 -43.435700 0.317699 27.362731
-74.278300 -43.363900 0.297796 27.073150
-74.285300 -43.292100 0.280401 26.759750
-74.292200 -43.220300 0.271488 26.429893
-74.299100 -43.148400 0.274695 26.082416
-74.306000 -43.076600 0.285561 25.720308
-74.312900 -43.004800 0.294771 25.346227
-74.319800 -42.933000 0.302691 24.962999
-74.139900 -43.934200 0.350651 31.794314
-74.146800 -43.862400 0.360366 31.538778
-74.153700 -43.790600 0.347181 31.299617
-74.160600 -43.718800 0.332282 31.067293
-74.167500 -43.646900 0.315792 30.832585
-74.174400 -43.575100 0.296982 30.587982
-74.181400 -43.503300 0.272902 30.324002
-74.188300 -43.431500 0.248754 30.043009
-74.195200 -43.359700 0.224591 29.739154
-74.202100 -43.287800 0.216236 29.411311
-74.209000 -43.216000 0.215976 29.060190
-74.215900 -43.144200 0.215682 28.687269
-74.222800 -43.072400 0.218698 28.294879
-74.229800 -43.000600 0.235161 27.882675
-74.236700 -42.928800 0.257525 27.459994
-74.056700 -43.930000 0.314011 34.786809
-74.063600 -43.858200 0.313448 34.507607
-74.070500 -43.786400 0.293576 34.248331
-74.077500 -43.714500 0.275987 33.995267
-74.084400 -43.642700 0.259527 33.745563
-74.091300 -43.570900 0.239600 33.487234
-74.098200 -43.499100 0.215438 33.213001
-74.105100 -43.427300 0.191235 32.917522
-74.112000 -43.355400 0.166992 32.597048
-74.118900 -43.283600 0.160463 32.249960
-74.125800 -43.211800 0.160203 31.876017
-74.132800 -43.140000 0.161599 31.472828
-74.139700 -43.068200 0.167383 31.049360
-74.146600 -42.996300 0.189897 30.604502
-74.153500 -42.924500 0.212280 30.141755
-73.973500 -43.925800 0.264908 37.970957
-73.980500 -43.853900 0.258017 37.660904
-73.987400 -43.782100 0.255787 37.378329
-73.994300 -43.710300 0.234307 37.108550
-74.001200 -43.638500 0.211135 36.840743
-74.008100 -43.566700 0.186252 36.565672
-74.015000 -43.494900 0.158641 36.274948
-74.021900 -43.423000 0.133636 35.962379
-74.028900 -43.351200 0.109500 35.619870
-74.035800 -43.279400 0.105439 35.252282
-74.042700 -43.207600 0.110214 34.854987
-74.049600 -43.135800 0.114927 34.428469
-74.056500 -43.063900 0.122112 33.973929
-74.063400 -42.992100 0.144562 33.494280
-74.070300 -42.920300 0.166557 32.992116
-73.890400 -43.921500 0.226995 41.314815
-73.897300 -43.849700 0.220934 40.979294
-73.904200 -43.777900 0.215087 40.670515
-73.911100 -43.706100 0.195026 40.377086
-73.918000 -43.634300 0.169242 40.087786
-73.925000 -43.562400 0.143704 39.788835
-73.931900 -43.490600 0.118891 39.479129
-73.938800 -43.418800 0.092933 39.147850
-73.945700 -43.347000 0.075825 38.789598
-73.952600 -43.275200 0.062315 38.401071
-73.959500 -43.203400 0.065871 37.980479
-73.966400 -43.131500 0.069347 37.527390
-73.973400 -43.059700 0.076616 37.039679
-73.980300 -42.987900 0.097634 36.526823
-73.987200 -42.916100 0.118703 35.987675
-73.807200 -43.917300 0.192749 44.796023
-73.814100 -43.845500 0.186909 44.428489
-73.821000 -43.773700 0.181129 44.090385
-73.828000 -43.701900 0.158260 43.766024
-73.834900 -43.630000 0.132342 43.452405
-73.841800 -43.558200 0.111325 43.135059
-73.848700 -43.486400 0.091763 42.804341
-73.855600 -43.414600 0.074699 42.452734
-73.862500 -43.342800 0.057823 42.073940
-73.869400 -43.271000 0.040946 41.664051
-73.876400 -43.199100 0.029024 41.216498
-73.883300 -43.127300 0.039403 40.739008
-73.890200 -43.055500 0.050191 40.227985
-73.897100 -42.983700 0.062278 39.685079
-73.904000 -42.911900 0.080218 39.112617
-73.724100 -43.913100 0.162454 48.374382
-73.731000 -43.841300 0.155242 47.972900
-73.737900 -43.769500 0.147372 47.603164
-73.744800 -43.697600 0.130950 47.253523
-73.751700 -43.625800 0.111401 46.913032
-73.758600 -43.554000 0.091836 46.570683
-73.765500 -43.482200 0.072475 46.216635
-73.772500 -43.410400 0.055611 45.838809
-73.779400 -43.338500 0.040965 45.438605
-73.786300 -43.266700 0.028205 45.007724
-73.793200 -43.194900 0.021535 44.543006
-73.800100 -43.123100 0.029045 44.043153
-73.807000 -43.051300 0.036554 43.508069
-73.813900 -42.979500 0.042818 42.938754
-73.820900 -42.907600 0.051323 42.332745
-73.640900 -43.908900 0.132143 52.030349
-73.647800 -43.837100 0.123253 51.593354
-73.654700 -43.765200 0.114403 51.189595
-73.661600 -43.693400 0.106097 50.807968
-73.668600 -43.621600 0.090236 50.433341
-73.675500 -43.549800 0.071398 50.063381
-73.682400 -43.478000 0.056782 49.684094
-73.689300 -43.406100 0.043917 49.286947
-73.696200 -43.334300 0.031177 48.865230
-73.703100 -43.262500 0.018416 48.413821
-73.710000 -43.190700 0.014194 47.928993
-73.716900 -43.118900 0.019722 47.408846
-73.723900 -43.047000 0.022973 46.848267
-73.730800 -42.975200 0.026200 46.256671
-73.737700 -42.903400 0.035792 45.631056
-73.557700 -43.904600 0.101437 55.736037
-73.564600 -43.832800 0.092563 55.262006
-73.571600 -43.761000 0.083631 54.817873
-73.578500 -43.689200 0.078264 54.401846
-73.585400 -43.617400 0.071167 53.999286
-73.592300 -43.545600 0.059441 53.599470
-73.599200 -43.473700 0.047733 53.192844
-73.606100 -43.401900 0.033914 52.771089
-73.613000 -43.330100 0.020909 52.326922
-73.620000 -43.258300 0.012756 51.850773
-73.626900 -43.186500 0.005971 51.346911
-73.633800 -43.114600 0.006164 50.808323
-73.640700 -43.042800 0.007039 50.234412
-73.647600 -42.971000 0.009563 49.624697
-73.654500 -42.899200 0.017997 48.979968
-73.474600 -43.900400 0.074887 59.469953
-73.481500 -43.828600 0.069785 58.957859
-73.488400 -43.756800 0.064664 58.480458
-73.495300 -43.685000 0.059543 58.028012
-73.502200 -43.613100 0.051474 57.590742
-73.509100 -43.541300 0.039747 57.158782
-73.516100 -43.469500 0.030168 56.718740
-73.523000 -43.397700 0.023662 56.270615
-73.529900 -43.325900 0.018030 55.803135
-73.536800 -43.254100 0.013017 55.310532
-73.543700 -43.182200 0.007997 54.788036
-73.550600 -43.110400 0.002948 54.233301
-73.557500 -43.038600 0.002495 53.644057
-73.564500 -42.966800 0.003006 53.015346
-73.571400 -42.895000 0.003498 52.355530
-73.391400 -43.896200 0.048220 63.231002
-73.398300 -43.824400 0.050732 62.680102
-73.405200 -43.752600 0.045701 62.163663
-73.412200 -43.680700 0.041150 61.668405
-73.419100 -43.608900 0.037361 61.194807
-73.426000 -43.537100 0.031431 60.728742
-73.432900 -43.465300 0.024890 60.261794
-73.439800 -43.393500 0.018368 59.785685
-73.446700 -43.321600 0.012955 59.293343
-73.453600 -43.249800 0.008513 58.779352
-73.460500 -43.178000 0.005588 58.238826
-73.467500 -43.106200 0.002669 57.664118
-73.474400 -43.034400 0.001959 57.061038
-73.481300 -42.962600 0.001367 56.423965
-73.488200 -42.890700 0.000774 55.751739
-73.308200 -43.892000 0.024157 67.010864
-73.315200 -43.820200 0.028745 66.416352
-73.322100 -43.748300 0.028858 65.859864
-73.329000 -43.676500 0.026867 65.330046
-73.335900 -43.604700 0.024586 64.818385
-73.342800 -43.532900 0.020964 64.316467
-73.349700 -43.461100 0.015763 63.816448
-73.356600 -43.389200 0.013719 63.310281
-73.363600 -43.317400 0.011524 62.787849
-73.370500 -43.245600 0.008690 62.251361
-73.377400 -43.173800 0.005754 61.691820
-73.384300 -43.102000 0.003053 61.105301
-73.391200 -43.030100 0.002393 60.488355
-73.398100 -42.958300 0.001524 59.839853
-73.405000 -42.886500 0.000656 59.158101
-73.225100 -43.887800 0.006739 70.806370
-73.232000 -43.815900 0.011319 70.177305
-73.238900 -43.744100 0.010523 69.581329
-73.245800 -43.672300 0.008590 69.011610
-73.252700 -43.600500 0.009730 68.460864
-73.259700 -43.528700 0.011395 67.917438
-73.266600 -43.456800 0.011018 67.382562
-73.273500 -43.385000 0.010538 66.845396
-73.280400 -43.313200 0.010050 66.299429
-73.287300 -43.241400 0.008327 65.738801
-73.294200 -43.169600 0.005798 65.158763
-73.301100 -43.097700 0.003337 64.554625
-73.308100 -43.025900 0.001708 63.919867
-73.315000 -42.954100 0.001087 63.259843
-73.321900 -42.882300 0.000452 62.568558
