-75.067000 -43.026000 0.396156 10.442916
-74.933000 -43.026000 0.473682 12.184540
-74.800000 -43.026000 0.481139 14.241811
-74.667000 -43.026000 0.470050 16.679093
-74.533000 -43.026000 0.437220 19.574210
-74.400000 -43.026000 0.343625 22.929011
-75.067000 -43.158000 0.476178 10.638567
-74.933000 -43.158000 0.551999 12.385687
-74.800000 -43.158000 0.537984 14.449468
-74.667000 -43.158000 0.515741 16.897726
-74.533000 -43.158000 0.457261 19.811562
-74.400000 -43.158000 0.346507 23.194587
-75.067000 -43.289000 0.542683 10.883174
-74.933000 -43.289000 0.655426 12.628214
-74.800000 -43.289000 0.625132 14.685206
-74.667000 -43.289000 0.588428 17.125522
-74.533000 -43.289000 0.497237 20.034268
-74.400000 -43.289000 0.381850 23.418831
-75.067000 -43.421000 0.652937 11.166924
-74.933000 -43.421000 0.741319 12.901255
-74.800000 -43.421000 0.697414 14.937794
-74.667000 -43.421000 0.649390 17.351812
-74.533000 -43.421000 0.559762 20.233266
-75.200000 -43.553000 0.471660 10.010875
-75.067000 -43.553000 0.721442 11.466334
-74.933000 -43.553000 0.773161 13.181553
-74.800000 -43.553000 0.730313 15.185755
-74.667000 -43.553000 0.682452 17.558531
-74.533000 -43.553000 0.605480 20.395474
-75.200000 -43.684000 0.478228 10.307710
-75.067000 -43.684000 0.697620 11.755397
-74.933000 -43.684000 0.795174 13.445328
-74.800000 -43.684000 0.761460 15.409604
-74.667000 -43.684000 0.711798 17.732540
-74.533000 -43.684000 0.620232 20.515987
-75.200000 -43.816000 0.486468 10.582532
-75.067000 -43.816000 0.642772 12.019852
-74.933000 -43.816000 0.698122 13.681877
-74.800000 -43.816000 0.694977 15.603863
-74.667000 -43.816000 0.646244 17.875283
-74.533000 -43.816000 0.586239 20.604817
-75.200000 -43.947000 0.454024 10.819777
-75.067000 -43.947000 0.566959 12.248063
-74.933000 -43.947000 0.595781 13.885356
-74.800000 -43.947000 0.603120 15.770110
-74.667000 -43.947000 0.589326 17.997181
-74.533000 -43.947000 0.537046 20.682407
-75.200000 -44.079000 0.408283 11.023691
-75.067000 -44.079000 0.485429 12.449279
-74.933000 -44.079000 0.511910 14.070874
-74.800000 -44.079000 0.519951 15.929889
-74.667000 -44.079000 0.510316 18.126682
-74.533000 -44.079000 0.473232 20.784503
